0,0,0,0,0,0,0,0,0,0,0,0,0,0,3.336,3.336,3.355,3.355,3.355,3.365,3.384,3.394,3.394,3.404,3.414,3.414,3.424,3.424,3.424,3.424,3.434,3.434,3.444,3.444,3.444,3.434,3.434,3.434,3.434,3.424,3.424,3.414,3.414,3.414,3.414,3.414,3.414,3.414,3.424,3.434,3.434,3.444,3.444,3.454,3.454,3.465,3.465,3.475,3.475,3.485,3.485,3.485,3.485,3.485,3.485,3.485,3.485,3.485,3.485,3.496,3.496,3.496,3.496,3.496,3.506,3.506,3.517,3.528,3.528,3.538,3.538,3.538,3.538,3.538,3.538,3.538,3.538,3.549,3.549,3.56,0,0,3.56,3.582,3.593,3.593,3.593,3.615,3.615,3.627,3.615,3.582,3.538,3.528,3.517,3.506,3.506,3.496,3.485,3.475,3.485,3.485,3.475,3.475,3.465,3.465,3.454,3.454,3.454,3.454,3.454,3.454,3.454,3.454,3.465,3.465,3.475,3.475,3.485,3.496,3.517,3.538,3.549,3.582,3.593,3.615,3.627,3.649,3.649,3.661,3.661,3.661,3.661,3.661,3.661,3.661,3.661,3.672,3.672,3.696,3.696,3.707,3.743,3.755,3.755,3.78,3.78,3.792,3.804,3.804,3.804,3.817,3.817,3.804,3.804,3.804,3.804,3.804,3.804,3.804,3.792,3.792,3.792,3.792,3.792,3.78,3.78,3.78,3.78,3.792,3.792,3.792,3.804,3.804,3.804,3.804,3.817,3.817,3.817,3.829,3.829,3.829,3.842,3.842,3.855,3.855,3.855,3.855,3.855,3.868,3.868,3.868,3.868,3.868,3.88,3.88,3.88,3.893,3.893,3.893,3.906,3.893,3.893,3.906,3.906,3.92,3.973,3.973,3.987,3.987,3.987,3.987,4.014,4.014,4.014,4.014,4.014,4.014,4.014,4.014,4.014,3.987,3.987,3.987,3.987,3.987,3.987,3.987,4.014,4.014,4.014,4.028,4.028,4.028,4.028,4.056,4.07,4.07,4.085,4.085,4.114,4.114,4.114,4.114,4.128,4.158,4.173,4.173,4.203,4.203,4.218,4.233,4.233,4.249,4.249,4.249,4.249,4.249,4.249,4.249,4.249,4.249,4.249,4.249,4.249,4.249,4.249,4.249,4.249,4.249,4.249,4.249,4.249,4.249,4.249,4.249,4.249,4.249,4.249,4.249,4.264,4.264,4.264,4.264,4.264,4.264,4.28,4.28,4.28,4.296,4.312,4.312,4.328,4.328,4.328,4.344,4.344,4.344,4.344,4.328,4.328,4.328,4.312,4.296,4.28,4.28,4.28,4.28,4.28,4.28,4.28,4.28,4.296,4.312,4.312,4.328,4.328,4.344,4.376,4.393,4.41,4.426,4.46,4.477,4.512,4.53,4.53,4.53,4.565,4.565,4.565,4.565,4.565,4.53,4.53,4.53,4.512,4.477,4.46,4.426,4.393,4.393,4.376,4.376,4.36,4.36,4.36,4.36,4.36,4.376,4.376,4.393,4.393,4.426,4.46,4.512,4.565,4.601,4.657,4.694,4.713,4.752,4.771,4.791,4.791,4.791,4.81,4.81,4.83,4.83,4.83,4.83,4.83,4.83,4.83,4.83,4.851,4.851,4.851,4.851,4.851,4.851,4.851,4.851,4.851,4.851,4.851,4.83,4.83,4.851,4.851,4.83,4.851,4.851,4.83,4.83,4.81,4.81,4.771,4.601,4.477,4.376,4.312,4.264,4.218,4.128,3.987,3.973,3.946,3.973,3.973,3.987,4.056,4.085,0,4.203,4.264,4.344,4.477,4.657,4.81,4.851,4.891,4.912,4.954,4.975,4.975,4.975,4.975,4.975,4.975,4.975,4.975,4.975,4.975,4.954,4.954,4.954,4.933,4.933,4.912,4.912,4.912,4.912,4.912,4.912,4.912,4.912,4.912,4.912,4.912,4.912,4.912,4.912,4.933,4.933,4.954,4.954,4.954,4.954,4.954,4.954,4.933,4.933,4.933,4.933,4.933,4.933,4.933,4.954,4.954,4.975,4.975,4.996,4.996,5.018,5.04,5.084,5.106,5.151,5.151,5.174,5.174,5.22,5.22,5.22,5.22,5.174,5.151,5.106,5.084,5.04,4.996,4.975,4.954,4.912,4.912,4.891,4.851,4.851,4.83,4.791,4.771,4.752,4.732,4.713,4.694,4.694,4.657,4.638,4.601,4.583,4.565,4.565,4.565,4.565,4.53,4.53,4.53,4.512,4.512,4.46,4.426,4.393,4.36,4.296,4.264,4.249,4.218,4.203,4.173,4.158,4.114,4.085,4.07,4.056,4.028,4.014,4.014,3.987,3.987,3.987,3.987,3.973,3.987,3.973,3.973,3.946,3.946,3.946,3.946,3.933,3.893,3.868,3.855,3.842,3.817,3.817,3.792,3.767,3.743,3.755,3.755,3.743,3.743,3.731,3.731,3.731,3.731,3.743,3.755,3.755,3.767,3.78,3.78,3.78,3.792,3.78,3.78,3.767,3.755,3.731,3.696,3.649,3.627,3.582,3.538,3.517,3.485,3.485,3.485,3.475,3.465,3.465,3.454,3.454,3.444,3.444,3.434,3.414,3.404,3.394,3.365,3.336,3.326,3.298,3.288,3.27,3.27,3.261,3.261,3.261,3.243,0,0,0,0,0,0,0,0,0
0,0,0,0,0,0,0,0,0,0,0,0,0,0,3.336,3.355,3.355,3.355,3.365,3.365,3.384,3.394,3.404,3.404,3.414,3.424,3.424,3.434,3.434,3.434,3.434,3.444,3.444,3.444,3.444,3.444,3.444,3.444,3.444,3.434,3.434,3.434,3.424,3.424,3.424,3.424,3.424,3.434,3.434,3.434,3.444,3.444,3.454,3.454,3.465,3.465,3.475,3.485,3.485,3.485,3.485,3.485,3.496,3.496,3.485,3.485,3.496,3.496,3.496,3.496,3.496,3.496,3.506,3.506,3.517,3.528,3.528,3.538,3.538,3.549,3.549,3.549,3.549,3.549,3.549,3.549,3.549,3.549,3.56,3.582,3.582,3.593,0,0,0,0,0,0,3.672,3.707,3.707,3.661,3.627,3.627,3.615,3.593,3.582,3.56,3.538,3.517,3.517,3.496,3.496,3.496,3.485,3.475,3.465,3.465,3.465,3.465,3.454,3.454,3.454,3.465,3.465,3.465,3.475,3.485,3.496,3.517,3.528,3.56,3.582,3.627,3.661,3.672,3.696,3.707,3.707,3.696,3.707,3.707,3.707,3.707,3.696,3.696,3.707,3.707,3.731,3.743,3.743,3.755,3.78,3.78,3.792,3.804,3.804,3.804,3.817,3.817,3.817,3.829,3.829,3.829,3.817,3.817,3.817,3.817,3.817,3.817,3.817,3.804,3.804,3.804,3.804,3.804,3.804,3.804,3.804,3.804,3.804,3.804,3.804,3.804,3.817,3.817,3.817,3.829,3.829,3.829,3.829,3.842,3.855,3.855,3.855,3.855,3.855,3.868,3.868,3.868,3.868,3.868,3.88,3.88,3.893,3.906,3.906,3.906,3.92,3.92,3.933,3.973,3.973,3.973,3.973,3.987,4.014,4.014,4.014,4.028,4.028,4.028,4.028,4.028,4.028,4.028,4.056,4.028,4.028,4.028,4.028,4.028,4.028,4.014,4.014,4.028,4.028,4.028,4.028,4.028,4.056,4.056,4.056,4.056,4.07,4.07,4.085,4.085,4.114,4.114,4.114,4.128,4.128,4.158,4.158,4.158,4.173,4.188,4.203,4.218,4.233,4.233,4.249,4.249,4.249,4.249,4.249,4.249,4.249,4.264,4.264,4.264,4.264,4.264,4.264,4.264,4.249,4.264,4.264,4.264,4.264,4.264,4.264,4.264,4.264,4.264,4.264,4.264,4.264,4.264,4.264,4.28,4.28,4.28,4.28,4.28,4.28,4.296,4.312,4.312,4.312,4.328,4.328,4.344,4.344,4.36,4.36,4.36,4.344,4.344,4.328,4.328,4.328,4.312,4.296,4.296,4.296,4.296,4.296,4.296,4.296,4.312,4.312,4.328,4.328,4.36,4.376,4.393,4.41,4.46,4.477,4.512,0,4.53,4.565,4.565,4.583,4.601,4.601,4.601,4.601,4.601,4.601,4.583,4.583,4.565,4.565,4.53,4.512,4.477,4.426,4.426,4.41,4.41,4.41,4.393,4.393,4.393,4.393,4.41,4.41,4.41,4.46,4.477,4.53,4.583,4.657,4.732,4.752,4.791,4.81,4.83,4.83,4.83,4.83,4.83,4.83,4.851,4.851,4.851,4.851,4.851,4.851,4.851,4.851,4.851,4.851,4.851,4.851,4.851,4.851,4.851,4.851,4.851,4.851,4.851,4.851,4.851,4.851,4.851,4.851,4.851,4.851,4.871,4.851,4.871,4.871,4.851,4.83,4.694,4.583,4.46,4.344,4.296,4.264,4.203,4.128,4.056,3.973,3.973,3.987,3.987,4.028,0,4.085,4.203,4.264,4.344,4.512,4.713,4.81,4.891,4.912,4.954,4.975,4.996,4.996,4.996,4.996,4.996,4.996,4.996,4.996,4.975,4.975,4.975,4.954,4.954,4.933,4.933,4.912,4.912,4.912,4.912,4.912,4.912,4.912,4.912,4.912,4.912,4.912,4.933,4.933,4.933,4.954,4.954,4.954,4.975,4.975,4.975,4.975,4.954,4.954,4.933,4.933,4.933,4.933,4.933,4.933,4.933,4.954,4.954,4.975,4.996,5.018,5.04,5.04,5.084,5.151,5.151,5.174,5.22,5.22,5.22,5.22,5.22,5.22,5.174,5.151,5.106,5.084,5.04,5.018,4.996,4.954,4.933,4.912,4.891,4.871,4.851,4.83,4.81,4.791,4.771,4.752,4.732,4.713,4.713,4.657,4.657,4.638,4.601,4.601,4.583,4.583,4.583,4.583,4.583,4.565,4.565,4.53,4.512,4.46,4.41,4.36,4.312,4.28,4.264,4.249,4.233,4.203,4.188,4.173,4.158,4.128,4.085,4.07,4.07,4.056,4.056,4.056,4.028,4.028,4.014,4.014,4.014,3.987,3.973,3.973,3.973,3.973,3.973,3.893,3.88,3.868,3.842,3.829,3.817,3.792,3.767,3.755,3.767,3.767,3.755,3.767,3.743,3.743,3.743,3.743,3.755,3.767,3.767,3.78,3.78,3.792,3.792,3.792,3.792,3.792,3.767,3.755,3.743,3.707,3.672,3.649,3.593,3.549,3.496,3.496,3.485,3.485,3.475,3.465,3.465,3.454,3.454,3.444,3.434,3.424,3.414,3.394,3.384,3.355,3.336,3.317,3.298,3.27,3.27,3.27,3.261,3.261,3.261,3.261,0,0,0,0,0,0,0,0,0
0,0,0,0,0,0,0,0,0,0,0,0,0,0,3.355,3.355,3.355,3.365,3.365,3.384,3.394,3.404,3.404,3.414,3.414,3.424,3.424,3.434,3.434,3.434,3.444,3.444,3.444,3.444,3.444,3.444,3.444,3.444,3.444,3.444,3.444,3.444,3.444,3.444,3.444,3.444,3.444,3.444,3.444,3.444,3.454,3.454,3.454,3.465,3.465,3.475,3.485,3.485,3.496,3.496,3.496,3.496,3.496,3.496,3.496,3.496,3.496,3.496,3.496,3.496,3.506,3.506,3.517,3.517,3.528,3.538,3.538,3.549,3.549,3.56,3.56,3.56,3.56,3.582,3.582,3.582,3.56,3.582,3.582,3.593,3.593,3.615,3.627,0,0,0,3.707,3.731,3.755,0,3.804,3.792,3.78,3.755,3.743,3.707,3.696,3.661,3.615,3.593,3.582,3.549,3.528,3.517,3.506,3.496,3.475,3.475,3.475,3.465,3.465,3.465,3.465,3.465,3.465,3.465,3.475,3.485,3.485,3.517,3.538,3.56,3.615,3.649,3.707,3.731,3.743,3.755,3.755,3.767,3.767,3.78,3.78,3.755,3.755,3.755,3.755,3.767,3.78,3.78,3.78,3.792,3.792,3.804,3.804,3.817,3.817,3.817,3.829,3.829,3.829,3.842,3.842,3.842,3.842,3.842,3.829,3.829,3.829,3.829,3.829,3.829,3.817,3.817,3.817,3.817,3.817,3.817,3.817,3.817,3.817,3.817,3.817,3.817,3.829,3.829,3.829,3.829,3.829,3.842,3.842,3.855,3.855,3.855,3.855,3.868,3.868,3.868,3.868,3.868,3.88,3.88,3.893,3.893,3.906,3.92,3.933,3.973,3.973,3.987,4.014,4.014,4.014,4.028,4.028,4.028,4.056,4.056,4.056,4.056,4.07,4.07,4.07,4.07,4.056,4.07,4.07,4.056,4.056,4.056,4.056,4.056,4.028,4.028,4.056,4.056,4.056,4.056,4.056,4.056,4.07,4.07,4.07,4.07,4.07,4.085,4.114,4.114,4.128,4.128,4.128,4.158,4.158,4.158,4.173,4.188,4.188,4.203,4.218,4.233,4.233,4.249,4.249,4.249,4.249,4.249,4.249,4.249,4.249,4.249,4.249,4.249,4.264,4.264,4.264,4.264,4.264,4.264,4.264,4.264,4.264,4.264,4.264,4.28,4.28,4.28,4.28,4.28,4.28,4.28,4.28,4.296,4.296,4.296,4.296,4.312,4.312,4.312,4.328,4.328,4.328,4.328,4.344,4.36,4.36,4.376,4.376,4.36,4.36,4.36,4.344,4.344,4.328,4.312,4.312,4.312,4.312,4.312,4.312,4.312,4.328,4.328,4.344,4.36,4.376,4.41,4.426,4.46,0,4.512,4.53,4.565,4.583,4.601,4.638,4.638,4.638,4.657,4.657,4.657,4.657,4.657,4.657,4.657,4.638,4.601,4.601,4.583,4.565,4.53,4.512,4.477,4.46,4.46,4.46,4.426,4.426,4.426,4.426,4.46,4.477,4.477,4.53,4.583,4.638,4.713,4.771,4.81,4.83,4.851,4.871,4.891,4.891,4.891,4.871,4.871,4.871,4.871,4.871,4.871,4.871,4.871,4.871,4.871,4.871,4.871,4.871,4.871,4.871,4.871,4.871,4.891,4.891,4.891,4.891,4.891,4.871,4.871,4.871,4.871,4.871,4.891,4.891,4.891,4.891,4.891,4.891,4.891,4.871,4.851,4.81,4.657,4.53,4.328,4.28,4.249,4.188,4.085,3.987,3.973,3.987,3.987,4.014,0,4.085,4.188,4.264,4.344,4.512,4.732,4.83,4.891,4.933,4.975,4.996,5.018,5.018,5.018,5.018,5.018,5.018,4.996,4.996,4.996,4.975,4.975,4.954,4.954,4.933,4.912,4.912,4.912,4.912,4.912,4.912,4.912,4.912,4.912,4.912,4.912,4.933,4.933,4.933,4.954,4.954,4.975,4.975,4.975,4.996,4.975,4.975,4.975,4.954,4.954,4.933,4.933,4.933,4.933,4.933,4.933,4.954,4.975,4.975,4.996,5.018,5.04,5.084,5.106,5.151,5.174,5.22,5.22,5.244,5.244,5.244,5.22,5.22,5.174,5.151,5.106,5.084,5.04,5.018,4.996,4.975,4.933,4.912,4.891,4.871,4.851,4.83,4.83,4.791,4.771,4.752,4.752,4.732,4.713,4.713,4.657,4.657,4.638,4.638,4.601,4.601,4.601,4.601,4.601,4.601,4.583,4.565,4.512,4.477,4.426,4.376,4.36,4.296,4.28,4.264,4.249,4.233,4.203,4.188,4.173,4.158,4.128,4.114,4.085,4.085,4.07,4.07,4.056,4.056,4.056,4.028,4.014,4.014,3.987,3.987,3.987,3.987,3.973,3.933,3.893,3.868,3.842,3.829,3.817,3.792,3.78,3.767,3.767,3.767,3.767,3.767,3.767,3.755,3.755,3.755,3.767,3.767,3.767,3.78,3.792,3.792,3.804,3.792,3.792,3.792,3.78,3.767,3.743,3.731,3.672,3.649,3.615,3.56,3.528,3.496,3.485,3.485,3.485,3.475,3.465,3.454,3.454,3.444,3.434,3.424,3.404,3.394,3.365,3.355,3.326,3.317,3.298,3.288,3.27,3.27,3.27,3.27,3.27,3.27,0,0,0,0,0,0,0,0,0
0,0,0,0,0,0,0,0,0,0,0,0,0,0,3.336,3.336,3.355,3.355,3.365,3.384,3.394,3.404,3.404,3.414,3.414,3.424,3.424,3.434,3.434,3.444,3.444,3.444,3.444,3.444,3.444,3.444,3.444,3.444,3.454,3.454,3.444,3.444,3.444,3.444,3.444,3.444,3.444,3.444,3.454,3.454,3.454,3.465,3.465,3.475,3.475,3.485,3.496,3.496,3.496,3.506,3.506,3.506,3.506,3.506,3.506,3.506,3.517,3.517,3.517,3.517,3.517,3.517,3.528,3.528,3.538,3.549,3.549,3.56,3.56,3.582,3.582,3.582,3.593,3.593,3.593,3.593,3.593,3.593,3.615,3.615,3.627,3.649,3.661,3.672,3.707,0,0,0,0,0,0,0,0,3.817,3.817,3.817,3.804,3.792,3.743,3.696,3.661,3.627,3.582,3.56,3.538,3.506,3.496,3.496,3.485,3.485,3.475,3.475,3.465,3.465,3.465,3.465,3.475,3.485,3.496,3.506,3.538,3.582,3.593,3.661,3.707,3.755,3.767,3.767,3.78,3.792,3.792,3.804,3.804,3.804,3.792,3.792,3.804,3.804,3.804,3.804,3.817,3.804,3.817,3.817,3.829,3.829,3.829,3.842,3.842,3.855,3.855,3.855,3.855,3.868,3.855,3.855,3.855,3.855,3.855,3.855,3.842,3.842,3.842,3.829,3.829,3.829,3.829,3.829,3.829,3.829,3.829,3.829,3.829,3.842,3.842,3.842,3.855,3.855,3.855,3.855,3.855,3.855,3.868,3.868,3.868,3.868,3.868,3.868,3.88,3.88,3.88,3.893,3.906,3.92,3.933,3.946,3.973,3.987,4.014,4.028,4.028,4.056,4.056,4.07,4.07,4.07,4.07,4.07,4.085,4.085,4.085,4.085,4.085,4.085,4.085,4.085,4.07,4.07,4.07,4.07,4.07,4.07,4.056,4.07,4.07,4.07,4.07,4.07,4.07,4.085,4.085,4.085,4.114,4.114,4.114,4.114,4.128,4.128,4.158,4.158,4.158,4.173,4.173,4.188,4.188,4.203,4.218,4.218,4.233,4.249,4.249,4.249,4.249,4.249,4.264,4.264,4.264,4.264,4.264,4.264,4.264,4.264,4.264,4.264,4.264,4.264,4.264,4.264,4.28,4.28,4.28,4.28,4.28,4.28,4.296,4.296,4.296,4.296,4.296,4.312,4.312,4.312,4.312,4.312,4.312,4.328,4.328,4.328,4.344,4.344,4.36,4.36,4.376,4.376,4.376,4.393,4.393,4.376,4.376,4.376,4.36,4.344,4.344,4.328,4.328,4.328,4.328,4.328,4.328,4.344,4.344,4.36,4.376,4.41,4.426,0,4.46,4.512,4.53,4.583,4.601,4.638,4.657,4.694,4.694,4.713,4.713,4.713,4.732,4.713,4.732,4.713,4.713,4.713,4.713,4.657,4.657,4.638,4.601,4.583,4.565,4.53,4.53,4.512,4.512,4.512,4.512,4.512,4.53,4.53,4.565,4.601,4.657,4.713,4.752,4.81,4.83,4.871,4.891,4.891,4.912,4.912,4.933,4.933,4.912,4.912,4.912,4.891,4.891,4.891,4.891,4.891,4.891,4.891,4.891,4.891,4.891,4.891,4.891,4.891,4.891,4.891,4.891,4.891,4.891,4.891,4.891,4.891,4.891,4.891,4.891,4.891,4.891,4.912,4.912,4.912,4.912,4.891,4.891,4.871,4.851,4.81,4.601,4.46,4.376,4.312,4.264,4.188,4.07,3.973,3.946,3.973,3.987,0,4.07,4.188,4.264,4.344,4.512,4.732,4.851,4.912,4.954,4.996,5.018,5.04,5.04,5.04,5.018,5.018,5.018,5.018,4.996,4.975,4.975,4.954,4.954,4.933,4.933,4.912,4.912,4.912,4.912,4.912,4.912,4.912,4.912,4.933,4.933,4.933,4.933,4.954,4.954,4.954,4.975,4.975,4.996,4.996,4.996,4.996,4.975,4.975,4.954,4.954,4.933,4.933,4.933,4.933,4.933,4.933,4.954,4.975,4.996,4.996,5.04,5.084,5.106,5.151,5.174,5.22,5.22,5.244,5.244,5.244,5.244,5.244,5.22,5.174,5.174,5.151,5.106,5.084,5.04,5.018,4.975,4.954,4.912,4.912,4.891,4.871,4.851,4.83,4.81,4.791,4.771,4.771,4.752,4.732,4.713,4.694,4.694,4.657,4.657,4.638,4.657,4.638,4.638,4.638,4.638,4.601,4.583,4.53,4.512,4.46,4.41,4.376,4.312,4.296,4.28,4.264,4.249,4.233,4.218,4.188,4.173,4.158,4.158,4.128,4.128,4.114,4.114,4.085,4.07,4.07,4.056,4.056,4.028,4.028,4.014,4.014,3.987,3.987,3.946,3.893,3.868,3.855,3.829,3.817,3.804,3.792,3.78,3.78,3.78,3.78,3.792,3.792,3.78,3.767,3.767,3.767,3.78,3.78,3.78,3.78,3.792,3.792,3.792,3.792,3.792,3.78,3.767,3.743,3.731,3.696,3.661,3.627,3.582,3.549,3.517,3.496,3.496,3.485,3.475,3.465,3.465,3.454,3.444,3.434,3.424,3.414,3.384,3.365,3.336,3.326,3.298,3.298,3.288,3.288,3.288,3.288,3.288,3.288,3.298,0,0,0,0,0,0,0,0,0
0,0,0,0,0,0,0,0,0,0,0,0,0,0,3.336,3.336,3.355,3.355,3.365,3.384,3.394,3.394,3.404,3.414,3.424,3.424,3.434,3.434,3.434,3.444,3.444,3.444,3.444,3.444,3.454,3.454,3.454,3.454,3.454,3.454,3.454,3.454,3.454,3.454,3.454,3.454,3.454,3.454,3.454,3.454,3.465,3.465,3.475,3.485,3.485,3.496,3.496,3.506,3.506,3.517,3.517,3.528,3.517,3.517,3.528,3.528,3.528,3.528,3.528,3.528,3.528,3.538,3.538,3.549,3.549,3.56,3.56,3.582,3.593,3.593,3.593,3.615,3.615,3.615,3.627,3.627,3.627,3.627,3.649,3.649,3.649,3.661,3.696,3.707,3.731,3.755,0,0,0,0,0,0,0,0,0,0,0,0,3.868,3.804,3.767,3.696,3.661,3.627,3.582,3.549,3.517,3.506,3.496,3.496,3.485,3.485,3.475,3.475,3.475,3.465,3.475,3.485,3.496,3.517,3.538,3.582,3.615,3.661,3.731,3.755,3.767,3.792,3.804,3.804,3.817,3.817,3.817,3.817,3.817,3.817,3.817,3.829,3.829,3.829,3.829,3.829,3.829,3.842,3.842,3.842,3.855,3.855,3.868,3.868,3.868,3.868,3.868,3.88,3.868,3.868,3.868,3.868,3.868,3.868,3.868,3.868,3.855,3.855,3.855,3.855,3.855,3.855,3.855,3.855,3.855,3.855,3.855,3.855,3.855,3.868,3.868,3.868,3.868,3.868,3.868,3.868,3.868,3.868,3.868,3.868,3.88,3.88,3.88,3.893,3.906,3.906,3.92,3.933,3.946,3.973,3.987,4.028,4.056,4.056,4.07,4.085,4.085,4.085,4.114,4.114,4.114,4.114,4.114,4.128,4.114,4.114,4.114,4.114,4.114,4.114,4.085,4.085,4.085,4.085,4.085,4.085,4.07,4.085,4.085,4.085,4.085,4.085,4.114,4.114,4.114,4.114,4.114,4.114,4.128,4.128,4.158,4.158,4.173,4.173,4.173,4.188,4.203,4.203,4.203,4.218,4.233,4.233,4.249,4.249,4.264,4.264,4.264,4.264,4.264,4.264,4.264,4.264,4.264,4.264,4.264,4.264,4.264,4.264,4.264,4.264,4.264,4.28,4.28,4.28,4.28,4.28,4.296,4.312,4.312,4.312,4.312,4.312,4.312,4.328,4.328,4.328,4.328,4.328,4.344,4.344,4.36,4.36,4.376,4.376,4.376,4.393,4.393,4.41,4.41,4.41,4.393,4.393,4.393,4.376,4.376,4.36,4.36,4.344,4.344,4.344,4.344,4.344,4.36,4.376,4.376,4.393,0,4.426,4.46,4.512,4.53,4.583,4.601,4.638,4.657,4.694,4.713,4.732,4.752,4.752,4.752,4.752,4.752,4.752,4.771,4.752,4.752,4.752,4.752,4.732,4.732,4.713,4.694,4.657,4.638,4.638,4.601,4.583,4.601,4.601,4.601,4.638,4.657,4.694,4.732,4.752,4.791,4.81,4.83,4.871,4.912,4.933,4.933,4.975,4.996,4.996,4.996,4.975,4.954,4.954,4.933,4.933,4.912,4.912,4.891,4.891,4.891,4.891,4.912,4.891,4.891,4.912,4.912,4.912,4.912,4.912,4.912,4.912,4.912,4.912,4.912,4.912,4.912,4.912,4.912,4.912,4.912,4.912,4.912,4.912,4.912,4.912,4.891,4.871,4.851,4.83,4.638,4.512,4.376,4.312,4.264,4.188,4.085,3.946,3.933,3.946,3.973,4.028,0,4.173,4.264,4.344,4.512,4.713,4.83,4.912,4.954,4.996,5.018,5.018,5.018,5.018,5.018,5.018,5.018,4.996,4.996,4.975,4.975,4.954,4.954,4.933,4.912,4.912,4.912,4.912,4.912,4.912,4.912,4.912,4.912,4.933,4.954,4.954,4.954,4.975,4.975,4.975,4.996,4.996,4.996,5.018,5.018,5.018,4.996,4.975,4.954,4.954,4.933,4.933,4.954,4.954,4.954,4.954,4.954,4.975,4.996,5.018,5.04,5.084,5.151,5.174,5.22,5.22,5.244,5.244,5.244,5.244,5.244,5.244,5.22,5.22,5.174,5.151,5.106,5.106,5.04,5.018,4.996,4.975,4.933,4.912,4.891,4.871,4.851,4.83,4.83,4.81,4.791,4.771,4.771,4.752,4.752,4.732,4.713,4.713,4.694,4.694,4.694,4.694,4.694,4.694,4.657,4.638,4.601,4.565,4.53,4.477,4.426,4.393,4.344,4.312,4.296,4.28,4.264,4.249,4.249,4.218,4.203,4.188,4.173,4.173,4.158,4.158,4.128,4.128,4.114,4.085,4.07,4.056,4.056,4.028,4.014,4.014,4.014,3.987,3.973,3.893,3.868,3.855,3.829,3.817,3.804,3.792,3.792,3.78,3.78,3.792,3.792,3.792,3.78,3.767,3.767,3.767,3.78,3.78,3.78,3.767,3.767,3.78,3.78,3.78,3.78,3.767,3.755,3.755,3.731,3.696,3.661,3.649,3.593,3.56,3.538,3.506,3.496,3.496,3.485,3.475,3.465,3.454,3.444,3.444,3.424,3.414,3.394,3.365,3.355,3.326,3.317,3.317,3.298,3.298,3.317,3.298,3.298,3.317,3.326,0,0,0,0,0,0,0,0,0
0,0,0,0,0,0,0,0,0,0,0,0,0,3.336,3.336,3.355,3.355,3.365,3.365,3.384,3.394,3.404,3.414,3.424,3.424,3.434,3.434,3.444,3.444,3.444,3.444,3.454,3.454,3.454,3.454,3.454,3.454,3.454,3.454,3.454,3.454,3.454,3.454,3.454,3.454,3.454,3.454,3.465,3.465,3.465,3.475,3.475,3.485,3.485,3.496,3.496,3.506,3.517,3.517,3.528,3.538,3.538,3.538,3.538,3.538,3.528,3.538,3.538,3.538,3.538,3.549,3.549,3.56,3.56,3.56,3.582,3.593,3.615,3.615,3.615,3.627,3.627,3.627,3.649,3.649,3.649,3.649,3.661,3.672,3.672,3.672,3.696,3.707,3.731,3.755,3.767,3.78,0,0,0,0,0,3.92,3.946,3.973,3.987,4.014,3.987,3.946,3.906,3.829,3.804,3.78,3.743,3.661,3.627,3.582,3.538,3.528,3.517,3.506,3.496,3.496,3.496,3.485,3.485,3.485,3.496,3.517,3.549,3.56,3.615,3.649,3.696,3.755,3.792,3.804,3.804,3.817,3.817,3.829,3.829,3.829,3.829,3.829,3.829,3.829,3.842,3.842,3.842,3.842,3.842,3.855,3.855,3.855,3.855,3.868,3.868,3.868,3.88,3.893,3.893,3.906,3.906,3.906,3.893,3.893,3.893,3.893,3.893,3.88,3.88,3.88,3.88,3.868,3.868,3.868,3.868,3.868,3.868,3.868,3.868,3.88,3.88,3.88,3.88,3.88,3.88,3.88,3.868,3.88,3.88,3.88,3.893,3.893,3.893,3.893,3.893,3.893,3.893,3.906,3.92,3.933,3.946,3.973,4.014,4.014,4.056,4.07,4.085,4.114,4.114,4.128,4.128,4.158,4.158,4.158,4.158,4.158,4.158,4.158,4.128,4.128,4.128,4.128,4.128,4.114,4.114,4.114,4.114,4.114,4.114,4.114,4.114,4.114,4.114,4.128,4.128,4.128,4.128,4.128,4.128,4.128,4.128,4.158,4.158,4.173,4.173,4.188,4.188,4.188,4.203,4.218,4.218,4.233,4.233,4.249,4.249,4.264,4.264,4.264,4.264,4.264,4.264,4.264,4.264,4.264,4.264,4.264,4.264,4.264,4.264,4.264,4.264,4.264,4.264,4.28,4.28,4.28,4.28,4.296,4.296,4.312,4.312,4.312,4.312,4.328,4.328,4.328,4.344,4.344,4.36,4.36,4.36,4.376,4.376,4.393,4.393,4.41,4.41,4.41,4.41,4.426,4.426,4.426,4.426,4.426,4.41,4.41,4.41,4.393,4.376,4.376,4.36,4.36,4.36,4.36,4.376,4.376,4.376,4.393,4.41,4.426,4.477,4.512,4.565,4.583,4.638,4.694,4.713,4.732,4.752,4.752,4.771,4.791,4.791,4.791,4.791,4.791,4.791,4.791,4.791,4.771,4.771,4.771,4.771,4.771,4.771,4.771,4.752,4.752,4.752,4.732,4.752,4.752,4.771,4.771,4.791,4.81,4.81,4.83,4.851,4.871,4.891,4.912,4.933,4.975,4.996,0,5.04,5.04,5.084,5.04,5.018,4.996,4.975,4.954,4.954,4.933,4.912,4.912,4.912,4.912,4.912,4.912,4.912,4.912,4.912,4.912,4.912,4.912,4.912,4.933,4.933,4.933,4.933,4.912,4.912,4.912,4.912,4.912,4.912,4.912,4.912,4.912,4.912,4.933,4.912,4.891,4.891,4.851,4.81,4.638,4.477,4.36,4.312,4.249,4.188,4.07,3.933,3.906,3.906,3.906,3.973,0,4.085,4.249,4.328,4.477,4.713,4.83,4.912,4.954,4.996,4.996,5.018,5.018,5.018,5.018,5.018,4.996,4.996,4.996,4.975,4.954,4.954,4.954,4.933,4.933,4.912,4.912,4.912,4.912,4.933,4.933,4.933,4.933,4.954,4.954,4.954,4.975,4.975,4.996,4.996,5.018,5.018,5.018,5.018,5.04,5.018,5.018,4.996,4.996,4.975,4.954,4.954,4.954,4.954,4.954,4.954,4.975,4.975,5.018,5.018,5.084,5.106,5.151,5.174,5.244,5.244,5.268,5.268,5.268,5.268,5.244,5.244,5.244,5.22,5.174,5.174,5.151,5.106,5.084,5.04,5.018,4.975,4.954,4.912,4.912,4.891,4.871,4.851,4.83,4.81,4.81,4.81,4.791,4.791,4.771,4.771,4.752,4.752,4.752,4.732,4.752,4.732,4.732,4.732,4.713,4.694,4.657,4.601,4.565,4.512,4.46,4.426,4.376,4.328,4.312,4.312,4.28,4.264,4.264,4.249,4.233,4.218,4.203,4.203,4.188,4.173,4.173,4.158,4.128,4.114,4.085,4.07,4.056,4.056,4.028,4.028,4.014,4.014,3.973,3.933,3.868,3.855,3.842,3.817,3.804,3.792,3.792,3.792,3.78,3.792,3.804,3.792,3.78,3.755,3.755,3.743,3.755,3.755,3.755,3.755,3.755,3.755,3.755,3.755,3.767,3.755,3.743,3.743,3.731,3.696,3.672,3.649,3.615,3.582,3.549,3.528,3.496,3.496,3.485,3.475,3.465,3.454,3.454,3.444,3.434,3.414,3.404,3.384,3.365,3.336,3.326,3.326,3.326,3.326,3.326,3.326,3.326,3.336,3.355,0,0,0,0,0,0,0,0,0
0,0,0,0,0,0,0,0,0,0,0,0,0,3.355,3.365,3.365,3.365,3.384,3.384,3.394,3.404,3.414,3.424,3.424,3.434,3.444,3.444,3.444,3.444,3.444,3.454,3.454,3.454,3.454,3.454,3.465,3.465,3.465,3.465,3.465,3.465,3.465,3.465,3.465,3.465,3.465,3.465,3.465,3.475,3.485,3.485,3.485,3.496,3.496,3.506,3.517,3.517,3.528,3.538,3.549,3.549,3.549,3.549,3.549,3.549,3.549,3.549,3.56,3.56,3.56,3.56,3.582,3.582,3.582,3.593,3.615,3.627,3.627,3.649,3.649,3.661,3.661,3.661,3.661,3.661,3.672,3.672,3.696,3.696,3.696,3.707,3.731,3.743,3.755,3.767,3.78,3.792,3.804,3.817,3.829,0,3.88,3.92,3.973,4.014,4.056,4.085,4.085,4.07,4.028,3.973,3.868,3.842,3.817,3.792,3.743,3.672,3.627,3.593,3.56,3.549,3.538,3.528,3.517,3.517,3.517,3.517,3.528,3.549,3.593,3.615,3.661,3.696,3.743,3.78,3.804,3.817,3.817,3.829,3.829,3.829,3.842,3.842,3.842,3.842,3.855,3.855,3.855,3.855,3.855,3.868,3.868,3.868,3.868,3.868,3.868,3.88,3.88,3.893,3.906,3.92,3.92,3.92,3.933,3.933,3.933,3.92,3.92,3.92,3.92,3.92,3.92,3.906,3.906,3.906,3.906,3.906,3.893,3.893,3.906,3.893,3.906,3.906,3.906,3.906,3.906,3.906,3.893,3.893,3.92,3.906,3.906,3.906,3.906,3.906,3.906,3.906,3.906,3.906,3.92,3.92,3.933,3.946,3.973,4.014,4.028,4.056,4.085,4.114,4.128,4.128,4.128,4.158,4.158,4.173,4.173,4.173,4.173,4.173,4.173,4.173,4.173,4.173,4.173,4.158,4.158,4.158,4.128,4.128,4.128,4.128,4.158,4.158,4.158,4.158,4.158,4.158,4.158,4.158,4.158,4.173,4.173,4.173,4.173,4.173,4.188,4.203,4.203,4.203,4.218,4.218,4.218,4.233,4.249,4.249,4.249,4.264,4.264,4.264,4.28,4.28,4.28,4.28,4.28,4.28,4.28,4.28,4.28,4.264,4.264,4.264,4.264,4.264,4.264,4.28,4.28,4.28,4.28,4.296,4.296,4.312,4.312,4.312,4.312,4.328,4.328,4.344,4.344,4.36,4.376,4.376,4.376,4.393,4.393,4.41,4.41,4.426,4.426,4.46,4.46,4.46,4.46,4.477,4.477,4.477,4.477,4.46,4.46,4.426,4.426,4.426,4.41,4.393,4.393,4.393,4.376,4.393,4.393,4.393,4.41,4.41,4.426,4.477,4.512,4.565,4.583,4.638,4.694,4.713,4.732,4.771,4.771,4.791,4.81,4.81,4.81,4.81,4.81,4.81,4.81,4.81,4.81,4.81,4.81,4.81,4.81,4.81,4.81,4.81,4.81,4.791,4.791,4.81,4.81,4.81,4.83,4.83,4.851,4.851,4.871,4.891,4.912,4.912,4.933,4.954,4.996,5.018,5.04,5.106,5.106,5.151,5.106,5.106,5.04,5.04,5.018,4.996,4.954,4.933,4.912,4.912,4.912,4.912,4.912,4.912,4.912,4.912,4.933,4.933,4.933,4.933,4.954,4.954,4.954,4.954,4.933,4.933,4.933,4.933,4.933,4.933,4.912,4.912,4.933,4.933,4.912,4.912,4.891,4.871,4.851,4.81,4.657,4.53,4.393,4.328,4.28,4.233,4.128,3.946,3.92,3.893,3.88,3.88,3.92,4.028,0,4.188,4.28,4.376,4.565,4.771,4.891,4.954,4.975,4.996,5.018,4.996,4.996,5.018,4.996,4.996,4.996,4.975,4.954,4.954,4.954,4.954,4.933,4.933,4.912,4.912,4.912,4.912,4.933,4.954,4.954,4.954,4.975,4.975,4.975,4.996,5.018,5.018,5.04,5.04,5.084,5.084,5.084,5.084,5.04,5.04,5.018,4.996,4.996,4.975,4.975,4.954,4.954,4.954,4.954,4.975,4.996,5.018,5.04,5.084,5.106,5.174,5.22,5.244,5.268,5.268,5.316,5.316,5.268,5.268,5.268,5.244,5.244,5.22,5.22,5.174,5.151,5.106,5.084,5.04,4.996,4.975,4.954,4.912,4.891,4.891,4.851,4.851,4.83,4.83,4.81,4.81,4.81,4.81,4.81,4.791,4.791,4.791,4.791,4.791,4.771,4.771,4.771,4.771,4.732,4.694,4.657,4.601,4.565,4.512,4.477,4.426,4.393,4.328,4.328,4.312,4.28,4.264,4.264,4.249,4.233,4.218,4.218,4.203,4.188,4.173,4.173,4.158,4.114,4.085,4.07,4.056,4.028,4.028,4.028,4.014,3.987,3.973,3.933,3.88,3.868,3.842,3.829,3.817,3.804,3.792,3.792,3.78,3.792,3.792,3.792,3.767,3.743,3.731,3.731,3.731,3.731,3.707,3.707,3.707,3.731,3.743,3.731,3.743,3.731,3.731,3.731,3.707,3.696,3.672,3.661,3.627,3.593,3.56,3.538,3.506,3.496,3.485,3.485,3.465,3.454,3.454,3.444,3.434,3.424,3.414,3.404,3.365,3.355,3.355,3.355,3.336,3.355,3.336,3.355,3.355,3.355,3.365,0,0,0,0,0,0,0,0,0
0,0,0,0,0,0,0,0,0,0,0,0,3.365,3.384,3.384,3.384,3.384,3.384,3.394,3.404,3.414,3.424,3.424,3.434,3.444,3.444,3.444,3.444,3.454,3.454,3.454,3.454,3.465,3.465,3.465,3.465,3.475,3.475,3.475,3.485,3.485,3.485,3.485,3.485,3.485,3.475,3.485,3.485,3.485,3.485,3.496,3.496,3.496,3.506,3.517,3.528,3.538,3.538,3.549,3.549,3.56,3.56,3.56,3.56,3.56,3.582,3.582,3.582,3.582,3.582,3.593,3.593,3.615,3.615,3.627,3.627,3.649,3.649,3.661,3.661,3.672,3.672,3.672,3.696,3.696,3.696,3.707,3.707,3.707,3.707,3.731,3.743,3.743,3.755,3.755,3.767,3.767,3.792,3.804,3.817,3.829,0,0,3.946,3.987,4.056,0,0,4.114,4.07,4.028,3.973,3.88,3.855,3.817,3.792,3.743,3.696,3.661,3.627,3.593,3.582,3.56,3.56,3.538,3.549,3.549,3.56,3.593,3.627,3.661,3.696,3.731,3.767,3.804,3.817,3.817,3.829,3.842,3.842,3.855,3.855,3.855,3.855,3.855,3.855,3.868,3.868,3.868,3.868,3.868,3.868,3.88,3.88,3.893,3.893,3.906,3.906,3.92,3.933,3.946,3.946,3.946,3.973,3.973,3.973,3.946,3.946,3.946,3.946,3.946,3.946,3.933,3.933,3.933,3.933,3.933,3.933,3.933,3.933,3.933,3.933,3.933,3.933,3.973,3.973,3.946,3.946,3.946,3.946,3.933,3.933,3.92,3.92,3.92,3.92,3.92,3.92,3.92,3.92,3.933,3.946,3.973,3.987,4.028,4.056,4.07,4.114,4.128,4.158,4.158,4.158,4.173,4.188,4.188,4.188,4.188,4.188,4.203,4.203,4.203,4.203,4.203,4.188,4.188,4.188,4.188,4.188,4.173,4.173,4.173,4.173,4.173,4.173,4.173,4.188,4.188,4.188,4.188,4.188,4.203,4.203,4.203,4.203,4.203,4.218,4.218,4.233,4.233,4.233,4.249,4.249,4.264,4.264,4.264,4.264,4.28,4.28,4.28,4.28,4.296,4.296,4.296,4.28,4.28,4.28,4.28,4.28,4.28,4.28,4.28,4.28,4.28,4.28,4.28,4.296,4.296,4.312,4.312,4.312,4.312,4.328,4.328,4.328,4.344,4.36,4.36,4.376,4.376,4.393,4.41,4.41,4.426,4.426,4.46,4.46,4.477,4.477,4.512,4.512,4.512,4.512,4.53,4.53,4.512,4.512,4.512,4.477,4.477,4.46,4.46,4.426,4.426,4.41,4.41,4.41,4.41,4.41,4.41,4.426,4.46,4.477,4.512,4.53,4.583,4.601,4.657,4.694,4.732,4.752,4.771,4.791,4.81,4.81,4.81,4.81,4.81,4.81,4.81,4.81,4.81,4.81,4.81,4.81,4.81,4.81,4.81,4.81,4.83,4.83,4.83,4.83,4.83,4.851,4.851,4.871,4.891,4.891,4.912,4.912,4.954,4.975,4.996,5.018,5.04,5.084,5.106,5.174,5.151,5.151,5.174,5.174,5.151,5.106,5.084,5.018,4.996,4.975,4.954,4.933,4.912,4.912,4.912,4.933,4.933,4.933,4.933,4.954,4.954,4.954,4.975,4.975,4.975,4.975,4.954,4.954,4.954,4.954,4.933,4.933,4.933,4.933,4.933,4.933,4.912,4.912,4.891,4.851,4.81,4.771,4.583,4.477,4.393,4.328,4.28,4.249,4.188,4.085,3.933,3.893,3.868,3.868,3.868,3.906,3.987,0,4.114,4.249,4.312,4.426,4.638,4.791,4.851,4.891,4.933,4.996,4.996,4.996,4.996,4.996,4.996,4.996,4.975,4.954,4.954,4.954,4.954,4.933,4.933,4.912,4.912,4.933,4.933,4.954,4.954,4.975,4.975,4.996,4.996,4.996,5.018,5.04,5.084,5.084,5.106,5.106,5.106,5.106,5.106,5.106,5.084,5.04,5.018,4.996,4.975,4.996,4.975,4.975,4.975,4.975,4.975,4.996,5.018,5.04,5.084,5.151,5.174,5.22,5.244,5.268,5.268,5.316,5.316,5.316,5.316,5.316,5.268,5.268,5.244,5.22,5.174,5.174,5.151,5.151,5.084,5.04,4.996,4.975,4.933,4.912,4.891,4.891,4.871,4.851,4.851,4.851,4.851,4.83,4.83,4.83,4.83,4.83,4.83,4.83,4.81,4.81,4.81,4.81,4.81,4.791,4.732,4.694,4.657,4.601,4.565,4.512,4.46,4.426,4.393,4.344,4.328,4.312,4.28,4.264,4.249,4.233,4.218,4.203,4.203,4.188,4.173,4.158,4.128,4.114,4.085,4.07,4.056,4.028,4.014,4.014,4.014,3.987,3.973,3.92,3.88,3.868,3.855,3.829,3.817,3.804,3.804,3.804,3.78,3.78,3.792,3.78,3.743,3.707,3.696,3.696,3.696,3.672,3.672,3.672,3.672,3.696,3.696,3.696,3.696,3.707,3.707,3.707,3.696,3.672,3.672,3.649,3.627,3.593,3.56,3.538,3.528,3.496,3.496,3.485,3.475,3.465,3.454,3.444,3.444,3.424,3.414,3.404,3.394,3.384,3.365,3.365,3.365,3.365,3.365,3.365,3.365,3.384,3.384,0,0,0,0,0,0,0,0,0
0,0,0,0,0,0,0,0,0,0,0,3.394,3.394,3.394,3.394,3.394,3.394,3.404,3.404,3.414,3.424,3.424,3.434,3.444,3.444,3.454,3.454,3.454,3.454,3.465,3.465,3.465,3.465,3.465,3.475,3.475,3.485,3.485,3.485,3.485,3.485,3.485,3.485,3.485,3.496,3.496,3.496,3.496,3.496,3.496,3.506,3.517,3.517,3.528,3.528,3.538,3.549,3.549,3.56,3.582,3.582,3.582,3.582,3.582,3.593,3.593,3.593,3.593,3.615,3.615,3.615,3.627,3.649,3.649,3.649,3.661,3.661,3.672,3.672,3.696,3.696,3.707,3.707,3.707,3.707,3.731,3.731,3.731,3.743,3.743,3.743,3.755,3.755,3.767,3.767,3.78,3.78,3.792,3.804,3.817,3.829,3.855,0,0,0,4.028,4.085,4.085,0,0,4.028,0,3.88,0,0,0,3.78,3.743,3.707,3.672,3.649,3.649,3.627,3.615,3.615,3.615,3.615,3.627,3.649,3.696,3.707,3.743,3.767,3.804,3.817,3.829,3.829,3.842,3.855,3.855,3.868,3.868,3.868,3.868,3.868,3.868,3.868,3.868,3.868,3.88,3.88,3.88,3.88,3.906,3.906,3.92,3.92,3.933,3.946,3.946,3.973,3.987,3.987,3.987,3.987,3.987,3.987,3.987,3.987,3.987,3.987,3.987,3.973,3.973,3.973,3.973,3.973,3.973,3.973,3.973,4.014,4.014,4.028,4.028,4.028,4.014,4.014,3.987,3.987,3.973,3.973,3.973,3.946,3.946,3.946,3.933,3.933,3.933,3.933,3.933,3.946,3.973,3.987,4.014,4.028,4.07,4.085,4.128,4.158,4.158,4.173,4.188,4.188,4.203,4.203,4.203,4.218,4.218,4.218,4.218,4.233,4.218,4.218,4.218,4.218,4.218,4.203,4.203,4.203,4.203,4.203,4.203,4.203,4.203,4.218,4.218,4.218,4.218,4.218,4.218,4.233,4.233,4.233,4.249,4.249,4.249,4.249,4.249,4.264,4.264,4.264,4.264,4.264,4.28,4.28,4.28,4.296,4.296,4.312,4.312,4.312,4.312,4.312,4.312,4.312,4.312,4.312,4.296,4.296,4.296,4.296,4.296,4.296,4.296,4.312,4.312,4.312,4.312,4.328,4.328,4.328,4.328,4.344,4.344,4.36,4.36,4.376,4.393,4.41,4.426,4.426,4.46,4.477,4.477,4.477,4.512,4.512,4.53,4.53,4.53,4.565,4.565,4.565,4.565,4.565,4.565,4.53,4.53,4.512,4.477,4.477,4.477,4.46,4.46,4.426,4.426,4.426,4.426,4.426,4.46,4.46,4.477,4.53,4.565,4.583,4.638,4.657,4.713,4.732,4.771,4.791,4.791,4.81,4.81,4.81,4.83,4.83,4.83,4.83,4.83,4.83,4.83,4.83,4.83,4.83,4.83,4.83,4.83,4.83,4.851,4.851,4.851,4.851,4.891,4.891,4.891,4.912,4.933,4.954,4.975,5.018,5.04,5.084,5.106,5.106,5.151,5.151,5.174,5.174,5.174,5.174,5.174,5.174,5.151,5.084,5.018,4.996,4.975,4.954,4.933,4.933,4.933,4.933,4.933,4.933,4.933,4.954,4.954,4.954,4.975,4.975,4.975,4.975,4.975,4.975,4.975,4.975,4.954,4.954,4.954,4.933,4.933,4.912,4.912,4.891,4.851,4.81,4.752,4.565,4.46,4.376,4.328,4.296,4.264,4.233,4.173,4.114,3.946,3.893,3.868,3.855,3.855,3.842,3.868,3.92,4.028,0,4.158,4.249,4.312,4.426,4.601,4.771,4.83,4.851,4.891,4.912,4.954,4.975,4.996,4.996,4.975,4.975,4.975,4.954,4.954,4.954,4.933,4.933,4.933,4.954,4.954,4.954,4.975,4.975,4.996,4.996,5.018,5.018,5.04,5.084,5.084,5.106,5.106,5.151,5.151,5.151,5.151,5.151,5.151,5.106,5.084,5.04,5.018,5.018,4.996,4.975,4.975,4.975,4.975,4.975,5.018,5.018,5.04,5.084,5.151,5.174,5.22,5.244,5.268,5.268,5.316,5.316,5.316,5.316,5.316,5.316,5.268,5.268,5.244,5.244,5.22,5.22,5.174,5.151,5.084,5.04,4.996,4.954,4.933,4.912,4.891,4.891,4.891,4.871,4.851,4.851,4.851,4.851,4.871,4.851,4.851,4.851,4.851,4.851,4.851,4.83,4.83,4.83,4.81,4.771,4.732,4.713,4.638,4.583,4.565,4.512,4.46,4.41,4.393,4.328,4.312,4.28,4.264,4.249,4.218,4.203,4.203,4.188,4.173,4.158,4.128,4.114,4.085,4.07,4.056,4.028,4.014,4.014,3.987,3.987,3.973,3.946,3.893,3.868,3.855,3.855,3.829,3.817,3.804,3.804,3.804,3.78,3.78,3.767,3.755,3.707,3.672,3.672,3.649,3.649,3.649,3.627,3.627,3.627,3.649,3.649,3.649,3.661,3.661,3.672,3.672,3.672,3.661,3.661,3.649,3.627,3.615,3.582,3.549,3.517,3.496,3.496,3.485,3.475,3.465,3.454,3.444,3.444,3.424,3.414,3.404,3.394,3.384,3.384,3.384,3.384,3.384,3.394,3.394,3.394,3.394,3.404,0,0,0,0,0,0,0,0,0
0,0,0,0,0,0,0,0,0,0,0,3.414,3.404,3.404,3.414,3.414,3.404,3.414,3.414,3.424,3.434,3.434,3.444,3.444,3.454,3.454,3.454,3.465,3.465,3.465,3.465,3.475,3.475,3.475,3.485,3.485,3.485,3.496,3.496,3.496,3.496,3.496,3.496,3.496,3.496,3.496,3.496,3.506,3.506,3.517,3.517,3.528,3.538,3.538,3.549,3.56,3.56,3.56,3.582,3.593,3.593,3.593,3.593,3.615,3.615,3.615,3.627,3.627,3.627,3.649,3.649,3.661,3.661,3.672,3.672,3.696,3.696,3.707,3.707,3.731,3.731,3.731,3.743,3.743,3.743,3.743,3.755,3.755,3.755,3.755,3.755,3.767,3.767,3.78,3.78,3.792,3.792,3.792,3.804,3.817,3.829,3.855,3.868,3.906,0,0,0,4.07,4.07,4.056,4.014,3.973,3.893,3.868,3.842,3.829,3.804,3.792,3.767,3.743,3.731,3.707,3.696,3.696,3.672,3.672,3.696,3.696,3.731,3.743,3.755,3.78,3.804,3.817,3.829,3.842,3.855,3.855,3.868,3.868,3.868,3.868,3.868,3.868,3.868,3.88,3.88,3.88,3.88,3.88,3.893,3.893,3.893,3.92,3.92,3.933,3.933,3.946,3.946,3.973,3.987,4.014,4.014,4.014,4.028,4.028,4.028,4.028,4.028,4.028,4.028,4.028,4.028,4.028,4.014,4.056,4.07,4.056,4.07,4.056,4.07,4.056,4.07,4.07,4.07,4.056,4.056,4.028,4.028,4.014,4.014,3.987,3.987,3.973,3.973,3.973,3.973,3.973,3.946,3.946,3.973,3.987,4.014,4.028,4.056,4.085,4.114,4.158,4.173,4.173,4.188,4.188,4.188,4.218,4.233,4.233,4.233,4.233,4.249,4.249,4.249,4.249,4.249,4.249,4.233,4.233,4.233,4.233,4.233,4.233,4.233,4.233,4.233,4.233,4.233,4.233,4.249,4.249,4.249,4.249,4.249,4.249,4.249,4.249,4.249,4.264,4.264,4.264,4.28,4.28,4.28,4.28,4.28,4.296,4.296,4.312,4.312,4.312,4.312,4.328,4.328,4.328,4.328,4.328,4.328,4.328,4.312,4.312,4.312,4.312,4.312,4.312,4.328,4.328,4.328,4.328,4.328,4.328,4.344,4.344,4.344,4.36,4.36,4.376,4.376,4.393,4.41,4.426,4.426,4.46,4.477,4.477,4.512,4.512,4.53,4.53,4.565,4.565,4.565,4.583,4.583,4.601,4.583,4.583,4.583,4.583,4.583,4.565,4.53,4.53,4.512,4.512,4.477,4.477,4.46,4.46,4.426,4.426,4.426,4.46,4.46,4.477,4.53,4.565,4.583,4.638,4.657,4.713,4.732,4.771,4.771,4.791,4.81,4.81,4.83,4.83,4.83,4.83,4.83,4.851,4.851,4.851,4.851,4.851,4.851,4.851,4.851,4.851,4.851,4.851,4.871,4.891,4.891,4.891,4.912,4.912,4.933,4.975,4.975,4.996,5.04,5.084,5.106,5.174,5.151,5.174,5.22,5.22,5.22,5.22,5.22,5.174,5.174,5.151,5.084,5.04,5.018,4.975,4.954,4.954,4.933,4.933,4.933,4.954,4.954,4.954,4.975,4.975,4.975,4.996,4.996,4.996,4.996,4.996,4.996,4.975,4.975,4.975,4.954,4.954,4.933,4.912,4.871,4.851,4.81,4.732,4.512,4.41,4.344,4.312,4.28,4.249,4.218,4.173,4.114,4.056,3.933,3.893,3.868,3.855,3.842,3.829,3.829,3.855,3.868,3.933,4.028,0,4.158,4.249,4.312,4.393,4.565,4.694,4.771,4.83,4.871,4.891,4.912,4.954,4.975,4.975,4.996,4.975,4.975,4.975,4.975,4.975,4.954,4.954,4.975,4.975,4.996,5.018,5.018,5.04,5.04,5.04,5.084,5.084,5.106,5.151,5.151,5.174,5.174,5.174,5.174,5.174,5.174,5.151,5.106,5.084,5.084,5.04,5.04,5.018,4.996,4.996,4.996,4.996,4.996,5.018,5.04,5.084,5.106,5.151,5.174,5.22,5.244,5.268,5.268,5.316,5.316,5.316,5.34,5.316,5.316,5.316,5.268,5.268,5.268,5.244,5.244,5.22,5.151,5.151,5.084,5.04,4.996,4.975,4.933,4.912,4.912,4.912,4.891,4.891,4.891,4.891,4.891,4.891,4.891,4.891,4.891,4.891,4.891,4.871,4.851,4.871,4.851,4.83,4.81,4.791,4.752,4.694,4.657,4.601,4.565,4.512,4.426,4.393,4.328,4.312,4.28,4.264,4.233,4.218,4.188,4.173,4.158,4.158,4.128,4.114,4.085,4.056,4.028,4.028,4.014,3.987,3.973,3.973,3.973,3.946,3.933,3.893,3.868,3.868,3.855,3.842,3.829,3.817,3.804,3.792,3.792,3.78,3.767,3.731,3.696,3.649,3.627,3.615,3.593,3.593,3.593,3.582,3.593,3.615,3.615,3.627,3.627,3.649,3.649,3.661,3.661,3.661,3.649,3.649,3.627,3.615,3.582,3.549,3.517,3.496,3.496,3.485,3.475,3.465,3.454,3.454,3.444,3.424,3.424,3.414,3.404,3.394,3.394,3.394,3.394,3.394,3.404,3.404,3.414,3.414,3.424,0,0,0,0,0,0,0,0,0
0,0,0,0,0,0,0,0,0,0,0,3.424,3.424,3.424,3.424,3.424,3.424,3.434,3.434,3.434,3.444,3.444,3.444,3.454,3.454,3.465,3.465,3.465,3.465,3.475,3.485,3.485,3.485,3.485,3.485,3.496,3.496,3.496,3.506,3.506,3.506,3.506,3.517,3.517,3.517,3.517,3.517,3.517,3.528,3.538,3.538,3.549,3.549,3.549,3.56,3.582,3.582,3.593,3.593,3.593,3.615,3.615,3.615,3.627,3.627,3.627,3.649,3.649,3.661,3.661,3.672,3.672,3.696,3.707,3.707,3.731,3.731,3.731,3.743,3.743,3.755,3.755,3.755,3.755,3.767,3.767,3.767,3.767,3.78,3.78,3.78,3.78,3.792,3.792,3.792,3.804,3.804,3.804,3.804,3.817,3.829,3.842,3.855,3.88,3.92,3.946,4.014,4.028,4.056,4.014,3.987,3.946,3.893,3.868,3.855,3.842,3.829,3.817,3.804,3.792,3.78,3.767,3.767,3.755,3.743,3.743,3.755,3.767,3.767,3.792,3.804,3.817,3.817,3.829,3.855,3.855,3.868,3.868,3.88,3.88,3.88,3.893,3.893,3.893,3.893,3.906,3.906,3.906,3.906,3.906,3.906,3.92,3.92,3.92,3.933,3.933,3.946,3.973,3.973,3.987,4.014,4.028,4.028,4.056,4.056,4.07,4.07,4.07,4.07,4.07,4.07,4.085,4.114,4.114,4.085,4.085,4.114,4.085,4.085,4.085,4.085,4.085,4.085,4.085,4.085,4.085,4.085,4.07,4.07,4.056,4.056,4.028,4.028,4.028,4.014,4.014,3.987,3.987,3.973,3.987,3.987,4.014,4.028,4.056,4.07,4.085,4.128,4.158,4.173,4.188,4.188,4.203,4.203,4.233,4.249,4.249,4.249,4.249,4.249,4.249,4.264,4.264,4.249,4.249,4.249,4.249,4.249,4.249,4.249,4.249,4.249,4.249,4.249,4.249,4.249,4.249,4.249,4.249,4.264,4.264,4.264,4.264,4.264,4.264,4.28,4.28,4.28,4.28,4.296,4.296,4.296,4.296,4.312,4.312,4.312,4.312,4.312,4.328,4.328,4.328,4.328,4.328,4.328,4.344,4.344,4.344,4.344,4.328,4.344,4.344,4.344,4.344,4.344,4.36,4.36,4.36,4.36,4.36,4.376,4.376,4.376,4.376,4.393,4.393,4.393,4.41,4.426,4.426,4.46,4.477,4.512,4.512,4.53,4.53,4.565,4.565,4.583,4.583,4.601,4.601,4.638,4.638,4.638,4.601,4.601,4.601,4.601,4.583,4.565,4.565,4.565,4.53,4.512,4.477,4.477,4.46,4.46,4.46,4.46,4.46,4.46,4.477,4.53,4.565,4.583,4.601,4.657,4.694,4.732,4.752,4.771,4.81,4.81,4.81,4.83,4.83,4.83,4.851,4.851,4.851,4.851,4.871,4.871,4.871,4.871,4.871,4.871,4.871,4.871,4.891,4.891,4.891,4.912,4.912,4.912,4.933,4.954,4.975,4.996,5.04,5.084,5.151,5.174,5.174,5.22,5.22,5.22,5.22,5.22,5.22,5.22,5.174,5.174,5.151,5.084,5.04,5.018,4.996,4.975,4.954,4.954,4.954,4.954,4.954,4.954,4.975,4.975,4.975,4.996,4.996,4.996,4.996,4.996,4.996,4.996,4.975,4.975,4.975,4.954,4.912,4.891,4.851,4.81,4.732,4.477,4.376,4.312,4.28,4.249,4.203,4.158,4.114,4.056,4.014,3.946,3.893,3.868,3.855,3.842,3.829,3.829,3.817,3.817,3.829,3.855,3.868,3.933,4.028,0,4.128,4.218,4.28,4.344,4.426,4.565,4.694,4.791,4.83,4.871,4.912,4.954,4.975,4.996,4.996,4.996,4.996,4.996,4.996,4.996,4.996,4.996,5.018,5.018,5.04,5.084,5.084,5.106,5.106,5.151,5.151,5.151,5.174,5.174,5.22,5.22,5.22,5.22,5.22,5.174,5.174,5.151,5.106,5.106,5.084,5.04,5.04,5.04,5.018,5.04,5.018,5.04,5.04,5.084,5.084,5.106,5.151,5.174,5.22,5.244,5.268,5.268,5.316,5.316,5.316,5.34,5.34,5.316,5.316,5.316,5.316,5.268,5.268,5.244,5.244,5.22,5.174,5.106,5.084,5.04,4.996,4.954,4.912,4.912,4.912,4.891,4.912,4.912,4.912,4.912,4.912,4.912,4.912,4.912,4.912,4.912,4.891,4.891,4.891,4.851,4.851,4.83,4.81,4.771,4.732,4.694,4.638,4.583,4.53,4.477,4.41,4.328,4.296,4.264,4.249,4.218,4.188,4.158,4.128,4.114,4.085,4.07,4.056,4.028,4.014,4.014,3.987,3.973,3.946,3.946,3.933,3.933,3.933,3.92,3.88,3.868,3.868,3.855,3.842,3.829,3.817,3.804,3.804,3.78,3.767,3.743,3.707,3.649,3.615,3.593,3.56,3.549,3.549,3.538,3.538,3.549,3.56,3.582,3.593,3.593,3.615,3.627,3.627,3.649,3.627,3.627,3.627,3.615,3.593,3.582,3.549,3.517,3.496,3.496,3.485,3.475,3.465,3.454,3.454,3.444,3.434,3.424,3.414,3.414,3.394,3.404,3.404,3.404,3.404,3.414,3.414,3.424,3.424,3.434,0,0,0,0,0,0,0,0,0
0,0,0,0,0,0,0,0,0,0,0,3.444,3.444,3.444,3.444,3.444,3.444,3.444,3.444,3.444,3.454,3.454,3.454,3.465,3.465,3.465,3.465,3.475,3.485,3.485,3.485,3.485,3.496,3.496,3.496,3.506,3.517,3.517,3.528,3.528,3.528,3.528,3.538,3.538,3.538,3.538,3.538,3.538,3.549,3.549,3.56,3.56,3.56,3.582,3.593,3.593,3.593,3.615,3.615,3.615,3.627,3.627,3.627,3.649,3.649,3.649,3.661,3.672,3.672,3.696,3.696,3.707,3.731,3.731,3.743,3.743,3.743,3.755,3.755,3.767,3.767,3.78,3.78,3.78,3.78,3.78,3.792,3.792,3.792,3.792,3.792,3.804,3.804,3.804,3.804,3.804,3.804,3.804,3.804,3.817,3.817,3.829,3.855,3.868,3.906,3.933,3.973,3.987,4.014,3.987,3.973,3.946,3.92,3.88,3.855,3.855,3.842,3.829,3.829,3.817,3.817,3.817,3.804,3.804,3.804,3.804,3.817,3.817,3.817,3.829,3.829,3.829,3.842,3.855,3.868,3.868,3.88,3.893,3.893,3.906,3.906,3.906,3.906,3.92,3.92,3.92,3.92,3.92,3.92,3.92,3.92,3.92,3.92,3.933,3.946,3.946,3.973,3.973,3.987,4.014,4.028,4.056,4.056,4.07,4.085,4.085,4.085,4.114,4.128,4.128,4.128,4.128,4.128,4.128,4.128,4.128,4.128,4.128,4.128,4.128,4.114,4.114,4.114,4.128,4.114,4.114,4.114,4.114,4.085,4.085,4.085,4.07,4.07,4.056,4.028,4.028,4.028,4.014,4.014,4.014,4.014,4.028,4.056,4.07,4.085,4.114,4.128,4.158,4.173,4.188,4.188,4.203,4.218,4.249,4.249,4.249,4.264,4.264,4.264,4.264,4.264,4.264,4.264,4.264,4.264,4.264,4.264,4.249,4.249,4.249,4.249,4.249,4.249,4.249,4.264,4.264,4.264,4.264,4.28,4.28,4.28,4.28,4.28,4.28,4.296,4.296,4.312,4.312,4.312,4.312,4.312,4.312,4.312,4.328,4.328,4.328,4.328,4.328,4.344,4.344,4.344,4.344,4.344,4.36,4.36,4.376,4.376,4.376,4.376,4.393,4.393,4.393,4.393,4.393,4.41,4.41,4.41,4.41,4.41,4.41,4.41,4.41,4.41,4.41,4.426,4.426,4.46,4.477,4.512,4.512,4.53,4.53,4.565,4.583,4.583,4.601,4.601,4.638,4.638,4.657,4.657,4.657,4.657,4.657,4.638,4.638,4.638,4.638,4.601,4.583,4.583,4.565,4.53,4.512,4.512,4.477,4.46,4.46,4.46,4.46,4.46,4.477,4.512,4.53,4.565,4.601,4.638,4.694,4.713,4.732,4.771,4.791,4.81,4.81,4.83,4.83,4.851,4.851,4.871,4.891,4.891,4.891,4.891,4.891,4.891,4.891,4.891,4.891,4.891,4.891,4.912,4.912,4.912,4.912,4.933,4.954,4.975,4.996,5.018,5.084,5.106,5.151,5.174,5.22,5.22,5.22,5.22,5.22,5.22,5.22,5.174,5.174,5.174,5.151,5.106,5.04,5.018,4.996,4.975,4.954,4.954,4.954,4.954,4.954,4.954,4.954,4.975,4.975,4.996,4.996,4.996,5.018,5.018,5.018,4.996,4.996,4.975,4.975,4.954,4.912,4.851,4.81,4.694,4.376,0,0,0,4.128,4.07,4.014,3.973,3.933,3.868,3.868,3.855,3.842,3.829,3.829,3.817,3.817,3.817,3.817,3.817,3.817,3.829,3.855,3.868,3.906,3.987,4.07,0,4.173,0,4.28,4.344,4.426,4.583,4.713,4.81,4.851,4.891,4.912,4.954,4.975,4.996,4.996,4.996,5.018,5.018,5.04,5.04,5.04,5.084,5.106,5.106,5.151,5.151,5.151,5.174,5.174,5.174,5.22,5.22,5.22,5.22,5.22,5.22,5.22,5.22,5.22,5.174,5.151,5.151,5.106,5.106,5.084,5.084,5.084,5.084,5.084,5.084,5.106,5.106,5.106,5.151,5.151,5.174,5.22,5.244,5.268,5.268,5.316,5.316,5.316,5.316,5.34,5.34,5.316,5.316,5.316,5.316,5.316,5.268,5.268,5.244,5.22,5.174,5.106,5.04,5.018,4.975,4.954,4.933,4.933,4.912,4.912,4.912,4.912,4.933,4.933,4.933,4.933,4.933,4.912,4.912,4.912,4.912,4.891,4.891,4.851,4.851,4.81,4.791,4.732,4.713,4.638,4.601,4.53,4.46,4.344,4.312,4.28,4.249,4.218,4.173,4.128,4.114,4.085,4.056,4.056,4.028,4.014,3.987,3.973,3.946,3.946,3.933,3.933,3.92,3.92,3.906,3.906,3.906,3.88,3.868,3.868,3.855,3.855,3.829,3.817,3.817,3.804,3.78,3.755,3.707,3.661,3.593,3.582,3.549,3.538,3.528,3.517,3.517,3.517,3.528,3.538,3.549,3.56,3.582,3.593,3.593,3.615,3.615,3.627,3.627,3.627,3.615,3.593,3.582,3.549,3.538,3.496,3.485,3.475,3.465,3.465,3.454,3.444,3.444,3.424,3.414,3.414,3.404,3.394,3.404,3.404,3.404,3.414,3.414,3.424,3.434,3.434,3.444,0,0,0,0,0,0,0,0,0
0,0,0,0,0,0,0,0,0,0,0,3.454,3.454,3.454,3.454,3.454,3.454,3.454,3.454,3.454,3.454,3.465,3.465,3.465,3.475,3.475,3.485,3.485,3.496,3.496,3.496,3.506,3.506,3.517,3.528,3.528,3.538,3.549,3.549,3.56,3.56,3.56,3.56,3.56,3.582,3.56,3.56,3.582,3.582,3.582,3.593,3.593,3.593,3.615,3.615,3.615,3.627,3.615,3.627,3.627,3.627,3.649,3.649,3.649,3.661,3.661,3.672,3.696,3.696,3.696,3.707,3.731,3.743,3.743,3.755,3.755,3.755,3.767,3.78,3.78,3.78,3.792,3.792,3.792,3.792,3.792,3.792,3.792,3.792,3.804,3.804,3.804,3.804,3.804,3.804,3.804,3.804,3.804,3.817,3.817,3.817,3.829,3.842,3.868,3.88,3.906,3.933,3.946,3.973,3.987,3.973,3.946,3.893,3.88,3.868,3.868,3.855,3.842,3.842,3.829,3.829,3.829,3.829,3.829,3.829,3.829,3.829,3.855,3.855,3.855,3.868,3.868,3.88,3.893,3.906,3.906,3.92,3.92,3.933,3.933,3.933,3.933,3.933,3.933,3.933,3.933,3.933,3.933,3.933,3.933,3.933,3.933,3.933,3.946,3.946,3.946,3.973,3.987,4.014,4.028,4.056,4.07,4.07,4.085,4.114,4.114,4.128,4.128,4.128,4.158,4.158,4.158,4.158,4.158,4.158,4.158,4.158,4.158,4.158,4.158,4.158,4.128,4.158,4.158,4.158,4.158,4.158,4.128,4.128,4.128,4.114,4.114,4.085,4.085,4.07,4.07,4.056,4.056,4.028,4.028,4.056,4.056,4.07,4.085,4.114,4.128,4.158,4.173,4.188,4.203,4.203,4.218,4.233,4.249,4.264,4.264,4.28,4.28,4.28,4.28,4.28,4.28,4.264,4.264,4.264,4.264,4.264,4.264,4.264,4.264,4.264,4.264,4.264,4.264,4.264,4.28,4.28,4.28,4.28,4.28,4.296,4.296,4.312,4.312,4.312,4.312,4.312,4.328,4.328,4.328,4.328,4.328,4.328,4.328,4.328,4.328,4.328,4.344,4.344,4.36,4.36,4.376,4.376,4.393,4.393,4.41,4.41,4.426,4.426,4.426,4.46,4.46,4.477,4.477,4.46,4.46,4.46,4.46,4.46,4.46,4.426,4.426,4.426,4.426,4.46,4.46,4.477,4.512,4.53,4.53,4.565,4.565,4.583,4.601,4.601,4.638,4.638,4.638,4.657,4.657,4.694,4.694,4.694,4.657,4.657,4.657,4.657,4.638,4.638,4.601,4.601,4.583,4.565,4.53,4.512,4.477,4.477,4.46,4.46,4.46,4.46,4.477,4.512,4.53,4.565,4.583,4.638,4.657,4.713,4.732,4.752,4.791,4.81,4.81,4.83,4.851,4.851,4.871,4.891,4.891,4.891,4.912,4.912,4.912,4.912,4.912,4.912,4.912,4.912,4.912,4.912,4.912,4.933,4.933,4.954,4.975,4.996,5.018,5.04,5.084,5.106,5.151,5.174,5.174,5.174,5.174,5.22,5.174,5.174,5.174,5.174,5.151,5.151,5.106,5.106,5.04,5.018,4.996,4.975,4.975,4.954,4.954,4.954,4.954,4.954,4.975,4.975,4.996,4.996,5.018,5.018,5.018,5.018,5.018,4.996,4.996,4.975,4.954,4.933,4.871,4.81,4.46,0,0,0,4.056,3.946,3.92,3.88,3.855,3.829,3.829,3.817,3.817,3.817,3.817,3.804,3.804,3.804,3.804,3.804,3.804,3.804,3.804,3.817,3.817,3.829,3.855,3.868,3.92,3.987,4.07,0,4.173,4.249,4.28,4.36,4.477,4.638,4.771,4.83,4.891,4.912,4.975,4.996,4.996,5.018,5.018,5.04,5.04,5.084,5.106,5.106,5.151,5.151,5.151,5.174,5.174,5.174,5.22,5.22,5.22,5.22,5.244,5.244,5.244,5.244,5.244,5.22,5.22,5.174,5.151,5.151,5.106,5.106,5.084,5.106,5.106,5.106,5.106,5.106,5.106,5.106,5.151,5.174,5.174,5.174,5.22,5.244,5.244,5.268,5.268,5.268,5.316,5.316,5.316,5.316,5.316,5.316,5.316,5.316,5.316,5.268,5.316,5.244,5.244,5.22,5.151,5.106,5.04,4.996,4.975,4.954,4.954,4.933,4.933,4.933,4.933,4.954,4.954,4.954,4.933,4.933,4.933,4.933,4.912,4.912,4.891,4.891,4.851,4.851,4.83,4.791,4.752,4.713,4.657,4.583,4.512,4.426,4.328,4.28,4.249,4.218,4.173,4.128,4.085,4.056,4.028,4.014,3.987,3.973,3.973,3.946,3.933,3.92,3.92,3.906,3.893,3.893,3.893,3.88,3.88,3.868,3.868,3.855,3.855,3.855,3.829,3.829,3.817,3.804,3.78,3.767,3.731,3.672,3.615,3.582,3.538,3.528,3.517,3.496,3.496,3.496,3.496,3.506,3.517,3.528,3.538,3.549,3.582,3.582,3.593,3.593,3.615,3.615,3.615,3.615,3.582,3.56,3.549,3.517,3.496,3.485,3.465,3.454,3.454,3.444,3.434,3.424,3.414,3.404,3.404,3.394,3.394,3.394,3.394,3.394,3.394,3.414,3.424,3.424,3.434,3.434,0,0,0,0,0,0,0,0,0
0,0,0,0,0,0,0,0,0,0,0,3.475,3.475,3.475,3.465,3.465,3.465,3.465,3.465,3.465,3.465,3.465,3.475,3.485,3.485,3.496,3.496,3.496,3.506,3.517,3.528,3.528,3.538,3.538,3.549,3.56,3.56,3.582,3.593,3.593,3.593,3.593,3.615,3.615,3.615,3.615,3.593,3.615,3.615,3.615,3.615,3.615,3.627,3.627,3.627,3.627,3.649,3.649,3.649,3.649,3.649,3.649,3.661,3.661,3.661,3.672,3.696,3.696,3.707,3.707,3.731,3.743,3.755,3.755,3.767,3.767,3.767,3.78,3.792,3.792,3.792,3.792,3.804,3.804,3.804,3.804,3.804,3.804,3.804,3.804,3.804,3.804,3.804,3.804,3.804,3.804,3.817,3.817,3.817,3.817,3.829,3.829,3.829,3.855,3.868,3.88,3.893,3.906,3.92,3.92,3.933,3.92,3.893,3.88,3.868,3.868,3.855,3.855,3.855,3.855,3.855,3.855,3.855,3.855,3.855,3.855,3.868,3.868,3.868,3.893,3.906,3.906,3.933,3.946,3.946,3.973,3.973,3.973,3.987,3.973,3.987,3.973,3.973,3.973,3.973,3.946,3.946,3.946,3.946,3.933,3.933,3.933,3.933,3.946,3.973,3.973,3.973,3.987,4.014,4.028,4.056,4.07,4.07,4.085,4.114,4.128,4.128,4.158,4.158,4.158,4.158,4.173,4.173,4.173,4.173,4.158,4.173,4.173,4.173,4.173,4.173,4.173,4.173,4.173,4.173,4.173,4.173,4.173,4.173,4.158,4.158,4.158,4.128,4.128,4.114,4.114,4.085,4.085,4.07,4.07,4.085,4.085,4.114,4.114,4.128,4.158,4.173,4.188,4.203,4.203,4.218,4.233,4.249,4.264,4.264,4.28,4.28,4.28,4.28,4.296,4.296,4.296,4.28,4.28,4.28,4.28,4.28,4.28,4.264,4.264,4.264,4.28,4.28,4.28,4.28,4.28,4.296,4.296,4.312,4.312,4.312,4.312,4.312,4.328,4.328,4.328,4.328,4.328,4.328,4.328,4.328,4.328,4.328,4.344,4.344,4.344,4.344,4.36,4.36,4.376,4.376,4.393,4.41,4.41,4.426,4.46,4.46,4.477,4.512,4.512,4.53,4.53,4.53,4.53,4.53,4.53,4.53,4.53,4.512,4.512,4.477,4.477,4.46,4.477,4.477,4.512,4.512,4.53,4.565,4.565,4.583,4.601,4.601,4.638,4.638,4.638,4.657,4.657,4.694,4.694,4.694,4.694,4.694,4.694,4.694,4.694,4.694,4.657,4.657,4.638,4.601,4.583,4.583,4.53,4.53,4.477,4.477,4.46,4.46,4.46,4.46,4.477,4.477,4.53,4.565,4.583,4.601,4.657,4.694,4.732,4.752,4.791,4.81,4.81,4.83,4.851,4.871,4.891,4.912,4.912,4.933,4.933,4.933,4.933,4.933,4.933,4.933,4.933,4.912,4.912,4.933,4.933,4.933,4.954,4.975,4.996,5.018,5.018,5.04,5.084,5.106,5.106,5.151,5.151,5.174,5.174,5.174,5.174,5.174,5.174,5.174,5.151,5.151,5.106,5.106,5.04,5.018,4.996,4.975,4.975,4.954,4.954,4.954,4.954,4.954,4.954,4.975,4.996,4.996,5.018,5.018,5.018,5.018,5.018,5.018,4.975,4.975,4.954,4.912,4.83,4.713,0,0,4.056,3.92,3.868,3.829,3.804,3.804,3.792,3.792,3.78,3.78,3.78,3.792,3.792,3.792,3.804,3.804,3.804,3.804,3.804,3.804,3.792,3.804,3.804,3.804,3.817,3.829,3.855,3.868,3.893,3.946,4.056,4.158,0,0,4.312,4.426,4.583,4.732,4.81,4.871,4.912,4.954,4.996,4.996,5.018,5.04,5.04,5.084,5.084,5.106,5.151,5.151,5.174,5.174,5.22,5.22,5.22,5.22,5.244,5.244,5.244,5.244,5.244,5.244,5.244,5.22,5.22,5.174,5.174,5.151,5.151,5.151,5.151,5.106,5.106,5.151,5.151,5.151,5.151,5.174,5.174,5.174,0,5.22,5.22,5.244,5.244,5.268,5.268,5.268,5.316,5.316,5.316,5.316,5.316,5.316,5.316,5.316,5.34,5.316,5.316,5.268,5.268,5.244,5.22,5.151,5.106,5.04,4.996,4.996,4.975,4.954,4.933,4.933,4.954,4.954,4.975,4.954,4.954,4.933,4.954,4.933,4.912,4.912,4.891,4.891,4.851,4.83,4.81,4.791,4.732,4.657,4.601,4.565,4.46,4.393,4.312,4.264,4.218,4.173,4.128,4.07,4.028,4.014,3.973,3.946,3.933,3.933,3.92,3.92,3.906,3.893,3.893,3.88,3.88,3.868,3.868,3.868,3.868,3.855,3.855,3.842,3.842,3.829,3.829,3.817,3.804,3.792,3.767,3.743,3.707,3.649,3.593,3.549,3.538,3.517,3.506,3.496,3.496,3.485,3.496,3.496,3.506,3.517,3.528,3.549,3.56,3.56,3.582,3.593,3.593,3.593,3.593,3.582,3.582,3.56,3.517,3.506,3.485,3.475,3.454,3.444,3.444,3.434,3.424,3.404,3.394,3.384,3.384,3.365,3.365,3.365,3.365,3.384,3.394,3.404,3.404,3.414,3.424,3.434,0,0,0,0,0,0,0,0,0
0,0,0,0,0,0,0,0,0,0,0,3.496,3.496,3.496,3.485,3.485,3.485,3.485,3.485,3.485,3.485,3.485,3.485,3.496,3.496,3.496,3.517,3.517,3.528,3.538,3.549,3.549,3.56,3.582,3.582,3.593,3.615,3.627,3.627,3.649,3.649,3.649,3.649,3.649,3.649,3.649,3.649,3.649,3.649,3.649,3.649,3.649,3.649,3.649,3.649,3.649,3.661,3.661,3.661,3.661,3.661,3.661,3.672,3.672,3.672,3.696,3.707,3.707,3.731,3.731,3.743,3.755,3.767,3.767,3.78,3.78,3.792,3.804,3.804,3.804,3.804,3.804,3.804,3.804,3.804,3.804,3.804,3.804,3.804,3.804,3.804,3.804,3.817,3.804,3.804,3.817,3.817,3.817,3.817,3.817,3.829,3.829,3.842,3.855,3.868,3.88,3.893,3.906,3.906,3.906,3.906,3.893,3.88,3.868,3.868,3.868,3.855,3.855,3.855,3.855,3.855,3.855,3.855,3.868,3.868,3.868,3.88,3.893,3.906,3.92,3.933,3.946,3.973,3.987,3.987,4.014,4.014,4.014,4.014,4.014,4.014,4.014,3.987,3.987,3.987,3.973,3.973,3.973,3.973,3.946,3.946,3.946,3.946,3.973,3.973,3.973,3.987,3.987,4.014,4.028,4.056,4.056,4.085,4.085,4.114,4.128,4.128,4.158,4.158,4.158,4.158,4.173,4.173,4.188,4.188,4.188,4.188,4.188,4.188,4.188,4.188,4.188,4.188,4.203,4.203,4.203,4.203,4.203,4.188,4.188,4.188,4.173,4.173,4.173,4.158,4.158,4.128,4.128,4.128,4.114,4.114,4.128,4.128,4.158,4.173,4.188,4.203,4.218,4.233,4.233,4.249,4.249,4.264,4.28,4.28,4.296,4.296,4.312,4.312,4.312,4.312,4.312,4.296,4.296,4.28,4.28,4.28,4.28,4.28,4.28,4.28,4.28,4.28,4.28,4.28,4.296,4.312,4.312,4.312,4.328,4.328,4.328,4.328,4.328,4.344,4.344,4.36,4.36,4.36,4.36,4.344,4.344,4.36,4.344,4.36,4.344,4.36,4.36,4.376,4.393,4.393,4.41,4.426,4.46,4.477,4.512,4.53,4.565,4.565,4.583,4.583,4.583,4.583,4.583,4.583,4.583,4.583,4.565,4.565,4.565,4.53,4.53,4.512,4.512,4.53,4.53,4.565,4.565,4.583,4.583,4.601,4.638,4.638,4.638,4.657,4.657,4.657,4.657,4.694,4.713,4.713,4.713,4.713,4.713,4.694,4.694,4.694,4.694,4.694,4.657,4.638,4.601,4.583,4.565,4.53,4.53,4.512,4.512,4.477,4.477,4.477,4.477,4.512,4.53,4.565,4.583,4.638,4.657,4.694,4.732,4.752,4.791,4.81,4.83,4.851,4.871,4.891,4.912,4.912,4.933,4.954,4.975,4.975,4.975,4.975,4.954,4.975,4.954,4.954,4.954,4.954,4.954,4.954,4.975,4.996,4.996,5.018,5.018,5.04,5.084,5.106,5.106,5.151,5.174,5.174,5.174,5.174,5.174,5.174,5.174,5.151,5.151,5.151,5.106,5.106,5.04,5.018,4.996,4.975,4.975,4.975,4.954,4.954,4.954,4.954,4.954,4.975,4.975,4.996,5.018,5.018,5.018,5.018,5.018,5.018,4.975,4.975,4.933,4.871,4.771,0,0,3.987,3.868,3.817,3.78,3.755,3.743,3.743,3.743,3.743,3.743,3.743,3.755,3.755,3.767,3.78,3.78,3.792,3.792,3.792,3.792,3.792,3.792,3.78,3.78,3.792,3.792,3.804,3.804,3.817,3.829,3.855,3.88,3.973,4.07,0,4.218,4.28,4.376,4.565,4.713,4.81,4.871,4.912,4.954,4.996,5.018,5.018,5.04,5.084,5.084,5.106,5.106,5.151,5.151,5.174,5.174,5.22,5.22,5.22,5.22,5.22,5.244,5.22,5.22,5.22,5.22,5.22,5.174,5.151,5.151,5.151,5.151,5.151,5.151,5.151,5.151,5.151,5.174,5.174,5.174,5.22,5.22,5.22,5.22,5.22,5.22,5.22,5.244,5.244,5.244,5.244,5.244,5.268,5.268,5.316,5.316,5.316,5.34,5.34,5.34,5.34,5.316,5.316,5.316,5.268,5.22,5.151,5.151,5.084,5.04,5.018,4.975,4.954,4.954,4.933,4.933,4.933,4.933,4.954,4.933,4.933,4.933,4.933,4.912,4.891,4.891,4.871,4.851,4.83,4.81,4.771,4.713,4.638,4.583,4.512,4.41,4.312,4.28,4.233,4.188,4.128,4.07,4.028,3.973,3.946,3.933,3.92,3.906,3.906,3.893,3.893,3.88,3.88,3.88,3.868,3.868,3.868,3.868,3.855,3.855,3.855,3.842,3.829,3.829,3.817,3.817,3.804,3.792,3.767,3.755,3.707,3.672,3.627,3.582,3.538,3.528,3.506,3.496,3.485,3.485,3.485,3.485,3.496,3.496,3.506,3.517,3.528,3.549,3.549,3.56,3.56,3.582,3.582,3.582,3.56,3.549,3.538,3.506,3.496,3.485,3.465,3.454,3.444,3.424,3.404,3.394,3.384,3.355,3.355,3.336,3.336,3.326,3.336,3.336,3.355,3.355,3.384,3.394,3.394,3.414,3.424,0,0,0,0,0,0,0,0,0
0,0,0,0,0,0,0,0,0,0,0,3.517,3.517,3.506,3.496,3.496,3.496,3.496,3.496,3.496,3.496,3.496,3.496,3.506,3.517,3.528,3.538,3.549,3.56,3.582,3.582,3.593,3.615,3.615,3.627,3.649,3.649,3.661,3.661,3.661,3.672,3.672,3.672,3.672,3.672,3.672,3.661,3.661,3.661,3.661,3.661,3.661,3.661,3.672,3.672,3.672,3.672,3.672,3.672,3.672,3.672,3.672,3.672,3.696,3.696,3.707,3.707,3.731,3.731,3.743,3.755,3.755,3.767,3.78,3.78,3.792,3.804,3.804,3.804,3.804,3.817,3.817,3.817,3.817,3.817,3.817,3.817,3.817,3.817,3.817,3.817,3.817,3.817,3.817,3.817,3.817,3.817,3.817,3.817,3.829,3.829,3.829,3.842,3.855,3.868,3.868,3.88,3.893,3.893,3.893,3.893,3.88,3.868,3.868,3.868,3.855,3.855,3.855,3.855,3.868,3.868,3.868,3.868,3.868,3.88,3.893,3.906,3.92,3.933,3.946,3.973,3.987,4.014,4.014,4.028,4.028,4.028,4.028,4.028,4.056,4.028,4.028,4.014,4.014,4.014,3.987,3.987,3.987,3.987,3.987,3.973,4.014,3.987,3.987,3.987,3.987,3.987,3.987,4.014,4.014,4.028,4.056,4.056,4.085,4.085,4.114,4.128,4.128,4.158,4.158,4.158,4.173,4.173,4.188,4.188,4.188,4.188,4.203,4.203,4.203,4.203,4.203,4.203,4.203,4.218,4.218,4.218,4.218,4.218,4.218,4.203,4.203,4.203,4.188,4.188,4.173,4.173,4.173,4.158,4.173,4.173,4.173,4.188,4.203,4.203,4.218,4.233,4.249,4.249,4.249,4.264,4.264,4.28,4.28,4.312,4.312,4.312,4.312,4.312,4.312,4.312,4.312,4.312,4.312,4.312,4.296,4.296,4.296,4.28,4.28,4.28,4.28,4.28,4.28,4.296,4.312,4.312,4.312,4.328,4.328,4.344,4.344,4.36,4.36,4.36,4.376,4.376,4.376,4.376,4.376,4.376,4.36,4.36,4.36,4.36,4.36,4.36,4.376,4.376,4.393,4.41,4.426,4.46,4.512,4.512,4.565,4.583,4.583,4.601,4.638,4.638,4.657,4.657,4.657,4.638,4.638,4.638,4.601,4.601,4.583,4.583,4.565,4.565,4.565,4.565,4.565,4.583,4.583,4.601,4.638,4.638,4.638,4.657,4.657,4.657,4.657,4.657,4.694,4.694,4.713,4.713,4.713,4.713,4.713,4.713,4.713,4.713,4.694,4.694,4.694,4.657,4.638,4.601,4.583,4.565,4.565,4.53,4.512,4.512,4.512,4.512,4.53,4.565,4.565,4.583,4.638,4.657,4.694,4.713,4.752,4.771,4.791,4.81,4.83,4.851,4.891,4.912,4.912,4.954,4.996,4.996,5.018,5.018,5.018,5.018,4.996,5.018,4.996,4.996,4.996,4.996,4.975,4.996,4.996,5.018,5.018,5.04,5.04,5.084,5.106,5.106,5.151,5.151,5.174,5.174,5.22,5.22,5.174,5.174,5.174,5.174,5.151,5.151,5.106,5.106,5.04,5.04,5.018,4.996,4.975,4.975,4.954,4.954,4.954,4.954,4.975,4.975,4.996,4.996,5.018,5.018,5.04,5.018,5.018,5.018,4.996,4.975,4.912,4.83,4.638,0,0,3.855,3.755,3.731,3.707,3.696,3.696,3.696,3.696,3.696,3.707,3.731,3.743,3.743,3.755,3.767,3.78,3.78,3.792,3.78,3.78,3.78,3.767,3.767,3.767,3.755,3.755,3.767,3.767,3.78,3.792,3.804,3.829,3.855,3.906,4.028,4.173,0,4.264,4.344,4.512,4.694,4.81,4.851,4.912,4.954,4.975,5.04,5.04,5.084,5.106,5.106,5.151,5.151,5.151,5.151,5.174,5.174,5.174,5.174,5.174,5.174,5.174,5.174,5.174,5.151,5.174,5.174,5.151,5.151,5.151,5.151,5.151,5.106,5.151,5.151,5.174,5.174,5.22,5.22,5.22,5.244,5.244,5.244,5.22,5.22,5.244,5.244,5.244,5.22,5.22,5.244,5.244,5.244,5.268,5.268,5.316,5.316,5.34,5.34,5.34,5.34,5.34,5.316,5.316,5.268,5.244,5.174,5.151,5.084,5.018,5.018,4.996,4.933,4.912,4.912,4.912,4.912,4.912,4.912,4.912,4.912,4.912,4.912,4.891,4.891,4.851,4.851,4.83,4.81,4.771,4.732,4.657,4.601,4.53,4.46,4.376,4.296,4.264,4.218,4.158,4.085,4.028,3.987,3.946,3.933,3.906,3.893,3.893,3.893,3.88,3.88,3.88,3.88,3.88,3.868,3.868,3.868,3.855,3.855,3.855,3.842,3.829,3.829,3.817,3.817,3.804,3.792,3.767,3.743,3.707,3.672,3.649,3.593,3.549,3.528,3.517,3.496,3.485,3.475,3.475,3.475,3.475,3.485,3.485,3.496,3.496,3.517,3.528,3.538,3.538,3.549,3.549,3.549,3.549,3.549,3.517,3.506,3.496,3.485,3.465,3.454,3.444,3.424,3.404,3.384,3.365,3.336,3.336,3.326,3.326,3.317,3.317,3.317,3.326,3.336,3.355,3.365,3.384,3.394,3.404,3.424,0,0,0,0,0,0,0,0,0
0,0,0,0,0,0,0,0,0,0,0,3.538,3.538,3.538,3.528,3.517,3.517,3.517,3.506,3.517,3.517,3.528,3.528,3.538,3.549,3.56,3.582,3.593,3.615,0,3.627,3.649,3.649,3.661,3.661,3.672,3.672,3.696,3.696,3.707,3.707,3.707,3.707,3.707,3.696,3.696,3.696,3.696,3.696,3.696,3.696,3.696,3.696,3.696,3.696,3.696,3.696,3.696,3.696,3.696,3.696,3.696,3.707,3.707,3.707,3.731,3.731,3.731,3.743,3.755,3.755,3.767,3.78,3.792,3.792,3.804,3.804,3.817,3.817,3.817,3.817,3.829,3.829,3.829,3.829,3.817,3.817,3.817,3.817,3.817,3.817,3.817,3.817,3.817,3.817,3.817,3.817,3.829,3.829,3.829,3.829,3.842,3.855,3.855,3.868,3.88,3.893,3.893,3.906,3.906,3.906,3.893,3.893,3.88,3.868,3.88,3.88,3.88,3.88,3.88,3.88,3.88,3.893,3.893,3.906,3.92,3.933,3.946,3.973,3.987,3.987,4.014,4.028,4.028,4.056,4.056,4.056,4.056,4.056,4.056,4.056,4.056,4.028,4.028,4.028,4.028,4.014,4.056,4.028,4.028,4.028,4.028,4.028,4.014,4.014,4.014,4.014,4.014,4.014,4.014,4.028,4.028,4.056,4.07,4.085,4.085,4.114,4.128,4.128,4.128,4.158,4.173,4.188,4.188,4.188,4.203,4.203,4.203,4.218,4.218,4.218,4.218,4.218,4.233,4.233,4.233,4.233,4.233,4.233,4.233,4.233,4.233,4.218,4.218,4.203,4.203,4.203,4.203,4.188,4.203,4.203,4.203,4.218,4.233,4.233,4.249,4.249,4.249,4.264,4.28,4.28,4.28,4.296,4.312,4.312,4.312,4.312,4.312,4.328,4.328,4.328,4.328,4.312,4.312,4.312,4.312,4.312,4.312,4.296,4.296,4.296,4.28,4.28,4.296,4.296,4.312,4.312,4.328,4.328,4.344,4.36,0,4.376,4.393,4.393,4.393,4.41,4.41,4.393,4.393,4.393,4.376,4.376,4.376,4.376,4.376,4.376,4.393,4.41,4.426,4.46,4.477,4.512,4.53,4.565,4.583,4.638,4.638,4.657,4.694,4.694,4.694,4.694,4.694,4.694,4.694,4.694,4.657,4.657,4.638,4.601,4.601,4.583,4.601,4.601,4.601,4.601,4.638,4.638,4.638,4.657,4.657,4.657,4.694,4.694,4.694,4.694,4.713,4.713,4.713,4.732,4.732,4.732,4.732,4.732,4.732,4.732,4.713,4.713,4.713,4.694,4.657,4.657,4.601,4.601,4.583,4.583,4.565,4.565,4.565,4.565,4.565,4.583,4.601,4.638,4.657,4.713,4.732,4.752,4.771,4.791,4.81,4.83,4.851,4.891,4.912,4.933,4.975,5.018,5.04,5.084,5.084,5.084,5.084,5.084,5.04,5.084,5.04,5.04,5.04,5.04,5.018,5.04,5.04,5.084,5.084,5.084,5.106,5.106,5.151,5.151,5.174,5.174,5.22,5.22,5.22,5.22,5.22,5.174,5.174,5.174,5.151,5.151,5.106,5.106,5.04,5.04,5.018,4.996,4.975,4.975,4.975,4.954,4.954,4.954,4.975,4.975,4.996,4.996,5.018,5.018,5.018,5.018,5.018,5.018,4.975,4.954,4.891,4.771,4.477,0,3.855,3.731,3.696,3.672,3.672,3.661,3.661,3.672,3.672,3.672,3.696,3.707,3.731,3.743,3.755,3.755,3.767,3.767,3.78,3.78,3.78,3.767,3.755,3.755,3.755,3.743,3.743,3.743,3.743,3.743,3.755,3.767,3.78,3.804,3.829,3.88,3.987,4.114,0,4.249,4.312,4.426,4.601,4.771,4.83,4.891,4.912,4.954,4.996,5.04,5.084,5.084,5.106,5.106,5.106,5.106,5.151,5.151,5.151,5.151,5.151,5.151,5.151,5.151,5.106,5.106,5.106,5.084,5.106,5.106,5.106,5.106,5.106,5.151,5.151,5.151,5.174,5.22,5.22,5.22,5.244,5.244,5.244,5.244,5.244,5.244,5.22,5.22,5.22,5.174,5.174,5.22,5.22,5.22,5.244,5.244,5.268,5.316,5.316,5.34,5.34,5.34,5.34,5.34,5.316,5.268,5.244,5.22,5.151,5.084,5.04,5.018,4.996,4.933,4.891,4.891,4.891,4.891,4.891,4.891,4.891,4.891,4.891,4.891,4.891,4.871,4.851,4.83,4.81,4.791,4.752,4.694,4.601,4.565,4.477,4.41,4.344,4.264,4.233,4.173,4.114,4.07,4.014,3.973,3.933,3.92,3.906,3.893,3.893,3.893,3.88,3.88,3.88,3.88,3.88,3.88,3.868,3.868,3.855,3.855,3.842,3.829,3.829,3.817,3.817,3.804,3.792,3.767,3.755,3.731,3.672,3.661,3.615,3.582,3.549,3.517,3.496,3.496,3.485,3.465,3.465,3.465,3.465,3.475,3.475,3.485,3.496,3.496,3.506,3.517,3.528,3.528,3.528,3.528,3.528,3.517,3.506,3.496,3.485,3.475,3.465,3.444,3.424,3.404,3.384,3.365,3.336,3.326,3.317,3.317,3.288,3.298,3.288,3.288,3.288,3.317,3.326,3.336,3.355,3.365,3.394,3.414,0,0,0,0,0,0,0,0,0
0,0,0,0,0,0,0,0,0,0,3.615,3.593,3.582,3.582,3.582,3.549,3.549,3.549,3.549,3.549,3.549,3.56,3.582,0,3.593,0,3.615,3.627,3.649,3.661,3.672,3.696,3.707,3.707,3.707,3.731,3.731,3.743,3.743,3.743,3.755,3.743,3.743,3.743,3.743,3.731,3.731,3.707,3.731,3.731,3.731,3.731,3.731,3.731,3.731,3.731,3.731,3.731,3.731,3.731,3.731,3.731,3.731,3.731,3.731,3.743,3.743,3.755,3.755,3.767,3.767,3.78,3.792,3.804,3.804,3.804,3.817,3.817,3.829,3.829,3.829,3.829,3.829,3.829,3.829,3.829,3.829,3.829,3.829,3.829,3.829,3.829,3.829,3.817,3.817,3.829,3.829,3.829,3.829,3.829,3.842,3.855,3.855,3.868,3.868,3.88,3.893,3.906,3.906,3.92,3.92,3.92,3.92,3.92,3.906,3.906,3.906,3.906,3.906,3.906,3.906,3.92,3.92,3.92,3.933,3.946,3.973,3.973,3.987,4.014,4.014,4.028,4.028,4.056,4.056,4.056,4.056,4.056,4.056,4.056,4.056,4.056,4.056,4.07,4.07,4.07,4.07,4.07,4.07,4.07,4.07,4.056,4.056,4.028,4.028,4.014,4.014,4.014,4.014,4.028,4.028,4.028,4.028,4.07,4.07,4.085,4.114,4.114,4.128,4.158,4.158,4.173,4.188,4.188,4.203,4.203,4.218,4.218,4.218,4.233,4.233,4.233,4.233,4.249,4.249,4.249,4.249,4.249,4.249,4.249,4.249,4.249,4.249,4.249,4.233,4.233,4.233,4.233,4.233,4.233,4.233,4.249,4.249,4.264,4.264,4.264,4.28,4.28,4.28,4.296,4.296,4.312,4.312,4.328,4.328,4.328,4.328,4.328,4.328,4.328,4.328,4.328,4.328,4.312,4.312,4.312,4.312,4.312,4.312,4.312,4.296,4.296,4.296,4.312,4.312,4.312,4.328,4.328,4.344,4.36,4.376,4.376,4.393,4.41,4.426,4.426,4.426,4.426,4.426,4.426,4.426,4.41,4.41,4.41,4.393,4.41,4.41,4.41,4.426,4.46,4.477,4.512,4.565,4.565,4.601,4.638,4.657,4.694,4.713,4.713,4.713,4.713,4.732,4.713,4.713,4.713,4.713,4.694,4.694,4.694,4.657,4.657,4.638,4.638,4.638,4.638,4.657,4.657,4.657,4.694,4.694,4.713,4.713,4.713,4.713,4.713,4.713,4.732,4.732,4.732,4.732,4.752,4.752,4.752,4.752,4.752,4.732,4.732,4.732,4.732,4.713,4.694,4.694,4.657,4.638,4.638,4.638,4.601,4.601,4.601,4.601,4.638,4.657,4.694,4.713,4.732,4.752,4.771,4.81,4.81,4.83,4.851,4.871,4.891,4.912,4.954,4.975,5.018,5.084,5.106,5.151,5.151,5.151,5.151,5.151,5.106,5.106,5.084,5.106,5.106,5.106,5.084,5.106,5.106,5.106,5.151,5.151,5.151,5.174,5.174,5.174,5.22,5.22,5.22,5.244,5.244,5.244,5.22,5.22,5.174,5.174,5.174,5.151,5.151,5.106,5.084,5.04,5.018,4.996,4.996,4.975,4.975,4.954,4.954,4.954,4.975,4.996,4.996,5.018,5.018,5.018,5.018,5.018,5.018,4.996,4.996,4.933,4.851,4.36,0,0,3.804,3.672,3.672,3.661,3.661,3.661,3.661,3.661,3.661,3.672,3.696,3.696,3.707,3.731,3.743,3.755,3.767,3.767,3.767,3.767,3.767,3.755,3.755,3.743,3.743,3.743,3.731,3.731,3.707,3.707,3.707,3.731,3.743,3.767,3.804,3.829,3.868,3.933,4.07,4.203,0,4.28,4.36,4.477,4.638,4.732,4.81,4.851,4.891,4.933,4.975,4.996,5.04,5.04,5.084,5.084,5.084,5.106,5.106,5.106,5.106,5.106,5.106,5.106,5.106,5.084,5.084,5.084,5.084,5.084,5.084,5.084,5.084,5.084,5.151,5.151,5.151,5.174,5.22,5.22,5.244,5.244,5.244,5.244,5.244,5.22,5.174,5.174,5.151,5.151,5.151,5.151,5.174,5.174,5.22,5.22,5.244,5.268,5.316,5.34,5.34,5.34,5.389,5.34,5.34,5.268,5.244,5.22,5.174,5.106,5.04,5.018,4.996,4.933,4.891,4.891,4.891,4.891,4.891,4.871,4.871,4.891,4.891,4.891,4.871,4.851,4.83,4.83,4.81,4.771,4.732,4.657,4.583,4.512,4.426,4.376,4.296,4.264,4.233,4.188,4.114,4.07,4.028,3.973,3.946,3.933,3.92,3.92,3.906,3.906,3.893,3.906,3.906,3.893,3.893,3.893,3.88,3.868,3.868,3.855,3.842,3.829,3.829,3.817,3.817,3.804,3.792,3.767,3.743,3.707,3.672,3.649,3.593,3.56,3.538,3.517,3.496,3.485,3.465,3.465,3.454,3.454,3.465,3.465,3.465,0,3.485,3.485,3.496,3.496,3.506,3.517,3.517,3.517,3.517,3.506,3.506,3.496,3.485,3.465,3.454,3.444,3.414,3.394,3.365,3.336,3.326,3.298,3.288,3.288,3.27,3.27,3.27,3.27,3.27,3.298,3.317,3.326,3.336,3.355,3.384,0,0,0,0,0,0,0,0,0,0
0,0,0,0,0,0,0,0,0,0,3.661,3.649,3.627,3.627,3.615,3.593,3.593,3.593,3.593,3.593,3.593,3.615,3.615,3.627,3.649,3.661,3.672,3.696,3.707,3.707,3.731,3.743,3.755,3.755,3.755,3.755,3.767,3.767,3.78,3.78,3.767,3.767,3.767,3.767,3.767,3.767,3.755,3.755,3.755,3.743,3.743,3.743,3.743,3.743,3.743,3.743,3.743,3.743,3.743,3.743,3.743,3.743,3.755,3.755,3.755,3.755,3.755,3.767,3.767,3.78,3.792,3.792,3.804,3.804,3.817,3.817,3.829,3.829,3.829,3.829,3.842,3.842,3.842,3.842,3.842,3.842,3.842,3.829,3.829,3.829,3.829,3.829,3.829,3.829,3.829,3.829,3.829,3.829,3.829,3.842,3.855,3.855,3.855,3.868,3.88,3.893,3.906,3.92,3.933,3.933,3.946,3.946,3.973,3.973,3.946,3.946,3.946,3.946,3.946,3.933,3.933,3.933,3.946,3.946,3.973,3.973,3.987,3.987,4.014,4.014,4.028,4.028,4.028,4.056,4.056,4.056,4.056,4.056,4.056,4.07,4.07,4.07,4.07,4.07,4.085,4.085,4.085,4.085,4.085,4.085,4.085,4.085,4.07,4.056,4.028,4.028,4.028,4.028,4.028,4.028,4.028,4.028,4.056,4.056,4.07,4.085,4.114,4.114,4.128,4.158,4.173,4.188,4.203,4.203,4.218,4.218,4.218,4.233,4.233,4.249,4.249,4.249,4.249,4.249,4.249,4.249,4.249,4.249,4.249,4.249,4.249,4.249,4.249,4.264,4.249,4.249,4.249,4.249,4.249,4.264,4.264,4.264,4.28,4.28,4.28,4.296,4.296,4.312,4.312,4.328,4.328,4.328,4.344,4.344,4.344,4.344,4.344,4.344,4.344,4.344,4.344,4.344,4.328,4.328,4.328,4.328,4.328,4.328,4.312,4.312,4.312,4.312,4.312,4.312,4.328,4.328,4.328,4.344,4.36,4.376,4.393,4.41,4.426,4.46,4.46,4.477,4.477,4.477,4.477,4.477,4.46,4.46,4.46,4.46,4.426,4.426,4.46,4.46,4.477,4.512,4.53,4.565,4.583,4.601,4.638,4.657,4.694,0,4.713,4.732,4.732,4.752,4.752,4.752,4.752,4.732,4.732,4.713,4.713,4.713,4.713,4.694,4.694,4.694,4.694,4.713,4.713,4.713,4.713,4.732,4.732,4.732,4.732,4.732,4.732,4.732,4.752,4.752,4.752,4.752,4.752,4.771,4.771,4.771,4.771,4.771,4.771,4.771,4.771,4.752,4.752,4.752,4.732,4.713,4.713,4.694,4.694,4.694,4.694,4.694,4.694,4.713,4.713,4.752,4.752,4.791,4.81,4.81,4.83,4.851,4.851,4.891,4.891,4.933,4.954,4.996,5.04,5.084,5.151,5.174,5.22,5.22,5.174,5.174,5.174,5.174,5.174,5.151,5.151,5.151,5.151,5.151,5.151,5.174,5.174,5.174,5.22,5.22,5.22,5.22,5.22,5.244,5.244,5.244,5.244,5.244,5.244,5.22,5.22,5.22,5.174,5.174,5.151,5.151,5.106,5.106,5.04,5.018,5.018,4.996,4.996,4.975,4.975,4.975,4.975,4.975,4.996,4.996,5.018,5.018,5.018,5.018,5.018,5.018,4.996,4.996,4.912,4.81,0,0,3.855,3.707,3.661,3.661,3.649,3.649,3.661,3.649,3.649,3.661,3.672,3.696,3.696,3.707,3.731,3.743,3.755,3.755,3.767,3.767,3.755,3.755,3.755,3.743,3.731,3.731,3.731,3.707,3.707,3.696,3.696,3.696,3.696,3.731,3.743,3.755,3.792,3.817,3.855,3.906,4.028,0,4.249,0,4.296,4.36,4.426,4.53,4.657,4.732,4.81,4.851,4.891,4.912,4.954,4.996,5.04,5.04,5.084,5.084,5.084,5.084,5.084,5.084,5.084,5.084,5.084,5.04,5.04,5.04,5.04,5.04,5.04,5.04,5.04,5.04,5.084,5.106,5.151,5.174,5.22,5.244,5.244,5.244,5.244,5.22,5.174,5.151,5.151,5.106,5.106,5.106,5.106,5.106,5.151,5.174,5.174,5.22,5.268,5.316,5.316,5.34,5.389,5.389,5.389,5.34,5.316,5.244,5.22,5.174,5.106,5.084,5.018,4.996,4.933,4.912,4.891,4.891,4.851,4.851,4.851,4.851,4.851,4.851,4.851,4.851,4.83,4.81,4.81,4.771,4.713,4.657,4.601,4.53,4.46,4.393,4.344,4.28,4.249,4.218,4.188,4.128,4.085,4.028,4.014,3.973,3.973,3.933,3.933,3.933,3.933,3.92,3.92,3.92,3.92,3.906,3.906,3.893,3.88,3.868,3.855,3.855,3.829,3.829,3.817,3.817,3.804,3.792,3.767,3.731,3.696,3.672,3.649,3.593,3.56,3.528,3.506,3.496,3.485,3.465,3.454,3.444,0,3.454,3.454,3.465,0,3.475,3.485,3.485,3.496,3.506,3.506,3.506,3.506,3.506,3.506,3.496,3.485,3.475,3.465,3.444,3.434,3.404,3.384,3.336,3.317,3.298,3.288,3.27,3.261,3.261,3.261,3.243,3.261,3.27,3.27,3.298,3.317,3.326,3.336,3.355,0,0,0,0,0,0,0,0,0,0
0,0,0,0,0,0,0,0,0,0,3.696,3.672,3.661,3.661,3.661,3.627,3.627,3.627,3.649,3.649,3.649,3.661,3.672,3.672,3.696,3.707,3.731,3.743,3.755,3.755,3.767,3.78,3.78,3.78,3.792,3.792,3.792,3.792,3.792,3.792,3.792,3.792,3.792,3.792,3.792,3.78,3.78,3.78,3.78,3.767,3.767,3.767,3.767,3.767,3.767,3.767,3.767,3.767,3.767,3.767,3.767,3.767,3.767,3.767,3.767,3.78,3.78,3.78,3.792,3.792,3.804,3.804,3.817,3.817,3.817,3.829,3.829,3.842,3.855,3.855,3.855,3.855,3.855,3.855,3.855,3.855,3.855,3.855,3.842,3.842,3.842,3.829,3.829,3.829,3.829,3.829,3.829,3.842,3.842,3.855,3.855,3.855,3.868,3.868,3.893,3.906,3.92,3.933,3.946,3.973,3.973,3.987,3.987,3.987,3.987,3.987,3.987,3.987,3.987,3.973,3.973,3.973,3.973,3.973,3.987,3.987,4.014,4.014,4.014,4.014,4.028,4.028,4.028,4.056,4.056,4.056,4.056,4.056,4.07,4.085,4.085,4.085,4.085,4.114,4.114,4.114,4.114,4.114,4.114,4.114,4.114,4.085,4.085,4.07,4.07,4.056,4.056,4.056,4.056,4.056,4.056,4.056,4.07,4.07,4.085,4.085,4.114,4.128,4.158,4.173,4.173,4.188,4.203,4.218,4.218,4.233,4.233,4.249,4.249,4.249,4.249,4.249,4.264,4.264,4.264,4.264,4.264,4.264,4.264,4.264,4.264,4.264,4.264,4.264,4.264,4.264,4.264,4.28,4.28,4.28,4.28,4.28,4.296,4.312,4.312,4.312,4.328,4.328,4.328,4.344,4.344,4.344,4.36,4.376,4.376,4.376,4.376,4.376,4.36,4.36,4.36,4.36,4.36,4.36,4.36,4.344,4.344,4.328,4.328,4.328,4.328,4.312,4.312,4.328,4.328,4.344,4.36,4.376,4.393,4.41,4.426,4.46,4.477,4.512,4.512,4.53,4.53,4.53,4.53,4.53,4.53,4.512,4.512,4.512,4.512,4.512,4.512,4.512,4.53,4.565,4.583,4.583,4.638,4.657,0,4.694,4.713,4.713,4.732,4.732,4.752,4.752,4.752,4.752,4.752,4.752,4.752,4.732,4.732,4.732,4.732,4.732,4.732,4.713,4.732,4.732,4.732,4.732,4.752,4.752,4.752,4.752,4.752,4.752,4.752,4.771,4.771,4.771,4.771,4.771,4.771,4.791,4.791,4.81,4.81,4.81,4.81,4.81,4.81,4.791,4.791,4.771,4.771,4.771,4.752,4.752,4.752,4.732,4.732,4.752,4.752,4.771,4.771,4.81,4.81,4.83,4.83,4.851,4.871,4.891,4.891,4.912,4.933,4.975,4.996,5.04,5.106,5.151,5.22,5.22,5.244,5.244,5.244,5.22,5.22,5.22,5.22,5.174,5.22,5.22,5.22,5.22,5.22,5.22,5.22,5.244,5.244,5.244,5.244,5.268,5.268,5.268,5.268,5.268,5.268,5.268,5.244,5.244,5.244,5.22,5.22,5.174,5.174,5.151,5.151,5.106,5.106,5.04,5.04,5.018,5.018,4.996,4.996,4.996,4.996,4.996,4.996,4.996,5.018,5.018,5.018,5.018,5.018,5.018,5.018,4.975,4.871,4.752,0,0,3.817,3.696,3.661,3.661,3.649,3.649,3.649,3.649,3.661,3.661,3.672,3.696,3.696,3.731,3.731,3.743,3.755,3.755,3.755,3.755,3.755,3.755,3.743,3.731,3.731,3.707,3.707,3.696,3.696,3.672,3.672,3.672,3.672,3.696,3.707,3.731,3.755,3.78,3.817,3.855,3.893,3.946,4.07,4.173,4.249,4.28,4.312,0,4.36,4.426,4.565,4.694,4.771,4.83,4.891,4.912,4.996,5.018,5.04,5.04,5.04,5.084,5.04,5.04,5.084,5.04,5.04,5.018,5.018,5.018,4.996,4.996,5.018,5.018,5.018,5.018,5.04,5.084,5.106,5.151,5.151,5.174,5.174,5.22,5.22,5.22,5.151,5.106,5.106,5.084,5.084,5.084,5.084,5.084,5.106,5.151,5.174,5.22,5.244,5.316,5.316,5.34,5.34,5.34,5.34,5.34,5.316,5.268,5.22,5.22,5.151,5.106,5.04,5.018,4.954,4.912,4.891,4.891,4.851,4.851,4.851,4.83,4.851,4.851,4.851,4.83,4.81,4.81,4.771,4.732,4.657,4.601,4.53,4.46,4.41,4.36,4.328,4.28,4.249,4.218,4.188,4.158,4.114,4.085,4.056,4.014,4.014,3.987,3.973,3.973,3.973,3.973,3.973,3.946,3.946,3.933,3.933,3.906,3.893,3.88,3.868,3.855,3.842,3.829,3.817,3.817,3.804,3.792,3.767,3.743,3.707,3.672,3.649,3.615,3.56,3.538,3.517,3.496,3.485,3.465,3.454,3.454,3.454,3.454,3.454,3.465,3.465,3.475,3.485,3.485,0,3.496,3.496,3.496,3.496,3.496,3.496,3.496,3.485,3.475,3.454,3.444,3.424,3.394,3.365,3.336,3.298,3.288,3.27,3.261,3.243,3.243,3.243,3.243,3.243,3.243,3.261,3.288,3.288,3.298,3.326,3.355,0,0,0,0,0,0,0,0,0,0
0,0,0,0,0,0,0,0,0,0,3.731,3.707,3.696,3.696,3.672,3.672,3.672,3.672,3.672,3.696,3.696,3.707,3.731,3.731,3.743,3.755,3.767,3.78,3.792,3.792,3.804,3.804,3.804,3.804,3.804,3.804,3.804,3.804,3.804,3.817,3.804,3.804,3.804,3.804,3.804,3.804,3.804,3.804,3.804,3.792,3.792,3.78,3.78,3.78,3.78,3.78,3.78,3.78,3.78,3.78,3.78,3.78,3.792,3.792,3.792,3.792,3.792,3.804,3.804,3.804,3.817,3.817,3.817,3.829,3.829,3.842,3.855,3.855,3.855,3.855,3.868,3.868,3.868,3.868,3.868,3.855,3.855,3.855,3.855,3.855,3.842,3.842,3.842,3.842,3.842,3.842,3.842,3.855,3.855,3.855,3.855,3.868,3.868,3.893,3.906,3.92,3.933,3.946,3.973,3.987,4.014,4.028,4.028,4.028,4.056,4.028,4.028,4.014,4.014,4.014,4.014,4.014,4.014,4.014,4.014,4.028,4.028,4.028,4.028,4.056,4.056,4.056,4.056,4.056,4.056,4.056,4.07,4.07,4.085,4.085,4.114,4.114,4.114,4.114,4.114,4.128,4.128,4.128,4.128,4.128,4.128,4.128,4.114,4.085,4.07,4.07,4.056,4.056,4.056,4.056,4.056,4.07,4.07,4.085,4.085,4.114,4.128,4.158,4.158,4.188,4.188,4.203,4.218,4.233,4.233,4.249,4.249,4.249,4.249,4.264,4.264,4.264,4.264,4.264,4.264,4.28,4.28,4.28,4.28,4.28,4.28,4.28,4.28,4.28,4.28,4.28,4.296,4.296,4.296,4.312,4.312,4.312,4.328,4.328,4.328,4.344,4.344,4.344,4.36,4.36,4.376,4.376,4.393,4.393,4.393,4.393,4.393,4.393,4.393,4.393,4.393,4.393,4.393,4.393,4.376,4.376,4.376,4.36,4.344,4.344,4.328,4.328,4.328,4.344,4.344,4.376,4.393,4.41,4.426,4.46,4.477,4.512,4.53,4.565,4.565,4.583,4.583,4.583,4.583,4.583,4.583,4.583,4.565,4.565,4.565,4.565,4.565,4.565,4.583,4.601,0,4.638,0,4.657,4.694,4.713,4.732,4.732,4.732,4.752,4.752,4.752,4.752,4.752,4.752,4.752,4.752,4.752,4.752,4.752,4.771,4.752,4.752,4.752,4.771,4.771,4.771,4.771,4.771,4.771,4.771,4.791,4.771,4.791,4.791,4.791,4.791,4.791,4.791,4.81,4.81,4.81,4.81,4.81,4.83,4.83,4.83,4.83,4.83,4.83,4.81,4.81,4.81,4.81,4.81,4.81,4.791,4.791,4.791,4.791,4.81,4.81,4.83,4.83,4.851,4.851,4.871,4.891,4.912,4.912,4.933,4.954,4.975,5.018,5.04,5.106,5.151,5.174,5.22,5.244,5.244,5.244,5.244,5.244,5.244,5.244,5.22,5.244,5.244,5.244,5.244,5.244,5.244,5.244,5.268,5.268,5.268,5.268,5.268,5.268,5.268,5.316,5.316,5.268,5.268,5.268,5.268,5.244,5.244,5.244,5.22,5.22,5.174,5.174,5.174,5.151,5.151,5.106,5.04,5.04,5.04,5.018,5.018,5.018,4.996,5.018,5.018,5.018,5.018,5.04,5.018,5.018,4.996,4.996,4.996,4.933,4.83,0,0,3.88,3.707,3.696,3.661,3.649,3.649,3.649,3.649,3.649,3.661,3.661,3.672,3.696,3.707,3.707,3.743,3.755,3.755,3.755,3.755,3.755,3.755,3.743,3.743,3.707,3.707,3.696,3.696,3.672,3.672,3.661,3.661,3.661,3.672,3.672,3.672,3.707,3.731,3.755,3.792,3.817,3.829,3.855,3.893,3.973,4.056,0,0,4.249,4.28,4.344,0,4.46,4.601,4.752,4.83,4.891,4.954,4.996,4.996,5.018,5.018,5.04,5.018,5.04,5.04,5.018,5.018,5.018,4.996,4.996,4.996,4.996,4.996,4.996,4.996,5.018,5.018,5.04,5.084,5.084,5.106,5.151,5.151,5.151,5.151,5.106,5.106,5.106,5.084,5.084,5.04,5.04,5.04,5.084,5.084,5.106,5.151,5.174,5.22,5.268,5.316,5.316,5.34,5.34,5.389,5.34,5.316,5.268,5.22,5.174,5.174,5.106,5.084,5.018,4.975,4.933,4.912,4.891,4.851,4.851,4.83,4.83,4.83,4.83,4.83,4.83,4.81,4.771,4.732,4.694,4.601,4.53,4.46,4.393,4.36,4.328,4.28,4.264,4.249,4.218,4.203,4.173,4.158,4.114,4.085,4.056,4.056,4.056,4.028,4.028,4.028,4.014,4.014,3.987,3.973,3.946,3.933,3.92,3.893,3.88,3.868,3.855,3.842,3.829,3.829,3.817,3.804,3.804,3.78,3.755,3.731,3.696,3.661,3.627,3.593,3.56,3.528,3.506,3.485,3.475,3.465,3.454,3.454,3.454,3.454,3.465,3.465,3.475,3.485,3.485,3.485,3.496,3.496,3.496,3.496,3.496,3.496,3.485,3.475,3.465,3.454,3.444,3.424,3.394,3.355,3.326,3.298,3.288,3.261,3.243,3.234,3.234,3.234,3.234,3.243,3.243,3.261,3.27,3.27,3.288,3.317,3.326,0,0,0,0,0,0,0,0,0,0
0,0,0,0,0,0,0,0,0,3.78,3.767,3.743,3.743,3.743,3.731,3.707,3.707,3.707,3.731,3.731,3.743,3.755,3.767,3.767,3.78,3.792,3.804,3.804,3.804,3.817,3.817,3.817,3.817,3.817,3.817,3.817,3.817,3.817,3.817,3.817,3.817,3.817,3.817,3.817,3.817,3.817,3.817,3.804,3.804,3.804,3.804,3.804,3.804,3.804,3.804,3.804,3.804,3.804,3.804,3.804,3.804,3.804,3.804,3.804,3.804,3.804,3.804,3.804,3.817,3.817,3.829,3.829,3.829,3.842,3.855,3.855,3.855,3.868,3.868,3.868,3.868,3.88,3.868,3.868,3.868,3.868,3.868,3.868,3.855,3.855,3.855,3.855,3.855,3.855,3.855,3.855,3.855,3.855,3.855,3.868,3.868,3.88,3.893,3.906,3.933,3.946,3.973,3.987,4.014,4.028,4.056,4.056,4.07,4.07,4.07,4.07,4.07,4.07,4.07,4.056,4.056,4.056,4.056,4.056,4.028,4.07,4.07,4.07,4.07,4.07,4.07,4.07,4.07,4.07,4.07,4.07,4.085,4.085,4.085,4.114,4.114,4.114,4.128,4.128,4.158,4.158,4.158,4.158,4.158,4.158,4.128,4.128,4.128,4.114,4.085,4.085,4.085,4.07,4.07,4.07,4.085,4.085,4.085,4.114,4.128,4.128,4.158,4.173,4.188,4.203,4.203,4.233,4.233,4.249,4.249,4.249,4.264,4.264,4.264,4.264,4.264,4.264,4.28,4.28,4.28,4.28,4.28,4.28,4.28,4.296,4.296,4.312,4.312,4.312,4.312,4.312,4.312,4.328,4.328,4.328,4.328,4.328,4.344,4.344,4.36,4.376,4.376,4.376,4.393,4.393,4.393,4.41,4.426,4.426,4.426,4.426,4.426,4.426,4.426,4.426,4.426,4.426,4.426,4.426,4.426,4.41,4.393,4.393,4.376,4.376,4.36,4.36,4.36,4.376,4.376,4.393,4.41,4.426,4.46,4.477,4.512,4.565,4.583,4.583,4.601,4.638,4.638,4.638,4.638,4.638,4.638,4.638,4.601,4.601,4.601,4.601,4.601,4.601,4.638,4.638,4.657,4.657,4.694,4.713,4.713,4.732,4.732,4.752,4.752,4.752,4.752,4.752,4.752,4.771,4.771,4.771,4.771,4.771,4.771,4.771,4.791,4.791,4.791,4.791,4.791,4.791,4.791,4.81,4.81,4.81,4.81,4.81,4.81,4.81,4.81,4.81,4.81,4.81,4.83,4.83,4.83,4.83,4.83,4.83,4.851,4.851,4.851,4.851,4.851,4.83,4.83,4.83,4.83,4.83,4.83,4.83,4.83,4.83,4.83,4.83,4.83,4.83,4.851,4.851,4.891,4.891,4.912,4.912,4.933,4.975,4.996,5.018,5.04,5.084,5.106,5.151,5.174,5.22,5.244,5.268,5.268,5.244,5.268,5.268,5.244,5.244,5.244,5.268,5.268,5.268,5.268,5.268,5.268,5.268,5.316,5.316,5.316,5.316,5.316,5.316,5.316,5.316,5.316,5.316,5.316,5.316,5.316,5.268,5.268,5.244,5.244,5.244,5.22,5.174,5.174,5.174,5.151,5.151,5.084,5.084,5.04,5.04,5.04,5.018,5.018,5.018,5.018,5.018,5.04,5.04,5.018,5.018,4.996,4.996,4.996,4.912,4.81,0,0,3.855,3.696,3.672,3.661,3.649,3.649,3.649,3.649,3.649,3.661,3.661,3.672,3.696,3.707,3.731,3.743,3.743,3.755,3.755,3.755,3.743,3.743,3.731,3.731,3.707,3.696,3.696,3.672,3.661,3.661,3.649,3.649,3.649,3.661,3.672,3.672,3.672,3.707,3.731,3.755,3.78,3.804,3.817,3.829,3.855,3.88,3.906,3.933,4.014,0,0,4.28,0,0,4.583,4.752,4.83,4.912,4.954,4.996,4.996,5.018,5.018,5.018,5.018,5.018,5.018,5.018,4.996,4.996,4.975,4.975,4.975,4.975,4.975,4.975,4.975,4.996,5.018,5.018,5.04,5.084,5.084,5.084,5.106,5.106,5.106,5.084,5.084,5.084,5.084,5.084,5.04,5.04,5.084,5.084,5.106,5.151,5.174,5.22,5.268,5.316,5.34,5.34,5.34,5.34,5.34,5.316,5.268,5.244,5.22,5.151,5.151,5.106,5.084,4.996,4.933,4.912,4.891,4.891,4.851,4.851,4.83,4.83,4.83,4.81,4.791,4.771,4.732,4.657,4.601,4.53,4.46,4.393,4.36,4.328,4.312,4.296,4.264,4.249,4.233,4.218,4.203,4.173,4.158,4.128,4.114,4.085,4.085,4.085,4.07,4.07,4.056,4.028,4.014,3.987,3.973,3.946,3.92,3.893,3.88,3.868,3.855,3.855,3.829,3.829,3.817,3.817,3.804,3.792,3.767,3.743,3.731,3.672,3.661,3.627,3.582,3.549,3.528,3.496,3.485,3.465,3.454,3.454,3.454,3.454,3.454,3.465,3.465,3.485,3.485,3.485,3.496,3.496,3.496,3.496,3.496,3.496,3.485,3.475,3.465,3.454,3.444,3.414,3.394,3.355,3.326,3.298,3.27,3.261,3.243,3.234,3.234,3.234,3.234,3.243,3.225,3.234,3.243,3.243,3.261,3.288,3.298,0,0,0,0,0,0,0,0,0,0
0,0,0,0,0,0,0,0,0,3.804,3.792,3.792,3.78,3.755,3.755,3.743,3.743,3.755,3.755,3.767,3.78,3.792,3.792,3.804,3.804,3.817,3.817,3.817,3.829,3.829,3.829,3.829,3.829,3.829,3.829,3.829,3.829,3.829,3.829,3.829,3.829,3.829,3.829,3.829,3.829,3.829,3.829,3.817,3.817,3.817,3.817,3.817,3.804,3.804,3.804,3.804,3.804,3.804,3.804,3.804,3.804,3.804,3.804,3.817,3.817,3.817,3.817,3.817,3.829,3.829,3.829,3.842,3.855,3.855,3.868,3.868,3.868,3.88,3.88,3.893,3.893,3.88,3.88,3.88,3.88,3.868,3.868,3.868,3.868,3.868,3.855,3.855,3.855,3.855,3.855,3.868,3.868,3.868,3.868,3.88,3.893,3.906,3.92,3.933,3.946,3.987,4.014,4.028,4.028,4.07,4.085,4.085,4.114,4.114,4.114,4.114,4.114,4.114,4.085,4.085,4.085,4.114,4.114,4.114,4.114,4.114,4.114,4.114,4.114,4.085,4.085,4.085,4.085,4.085,4.085,4.085,4.114,4.114,4.128,4.128,4.128,4.158,4.158,4.158,4.158,4.158,4.173,4.173,4.158,4.158,4.158,4.158,4.128,4.128,4.114,4.114,4.114,4.114,4.114,4.114,4.085,4.114,4.114,4.128,4.158,4.158,4.173,4.188,4.203,4.218,4.233,4.249,4.249,4.264,4.264,4.264,4.264,4.28,4.28,4.28,4.28,4.28,4.28,4.28,4.28,4.296,4.296,4.296,4.312,4.312,4.312,4.312,4.328,4.328,4.328,4.328,4.328,4.344,4.344,4.344,4.36,4.36,4.376,4.376,4.393,4.393,4.393,4.41,4.41,4.426,4.426,4.46,4.46,4.477,4.477,4.477,4.477,4.477,4.477,4.477,4.477,4.477,4.477,4.477,4.477,4.46,4.426,4.426,4.426,4.393,4.393,4.393,4.393,4.393,4.41,4.426,4.46,4.477,4.512,4.53,4.565,4.583,4.601,4.638,4.657,4.657,4.694,4.694,4.713,4.713,4.694,4.694,4.694,4.694,4.694,4.694,4.694,4.657,4.694,4.694,4.713,4.713,4.713,4.732,4.732,4.752,4.752,4.752,4.752,4.752,4.752,4.752,4.771,4.771,4.771,4.771,4.771,4.791,4.791,4.791,4.791,4.791,4.81,4.81,4.81,4.81,4.81,4.81,4.81,4.83,4.83,4.83,4.83,4.83,4.83,4.83,4.83,4.851,4.851,4.851,4.851,4.851,4.871,4.871,4.871,4.891,4.891,4.871,4.871,4.871,4.851,4.851,4.851,4.851,4.851,4.851,4.851,4.851,4.851,4.871,4.871,4.871,4.891,4.912,4.912,4.933,4.954,4.975,4.996,5.018,5.04,5.04,5.084,5.106,5.174,5.22,5.22,5.244,5.244,5.244,5.268,5.244,5.268,5.244,5.244,5.244,5.244,5.244,5.268,5.268,5.268,5.268,5.268,5.268,5.316,5.316,5.316,5.316,5.316,5.316,5.316,5.316,5.316,5.316,5.316,5.316,5.316,5.268,5.268,5.268,5.244,5.244,5.22,5.22,5.22,5.174,5.174,5.151,5.151,5.084,5.084,5.084,5.04,5.04,5.04,5.04,5.018,5.04,5.04,5.018,5.018,5.018,4.996,4.996,4.954,4.871,4.713,0,0,3.817,3.672,3.661,3.661,3.649,3.649,3.649,3.649,3.649,3.661,3.661,3.672,3.696,3.707,3.731,3.743,3.743,3.755,3.755,3.755,3.755,3.743,3.731,3.731,3.696,3.696,3.672,3.661,3.661,3.649,3.649,3.627,3.627,3.649,3.661,3.661,3.672,3.672,3.696,3.731,3.755,3.755,3.767,3.78,3.804,3.817,3.829,3.842,3.868,3.933,4.085,4.249,0,0,0,4.713,4.83,4.912,4.954,4.996,4.996,5.018,5.018,5.018,5.018,5.04,5.018,5.018,4.996,4.996,4.975,4.975,4.975,4.975,4.975,4.975,4.975,4.975,4.975,4.996,5.018,5.018,5.04,5.084,5.084,5.106,5.106,5.106,5.106,5.106,5.084,5.084,5.106,5.106,5.106,5.151,5.151,5.174,5.22,5.244,5.268,5.316,5.34,5.34,5.34,5.34,5.34,5.316,5.316,5.244,5.244,5.174,5.151,5.106,5.084,5.018,4.975,4.933,4.912,4.891,4.851,4.83,4.83,4.81,4.81,4.791,4.752,4.732,4.694,4.601,4.53,4.477,4.41,4.376,4.344,4.328,4.312,4.296,4.264,4.264,4.249,4.249,4.218,4.203,4.203,4.188,4.173,4.158,4.158,4.128,4.128,4.114,4.085,4.07,4.056,4.014,3.973,3.946,3.92,3.893,3.88,3.868,3.855,3.855,3.829,3.829,3.817,3.817,3.817,3.804,3.792,3.767,3.743,3.707,3.696,3.661,3.615,3.582,3.528,3.496,3.485,3.475,3.465,3.454,3.454,3.454,3.465,3.465,3.465,3.475,3.485,3.485,3.485,3.485,3.485,3.485,3.485,3.485,3.485,3.475,3.465,3.454,3.444,3.424,3.394,3.365,3.326,3.298,3.27,3.261,3.243,3.234,3.234,3.225,3.216,3.216,3.216,3.216,3.225,3.225,3.234,3.243,3.261,0,0,0,0,0,0,0,0,0,0
0,0,0,0,0,0,0,0,0,3.804,3.804,3.804,3.804,3.804,3.804,3.804,3.804,3.78,3.792,3.804,3.804,3.817,3.817,3.817,3.817,3.829,3.829,3.829,3.829,3.842,3.842,3.842,3.842,3.842,3.842,3.842,3.842,3.829,3.829,3.829,3.842,3.842,3.842,3.842,3.842,3.842,3.842,3.829,3.829,3.829,3.829,3.829,3.817,3.817,3.817,3.817,3.817,3.817,3.817,3.817,3.817,3.817,3.817,3.817,3.829,3.829,3.829,3.829,3.842,3.855,3.855,3.855,3.868,3.868,3.88,3.88,3.893,3.893,3.906,3.893,3.893,3.906,3.893,3.893,3.88,3.88,3.868,3.868,3.868,3.868,3.868,3.868,3.868,3.868,3.868,3.88,3.88,3.893,3.906,3.906,3.92,3.933,3.946,3.973,4.014,4.028,4.056,4.07,4.07,4.085,4.128,4.128,4.128,4.128,4.158,4.188,4.173,4.173,4.173,4.173,4.173,4.158,4.158,4.158,4.158,4.158,4.158,4.128,4.128,4.128,4.128,4.128,4.128,4.128,4.128,4.128,4.128,4.158,4.158,4.173,4.173,4.173,4.173,4.173,4.173,4.173,4.173,4.173,4.173,4.173,4.173,4.173,4.158,4.158,4.128,4.128,4.128,4.128,4.114,4.128,4.128,4.128,4.158,4.158,4.173,4.188,4.188,4.203,4.218,4.233,4.249,4.249,4.264,4.264,4.264,4.28,4.28,4.28,4.28,4.296,4.296,4.296,4.296,4.296,4.312,4.312,4.312,4.312,4.312,4.328,4.328,4.328,4.344,4.344,4.344,4.36,4.36,4.376,4.376,4.376,4.376,4.393,4.393,4.393,4.41,4.426,4.426,4.426,4.46,4.46,4.477,4.512,4.512,4.512,4.53,4.53,4.53,4.53,4.53,4.53,4.53,4.565,4.53,4.53,4.53,4.53,4.477,4.477,4.477,4.46,4.426,4.426,4.426,4.46,4.46,4.477,4.512,4.53,4.565,4.583,4.601,4.638,4.657,4.694,4.713,4.713,4.732,4.732,4.732,4.732,4.732,4.732,4.732,4.732,4.732,4.732,4.732,4.732,4.732,4.732,4.732,4.732,4.752,4.752,4.752,4.752,4.771,4.771,4.771,4.771,4.752,4.771,4.771,4.771,4.771,4.771,4.791,4.791,4.81,4.81,4.81,4.81,4.81,4.81,4.83,4.83,4.83,4.83,4.83,4.851,4.851,4.851,4.851,4.851,4.851,4.871,4.871,4.871,4.891,4.891,4.891,4.891,4.912,4.912,4.912,4.912,4.912,4.891,4.891,4.891,4.891,4.891,4.891,4.891,4.891,4.891,4.891,4.891,4.891,4.891,4.891,4.891,4.912,4.933,4.954,4.975,4.996,5.018,5.04,5.084,5.084,5.106,5.151,5.151,5.174,5.22,5.22,5.244,5.244,5.244,5.244,5.244,5.244,5.244,5.244,5.244,5.244,5.244,5.268,5.268,5.268,5.268,5.268,5.268,5.316,5.316,5.316,5.268,5.268,5.268,5.268,5.268,5.268,5.268,5.268,5.268,5.268,5.268,5.268,5.268,5.268,5.244,5.244,5.244,5.22,5.22,5.174,5.174,5.174,5.151,5.106,5.084,5.084,5.084,5.04,5.04,5.04,5.04,5.04,5.04,5.018,4.996,4.996,4.975,4.912,4.83,0,0,3.868,3.792,3.661,3.672,3.661,3.649,3.649,3.649,3.649,3.649,3.661,3.661,3.672,3.696,3.707,3.731,3.743,3.755,3.755,3.755,3.755,3.743,3.743,3.743,3.731,3.696,3.672,3.661,3.661,3.649,3.627,3.627,3.627,3.627,3.627,3.649,3.661,3.661,3.672,3.672,3.696,3.731,3.743,3.743,3.743,3.755,3.78,3.804,3.817,3.855,3.906,4.07,4.233,4.328,0,0,0,4.83,4.912,4.975,4.996,4.996,5.018,5.018,5.018,5.04,5.04,5.018,5.018,4.996,4.996,4.996,4.975,4.975,4.975,4.975,4.975,4.975,4.975,4.975,4.996,4.996,5.018,5.04,5.084,5.084,5.106,5.106,5.106,5.151,5.151,5.151,5.151,5.151,5.174,5.174,5.174,5.174,5.22,5.244,5.268,5.268,5.316,5.34,5.34,5.389,5.34,5.34,5.316,5.268,5.268,5.244,5.22,5.174,5.106,5.084,5.04,4.996,4.954,4.933,4.912,4.851,4.83,4.81,4.791,4.771,4.732,4.694,4.638,4.601,4.53,4.477,4.41,4.376,4.344,4.328,4.312,4.296,4.28,4.28,4.264,4.264,4.249,4.249,4.233,4.233,4.218,4.203,4.188,4.188,4.188,4.173,4.158,4.128,4.085,4.07,4.014,3.973,3.933,3.906,3.88,3.868,3.855,3.855,3.855,3.842,3.829,3.829,3.829,3.817,3.817,3.804,3.792,3.78,3.767,3.743,3.707,3.672,3.649,3.582,3.538,3.506,3.496,3.485,3.475,3.465,3.465,3.465,3.465,3.475,3.485,3.485,3.485,3.485,3.485,3.485,3.485,3.485,3.485,3.475,3.465,3.465,3.454,3.444,3.424,3.394,3.355,3.326,3.298,3.27,3.261,3.243,3.234,3.225,3.207,3.207,3.207,3.207,3.198,3.198,3.207,3.198,3.216,3.225,0,0,0,0,0,0,0,0,0,0
0,0,0,0,0,0,0,0,0,3.817,3.817,3.804,3.817,3.817,3.817,3.817,3.817,3.817,3.829,3.829,3.817,3.829,3.829,3.842,3.842,3.855,3.855,3.855,3.855,3.855,3.855,3.855,3.855,3.855,3.855,3.855,3.855,3.855,3.855,3.855,3.855,3.855,3.855,3.855,3.855,3.855,3.855,3.855,3.855,3.842,3.842,3.842,3.829,3.829,3.829,3.829,3.829,3.829,3.829,3.829,3.829,3.829,3.829,3.829,3.829,3.829,3.842,3.855,3.855,3.855,3.868,3.868,3.88,3.893,3.893,3.906,3.92,3.92,3.92,3.92,3.92,3.906,3.906,3.893,3.893,3.88,3.88,3.88,3.868,3.868,3.868,3.868,3.868,3.868,3.88,3.893,3.906,3.92,3.933,3.933,3.946,3.973,3.987,4.014,4.028,4.056,4.07,4.085,4.114,4.128,4.188,4.188,4.188,4.188,4.203,4.203,4.203,4.203,4.188,4.188,4.188,4.188,4.188,4.188,4.173,4.173,4.173,4.173,4.173,4.173,4.173,4.173,4.173,4.173,4.173,4.173,4.173,4.173,4.173,4.173,4.173,4.173,4.173,4.173,4.173,4.173,4.173,4.173,4.158,4.158,4.173,4.173,4.158,4.158,4.128,4.128,4.128,4.158,4.158,4.158,4.158,4.158,4.173,4.188,4.203,4.203,4.218,4.233,4.249,4.264,4.264,4.264,4.28,4.28,4.296,4.296,4.296,4.312,4.312,4.312,4.312,4.312,4.312,4.312,4.312,4.312,4.328,4.328,4.328,4.328,4.344,4.36,4.36,4.376,4.376,4.393,4.393,4.393,4.393,4.41,4.393,4.41,4.41,4.41,4.426,4.426,4.46,4.46,4.46,4.477,4.512,4.53,4.53,4.565,4.565,4.565,4.583,4.583,4.583,4.583,4.583,4.601,4.601,4.583,4.583,4.583,4.53,4.53,4.53,4.512,4.512,4.477,4.477,4.512,4.512,4.53,4.565,4.583,4.601,4.638,4.657,4.694,4.713,4.732,4.752,4.752,4.771,4.771,4.771,4.771,4.771,4.771,4.771,4.771,4.771,4.771,4.771,4.771,4.771,4.771,4.771,4.771,4.771,4.771,4.771,4.771,4.791,4.791,4.791,4.771,4.771,4.771,4.771,4.791,4.791,4.791,4.81,4.81,4.81,4.81,4.81,4.83,4.83,4.83,4.851,4.851,4.851,4.851,4.851,4.871,4.871,4.891,4.891,4.891,4.891,4.891,4.891,4.912,4.912,4.912,4.912,4.912,4.933,4.933,4.933,4.933,4.912,4.912,4.912,4.912,4.912,4.912,4.891,4.891,4.891,4.891,4.891,4.891,4.912,4.912,4.912,4.912,4.954,4.954,4.996,5.018,5.018,5.04,5.084,5.106,5.106,5.151,5.174,5.174,5.174,5.22,5.22,5.22,5.22,5.22,5.22,5.22,5.22,5.244,5.244,5.244,5.244,5.244,5.268,5.316,5.316,5.316,5.316,5.316,5.316,5.316,5.316,5.316,5.268,5.268,5.268,5.268,5.268,5.268,5.268,5.316,5.316,5.316,5.316,5.316,5.316,5.268,5.268,5.268,5.244,5.244,5.22,5.22,5.174,5.174,5.151,5.106,5.106,5.084,5.04,5.04,5.04,5.04,5.04,5.018,5.018,4.996,4.996,4.975,4.891,4.791,0,0,3.829,3.755,3.672,3.672,3.661,3.649,3.649,3.649,3.649,3.649,3.661,3.661,3.672,3.696,3.707,3.731,3.743,3.755,3.755,3.755,3.755,3.743,3.743,3.731,3.707,3.696,3.672,3.661,3.649,3.627,3.615,3.615,3.615,3.615,3.615,3.627,3.649,3.649,3.661,3.672,3.696,3.707,3.731,3.707,3.707,3.731,3.767,3.792,3.817,3.855,3.92,4.085,4.249,0,0,0,4.732,4.83,4.912,4.975,4.996,5.018,5.018,5.04,5.04,5.04,5.04,5.04,5.018,5.018,4.996,4.996,4.975,4.975,4.975,4.975,4.975,4.954,4.954,4.975,4.996,4.996,5.018,5.04,5.084,5.084,5.151,5.151,5.174,5.174,5.174,5.22,5.22,5.22,5.22,5.22,5.22,5.22,5.244,5.268,5.268,5.268,5.316,5.316,5.316,5.34,5.34,5.34,5.34,5.316,5.268,5.244,5.22,5.174,5.151,5.106,5.084,5.018,4.975,4.933,4.912,4.851,4.83,4.81,4.752,4.713,4.657,4.601,4.565,4.53,4.46,4.41,4.376,4.344,4.328,4.312,4.312,4.296,4.28,4.28,4.264,4.264,4.264,4.264,4.249,4.249,4.249,4.233,4.218,4.233,4.218,4.203,4.188,4.158,4.114,4.056,4.014,3.973,3.92,3.893,3.868,3.868,3.855,3.855,3.855,3.855,3.855,3.842,3.842,3.829,3.829,3.829,3.817,3.817,3.804,3.804,3.78,3.755,3.707,3.661,3.615,3.582,3.538,3.517,3.496,3.496,3.496,3.485,3.485,3.485,3.485,3.485,3.485,3.485,3.485,3.485,3.485,3.485,3.485,3.475,3.465,3.465,3.454,3.444,3.424,3.394,3.365,3.336,3.317,3.288,3.261,3.234,3.225,3.216,3.198,3.189,3.189,3.189,3.189,3.189,3.189,3.189,3.189,3.207,0,0,0,0,0,0,0,0,0,0
0,0,0,0,0,0,0,0,0,3.817,3.817,3.817,3.817,3.817,3.817,3.829,3.829,3.829,3.842,3.855,3.855,3.868,3.868,3.868,3.868,3.868,3.868,3.868,3.868,3.855,3.868,3.868,3.868,3.855,3.855,3.855,3.855,3.855,3.855,3.855,3.868,3.868,3.868,3.868,3.868,3.868,3.868,3.868,3.868,3.868,3.855,3.855,3.855,3.855,3.842,3.829,3.829,3.829,3.829,3.829,3.829,3.829,3.842,3.842,3.855,3.855,3.868,3.868,3.868,3.868,3.893,3.906,3.906,3.92,3.92,3.933,3.933,3.946,3.946,3.933,3.933,3.92,3.92,3.906,3.893,3.893,3.88,3.88,3.88,3.88,3.88,3.88,3.88,3.893,3.906,3.92,3.92,3.933,3.973,3.987,3.987,4.014,4.028,4.056,4.114,4.128,4.158,4.173,4.173,4.188,4.203,4.203,4.203,4.203,4.218,4.218,4.218,4.218,4.203,4.203,4.203,4.203,4.203,4.203,4.203,4.203,4.203,4.218,4.218,4.218,4.218,4.218,4.218,4.203,4.203,4.203,4.203,4.203,4.203,4.203,4.188,4.188,4.173,4.173,4.173,4.173,4.158,4.158,4.158,4.158,4.158,4.158,4.158,4.158,4.158,4.158,4.158,4.158,4.173,4.173,4.188,4.188,4.203,4.203,4.218,4.233,4.249,4.249,4.264,4.28,4.28,4.296,4.312,4.312,4.312,4.312,4.312,4.312,4.328,4.328,4.328,4.328,4.312,4.328,4.328,4.328,4.328,4.328,4.344,4.36,4.376,4.393,4.393,4.393,4.41,4.41,4.41,4.41,4.41,4.41,4.41,4.426,4.426,4.426,4.426,4.46,4.46,4.477,4.512,4.53,4.53,4.583,4.583,4.601,4.601,4.601,4.638,4.638,4.638,4.638,4.638,4.657,4.657,4.638,4.638,4.601,4.601,4.583,4.583,4.565,4.565,4.565,4.565,4.565,4.583,4.583,4.601,4.638,4.657,4.694,4.713,4.732,4.752,4.771,4.771,4.791,4.791,4.81,4.81,4.81,4.81,4.81,4.81,4.81,4.81,4.81,4.81,4.791,4.791,4.791,4.791,4.791,4.791,4.791,4.791,4.791,4.791,4.81,4.791,4.791,4.791,4.791,4.791,4.81,4.81,4.81,4.81,4.83,4.83,4.83,4.83,4.83,4.851,4.851,4.851,4.871,4.871,4.891,4.912,4.933,4.933,4.954,4.954,4.954,4.954,4.975,4.975,4.996,4.996,4.996,4.996,4.996,4.996,4.996,4.996,4.996,4.975,4.954,4.954,4.933,4.933,4.933,4.912,4.912,4.912,4.912,4.912,4.933,4.933,4.954,4.954,4.975,4.996,5.018,5.04,5.084,5.084,5.106,5.106,5.106,5.151,5.151,5.151,5.174,5.174,5.174,5.174,5.174,5.174,5.174,5.174,5.174,5.174,5.174,5.22,5.22,5.244,5.244,5.268,5.268,5.316,5.316,5.316,5.316,5.316,5.316,5.316,5.316,5.316,5.268,5.268,5.316,5.316,5.316,5.316,5.316,5.316,5.316,5.316,5.316,5.316,5.316,5.316,5.268,5.268,5.268,5.244,5.244,5.22,5.174,5.174,5.151,5.106,5.084,5.084,5.04,5.04,5.04,5.018,5.018,4.996,4.996,4.975,4.933,4.851,4.657,0,0,3.817,3.743,3.672,3.661,3.661,3.649,3.649,3.649,3.649,3.649,3.661,3.661,3.672,3.696,3.707,3.731,3.731,3.743,3.755,3.755,3.755,3.743,3.743,3.731,3.707,3.672,3.672,3.649,3.627,3.615,3.615,3.593,3.593,3.615,3.615,3.627,3.627,3.649,3.649,3.661,3.672,3.696,3.707,3.707,3.731,3.755,3.792,3.817,3.829,3.868,3.973,4.158,4.28,0,4.376,4.583,4.752,4.851,4.912,4.975,4.996,5.018,5.04,5.04,5.04,5.084,5.084,5.04,5.04,5.018,5.018,4.996,4.996,4.975,4.975,4.975,4.975,4.975,4.975,4.975,4.996,4.996,5.04,5.084,5.084,5.151,5.151,5.174,5.22,5.244,5.244,5.244,5.244,5.268,5.268,5.268,5.268,5.268,5.268,5.268,5.316,5.316,5.316,5.316,5.34,5.34,5.34,5.34,5.34,5.268,5.268,5.244,5.22,5.174,5.174,5.106,5.084,5.018,4.996,4.954,4.912,4.891,4.81,4.791,4.713,4.657,4.583,4.53,4.477,4.426,4.393,4.36,4.344,4.328,4.312,4.312,4.296,4.28,4.28,4.28,4.264,4.264,4.264,4.264,4.264,4.264,4.249,4.249,4.249,4.249,4.249,4.233,4.203,4.173,4.114,4.07,4.014,3.946,3.92,3.88,3.868,3.855,3.855,3.855,3.855,3.855,3.855,3.855,3.855,3.855,3.855,3.855,3.842,3.829,3.829,3.829,3.817,3.804,3.78,3.743,3.696,3.649,3.593,3.582,3.549,3.538,3.528,3.517,3.517,3.517,3.506,3.496,3.496,3.496,3.485,3.485,3.475,3.475,3.475,3.465,3.465,3.454,3.444,3.444,3.424,3.404,3.355,3.326,3.298,3.27,3.243,3.234,3.216,3.207,3.189,3.189,3.181,3.181,3.181,3.181,3.172,3.172,3.172,3.181,0,0,0,0,0,0,0,0,0,0
