3.829,3.829,3.842,3.842,3.842,3.855,3.855,3.855,0.0,0.0,0.0,0.0,0.0,0.0,0.0,0.0,0.0,0.0,0.0,0.0,0.0,0.0,0.0,0.0,0.0,0.0,0.0,0.0,0.0,0.0,0.537,0.534,0.0,0.0,0.53,0.529,0.53,0.53,0.531,0.532,0.533,0.535,0.536,0.5365,0.538,0.539,0.539,0.54,0.54,0.541,0.541,0.541,0.541,0.54,0.54,0.5415,0.541,0.541,0.54,0.54,0.54,0.541,0.541,0.54,0.54,0.54,0.54,0.54,0.539,0.539,0.539,0.539,0.539,0.539,0.539,0.54,0.541,0.543,0.545,0.547,0.547,0.548,0.548,0.548,0.549,0.549,0.548,0.546,0.545,0.544,0.541,0.541,0.54,0.539,0.539,0.538,0.537,0.535,0.534,0.533,0.532,0.532,0.5315000000000001,0.531,0.531,0.531,0.531,0.531,0.531,0.53,0.529,0.529,0.527,0.526,0.525,0.524,0.523,0.523,0.522,0.522,0.521,0.521,0.521,0.521,0.521,0.5207499999999999,0.521,0.522,0.5225,0.523,0.523,0.523,0.523,0.523,0.0,0.0,0.0,0.0,0.0,0.5175000000000001,0.5162500000000001,0.515,0.515,0.514,0.514,0.514,0.515,0.514,0.5145,0.514,0.519,0.5205,0.522,0.522,0.522,0.0,0.0,0.518,0.518,0.5165,0.515,0.513,0.511,0.51,0.51,0.511,0.512,0.0,0.0,0.0,0.514,0.514,0.512,0.509,0.509,0.507,0.502,0.502,0.499,0.495,0.495,0.496,0.495,0.495,0.496,0.4965,0.497,0.498,0.5,0.501,0.502,0.502,0.503,0.504,0.504,0.504,0.504,0.503,0.503,0.502,0.502,0.501,0.502,0.501,0.500375,0.501,0.5,0.5,0.499,0.5,0.5,0.5,0.5,0.499,0.499,0.499,0.498,0.497,0.496,0.496,0.4955,0.495,0.495,0.496,0.495,0.495,0.495,0.496,0.496,0.495,0.495,0.495,0.495,0.495,0.495,0.494,0.493,0.492,0.491,0.492,0.492,0.491,0.49,0.489,0.489,0.488,0.486,0.483,0.482,0.48,0.0,0.0,0.0,0.48,0.4805,0.481,0.482,0.482,0.482,0.482,0.482,0.48,0.48,0.479,0.4785,0.47675,0.475,0.0,0.0,0.475,0.476,0.476,0.476,0.476,0.0,0.0,0.0,0.0,0.0,0.0,0.0,0.0,0.0,0.0,0.0,0.0,0.0,0.0,0.0,0.0,0.0,0.0,0.0,0.0,0.0,0.0,0.0,0.0,0.0,0.0,0.362,0.36224999999999996,0.362,0.362,0.362,0.362,0.362,0.362,0.36,0.36,0.359,0.359,0.359,0.358,0.358,0.358,0.358,0.358,0.358,0.358,0.358,0.358,0.358,0.358,0.357,0.357,0.357,0.357,0.356,0.356,0.356,0.356,0.356,0.356,0.356,0.356,0.356,0.356,0.356,0.356,0.356,0.356,0.356,0.357,0.357,0.357,0.357,0.357,0.357,0.357,0.357,0.357,0.357,0.357,0.357,0.357,0.357,0.357,0.357,0.357,0.357,0.357,0.357,0.358,0.358,0.358,0.358,0.358,0.358,0.358,0.358,0.358,0.358,0.358,0.358,0.357,0.357,0.357,0.357,0.357,0.357,0.356,0.356,0.355,0.355,0.355,0.355,0.355,0.354,0.354,0.354,0.354,0.353,0.353,0.353,0.352,0.352,0.352,0.352,0.352,0.352,0.352,0.352,0.352,0.352,0.352,0.352,0.352,0.352,0.352,0.3525,0.353,0.354,0.355,0.355,0.356,0.357,0.358,0.358,0.359,0.359,0.359,0.3595,0.36,0.36,0.36,0.36,0.36,0.36,0.3605,0.361,0.361,0.361,0.361,0.361,0.362,0.362,0.362,0.362,0.362,0.362,0.363,0.363,0.364,0.364,0.365,0.365,0.365,0.366,0.366,0.366,0.367,0.367,0.368,0.368,0.369,0.369,0.369,0.37,0.3705,0.371,0.371,0.372,0.373,0.373,0.373,0.374,0.375,0.375,0.375,0.375,0.375,0.374,0.374,0.373,0.373,0.373,0.373,0.373,0.373,0.373,0.373,0.373,0.373,0.373,0.3735,0.374,0.374,0.375,0.375,0.376,0.376,0.0,0.0,0.0,0.0,0.0,0.0,0.0,0.0,0.0,0.0,0.0,0.0,0.0,0.0,0.411,0.411,0.41,0.41,0.41,0.0,0.0,0.0,0.0,0.0,0.0,0.406,0.0,0.0,0.0,0.0,0.0,0.0,0.0,0.0,0.0,0.0,0.0,0.0,0.0,0.0,0.0,0.0,0.0,0.0,0.0,0.0,0.0,0.0,0.0,0.0
3.817,3.829,3.842,3.842,3.855,3.855,3.855,0.0,0.0,0.0,0.0,0.0,0.0,0.0,0.0,0.0,0.0,0.0,0.0,0.0,0.0,0.0,0.0,0.0,0.0,0.0,0.0,0.0,0.0,0.532,0.5325,0.5305,0.0,0.0,0.5275000000000001,0.527,0.528,0.528,0.53,0.531,0.531,0.532,0.533,0.534,0.536,0.536,0.537,0.538,0.538,0.53825,0.538,0.538,0.538,0.538,0.538,0.539,0.538,0.538,0.537,0.538,0.538,0.538,0.538,0.537,0.536,0.535,0.534,0.534,0.533,0.533,0.533,0.533,0.534,0.535,0.537,0.538,0.539,0.54,0.542,0.544,0.546,0.547,0.547,0.547,0.547,0.547,0.546,0.544,0.5425,0.541,0.539,0.538,0.536,0.535,0.534,0.5325,0.531,0.531,0.53,0.53,0.528,0.528,0.527,0.528,0.528,0.529,0.5289999999999999,0.53,0.53,0.528,0.527,0.526,0.525,0.524,0.523,0.522,0.519,0.518,0.517,0.517,0.516,0.516,0.516,0.516,0.516,0.517,0.517,0.517,0.518375,0.518,0.5195000000000001,0.519,0.5185,0.517,0.0,0.0,0.0,0.0,0.0,0.511,0.5120625000000001,0.512,0.512,0.512,0.513,0.512,0.511,0.511,0.511,0.511,0.5125,0.51225,0.0,0.0,0.0,0.0,0.0,0.0,0.5105,0.5097499999999999,0.0,0.0,0.0,0.0,0.507,0.0,0.0,0.0,0.0,0.0,0.0,0.506,0.0,0.0,0.0,0.502,0.5,0.498,0.495,0.495,0.495,0.495,0.495,0.495,0.495,0.0,0.0,0.496,0.497,0.497,0.499,0.499,0.5,0.5,0.501,0.501,0.5,0.5,0.497,0.496,0.495,0.495,0.495,0.494,0.493,0.0,0.0,0.494,0.495,0.494,0.494,0.494,0.494,0.493,0.493,0.493,0.492,0.492,0.4915,0.492,0.491375,0.491,0.491,0.492,0.492,0.492,0.492,0.493,0.491,0.491,0.489,0.489,0.488,0.488,0.487,0.487,0.487,0.486,0.487,0.487,0.487,0.487,0.487,0.487,0.4855,0.482875,0.48,0.478,0.476,0.47675,0.476,0.477,0.477,0.477,0.477,0.478,0.479,0.48,0.48,0.48,0.478,0.476,0.476,0.477,0.476,0.475,0.471,0.47,0.471,0.47175,0.472,0.473,0.472,0.472,0.473,0.473,0.471,0.47,0.469,0.467,0.465,0.0,0.0,0.0,0.0,0.0,0.0,0.0,0.0,0.0,0.0,0.0,0.0,0.0,0.0,0.0,0.0,0.0,0.0,0.0,0.0,0.363,0.363,0.363,0.363,0.362,0.362,0.362,0.36,0.36,0.36,0.359,0.359,0.359,0.359,0.359,0.359,0.359,0.358,0.358,0.358,0.358,0.358,0.358,0.358,0.358,0.358,0.358,0.358,0.357,0.357,0.357,0.357,0.357,0.357,0.357,0.357,0.357,0.357,0.357,0.357,0.357,0.357,0.357,0.357,0.357,0.357,0.357,0.357,0.357,0.357,0.357,0.357,0.357,0.357,0.357,0.357,0.357,0.357,0.357,0.357,0.358,0.358,0.358,0.358,0.358,0.358,0.358,0.358,0.358,0.358,0.358,0.358,0.358,0.358,0.358,0.358,0.358,0.357,0.357,0.357,0.357,0.356,0.356,0.355,0.355,0.355,0.355,0.355,0.355,0.354,0.354,0.354,0.353,0.353,0.353,0.352,0.352,0.352,0.352,0.352,0.352,0.352,0.352,0.352,0.352,0.352,0.352,0.352,0.352,0.352625,0.353,0.354,0.355,0.355,0.356,0.357,0.358,0.358,0.359,0.359,0.359,0.359625,0.36,0.36,0.36,0.36,0.36,0.3605,0.361,0.361,0.361,0.361,0.361,0.362,0.362,0.362,0.362,0.362,0.362,0.362,0.363,0.363,0.364,0.364,0.365,0.365,0.366,0.366,0.366,0.366,0.367,0.368,0.368,0.369,0.369,0.369,0.369,0.37,0.3705,0.371,0.372,0.373,0.373,0.373,0.374,0.375,0.375,0.376,0.376,0.376,0.375,0.375,0.375,0.374,0.374,0.373,0.373,0.373,0.373,0.373,0.373,0.373,0.373,0.373,0.373625,0.374,0.374,0.375,0.375,0.376,0.376,0.0,0.0,0.0,0.0,0.0,0.0,0.0,0.0,0.0,0.0,0.411,0.411,0.411,0.411,0.41,0.41,0.409,0.409,0.409,0.408,0.408,0.407,0.407,0.407,0.407,0.407,0.0,0.0,0.0,0.0,0.0,0.0,0.0,0.0,0.0,0.0,0.0,0.0,0.0,0.0,0.0,0.0,0.0,0.0,0.0,0.0,0.0,0.0,0.0,0.0
3.817,3.829,3.842,3.842,0.0,0.0,0.0,0.0,0.0,0.0,0.0,0.0,0.0,0.0,0.0,0.0,0.0,0.0,0.0,0.0,0.0,0.0,0.0,0.0,0.0,0.0,0.0,0.532,0.531,0.53,0.528,0.527,0.526,0.525,0.525,0.525,0.525,0.526,0.527,0.528,0.53,0.531,0.531,0.532,0.533,0.533,0.534,0.535,0.536,0.536,0.535,0.535,0.534,0.535,0.535,0.535,0.534,0.534,0.533,0.533,0.533,0.533,0.532,0.531,0.531,0.53,0.529,0.529,0.528,0.528,0.529,0.53,0.531,0.531,0.532,0.532,0.533,0.534,0.0,0.0,0.535,0.542,0.545,0.547,0.547,0.546,0.544,0.5355000000000001,0.5357500000000001,0.536,0.536,0.533,0.532,0.531,0.53,0.0,0.0,0.524,0.523,0.524,0.524,0.524,0.524,0.524,0.525,0.526,0.526,0.528,0.529,0.526,0.524,0.52,0.519,0.517,0.516,0.516,0.515,0.515,0.514,0.51225,0.511,0.511,0.512,0.513,0.514,0.514,0.514,0.515,0.516,0.516,0.516,0.515,0.514,0.511,0.51,0.509,0.509,0.509,0.509,0.509,0.509,0.51,0.51,0.51,0.511,0.511,0.51,0.509,0.509,0.508,0.506,0.504,0.0,0.0,0.0,0.0,0.0,0.0,0.503,0.503,0.0,0.0,0.0,0.0,0.5035000000000001,0.0,0.0,0.0,0.0,0.0,0.0,0.0,0.0,0.0,0.0,0.497,0.496,0.495,0.495,0.494,0.494,0.494,0.494,0.493,0.4925,0.0,0.0,0.495,0.495,0.496,0.496,0.496,0.497,0.497,0.497,0.496,0.495,0.495,0.493,0.492,0.4915,0.491125,0.49,0.489,0.4895,0.0,0.0,0.0,0.49,0.488,0.488,0.488,0.0,0.4875,0.487,0.487,0.487,0.486,0.487,0.488,0.487,0.488,0.488,0.488,0.488,0.488,0.488,0.487,0.487,0.487,0.487,0.486,0.484,0.483,0.483,0.482,0.4825,0.482,0.482,0.482,0.48275,0.483,0.483,0.482,0.482,0.478,0.477,0.476,0.475,0.475,0.473,0.474,0.475,0.475,0.474,0.475,0.475,0.476,0.476,0.476,0.474,0.473,0.472,0.47,0.47,0.469,0.469,0.468,0.468,0.469,0.469,0.469,0.469,0.469,0.469,0.469,0.468,0.466,0.464,0.463,0.463,0.0,0.0,0.0,0.0,0.0,0.455,0.455,0.455,0.455,0.455,0.0,0.0,0.0,0.0,0.0,0.0,0.0,0.0,0.0,0.0,0.364,0.364,0.364,0.363,0.363,0.362,0.362,0.362,0.361,0.36,0.359,0.359,0.359,0.359,0.359,0.359,0.359,0.359,0.359,0.359,0.359,0.359,0.359,0.358,0.358,0.358,0.358,0.358,0.358,0.358,0.358,0.358,0.358,0.358,0.358,0.357,0.357,0.358,0.357,0.357,0.357,0.357,0.357,0.35750000000000004,0.358,0.358,0.358,0.358,0.358,0.358,0.358,0.358,0.358,0.358,0.358,0.358,0.358,0.358,0.358,0.358,0.358,0.358,0.358,0.358,0.358,0.358,0.358,0.358,0.358,0.358,0.358,0.358,0.358,0.358,0.358,0.358,0.358,0.358,0.357,0.357,0.357,0.357,0.356,0.356,0.355,0.355,0.355,0.355,0.355,0.355,0.354,0.354,0.354,0.354,0.353,0.353,0.352,0.352,0.352,0.352,0.352,0.352,0.352,0.352,0.352,0.352,0.352,0.352,0.3525,0.353,0.353,0.354,0.355,0.355,0.356,0.357,0.358,0.358,0.359,0.359,0.3595,0.36,0.36,0.36,0.36,0.36,0.3605,0.361,0.361,0.361,0.361,0.361,0.361,0.362,0.362,0.362,0.362,0.362,0.362,0.363,0.363,0.364,0.364,0.365,0.365,0.365,0.366,0.366,0.366,0.367,0.367,0.368,0.369,0.369,0.369,0.369,0.36950000000000005,0.37,0.3705,0.371,0.372,0.373,0.373,0.373,0.374,0.375,0.376,0.376,0.376,0.376,0.376,0.376,0.375,0.375,0.374,0.374,0.373,0.373,0.373,0.373,0.373,0.373,0.373,0.3735,0.374,0.374,0.375,0.375,0.37549999999999994,0.376,0.0,0.0,0.0,0.0,0.0,0.0,0.0,0.0,0.0,0.0,0.0,0.41,0.41,0.41,0.41,0.41,0.41,0.409,0.41,0.409,0.409,0.409,0.408,0.408,0.408,0.408,0.407,0.0,0.0,0.0,0.0,0.0,0.0,0.0,0.0,0.0,0.0,0.0,0.0,0.0,0.0,0.0,0.0,0.0,0.0,0.0,0.0,0.0,0.0,0.0,0.0
3.817,3.829,0.0,0.0,0.0,0.0,0.0,0.0,0.0,0.0,0.0,0.0,0.0,0.0,0.0,0.0,0.0,0.0,0.0,0.0,0.0,0.0,0.0,0.0,0.0,0.0,0.531,0.53,0.529,0.527,0.525,0.524,0.524,0.524,0.524,0.523,0.524,0.524,0.525,0.526,0.528,0.529,0.53,0.531,0.531,0.531,0.532,0.532,0.532,0.532,0.532,0.532,0.531,0.531,0.531,0.531,0.531,0.531,0.531,0.531,0.53,0.528,0.527,0.527,0.526,0.5255000000000001,0.525,0.525,0.525,0.525,0.525,0.527,0.527,0.528,0.529,0.529,0.53,0.531,0.0,0.0,0.523,0.0,0.0,0.0,0.531,0.529,0.527,0.527,0.5269375000000001,0.527,0.524,0.524,0.523,0.5235000000000001,0.5225,0.0,0.0,0.517,0.519,0.52,0.5205,0.522,0.521,0.5195000000000001,0.52,0.5215000000000001,0.523,0.525,0.0,0.514,0.514,0.514,0.514,0.512,0.51,0.509,0.509,0.508,0.508,0.507,0.507,0.507,0.509,0.509,0.509,0.509,0.509,0.51,0.51,0.51,0.509,0.508,0.507,0.507,0.507,0.507,0.507,0.508,0.505,0.508,0.507,0.509,0.509,0.51,0.509,0.509,0.509,0.508,0.508,0.501,0.497,0.496,0.0,0.0,0.492,0.493,0.494,0.495,0.495,0.496,0.0,0.0,0.501,0.5,0.5,0.499,0.0,0.0,0.0,0.0,0.0,0.0,0.495,0.495,0.495,0.495,0.495,0.495,0.493,0.492,0.492,0.491,0.491,0.491,0.49,0.49,0.49,0.491,0.491,0.492,0.493,0.493,0.493,0.493,0.4925,0.0,0.491,0.49,0.489,0.488,0.488,0.488,0.487,0.486,0.486,0.485,0.485,0.485,0.485,0.483,0.483,0.0,0.0,0.482,0.48149999999999993,0.481,0.481,0.481,0.482,0.482,0.482,0.483,0.0,0.0,0.484,0.484,0.484,0.483,0.482,0.482,0.482,0.482,0.479,0.479,0.478,0.47850000000000004,0.479,0.479,0.479,0.479,0.479,0.0,0.478,0.476,0.476,0.475,0.473,0.472,0.471,0.47,0.0,0.0,0.0,0.0,0.0,0.0,0.47,0.47,0.47,0.0,0.0,0.0,0.0,0.467,0.466,0.0,0.0,0.464,0.465,0.465,0.0,0.0,0.465,0.465,0.465,0.0,0.4655,0.4645,0.46275,0.461,0.459,0.458,0.457,0.456,0.455,0.454,0.454,0.453,0.453,0.452,0.452,0.451,0.449,0.0,0.0,0.0,0.0,0.0,0.0,0.0,0.0,0.365,0.365,0.365,0.364,0.363,0.363,0.362,0.362,0.361,0.36,0.36,0.359,0.359,0.359,0.359,0.359,0.359,0.359,0.359,0.359,0.359,0.359,0.359,0.359,0.359,0.359,0.359,0.359,0.359,0.358,0.358,0.358,0.358,0.358,0.358,0.358,0.358,0.358,0.358,0.358,0.358,0.358,0.358,0.358,0.358,0.358,0.358,0.358,0.358,0.358,0.358,0.358,0.358,0.358,0.358,0.358,0.358,0.358,0.358,0.358,0.358,0.358,0.358,0.358,0.358,0.358,0.358,0.358,0.358,0.358,0.358,0.358,0.358,0.358,0.358,0.358,0.358,0.358,0.358,0.357,0.357,0.357,0.357,0.356,0.356,0.356,0.355,0.355,0.355,0.355,0.355,0.355,0.354,0.354,0.353,0.353,0.353,0.352,0.352,0.352,0.352,0.352,0.352,0.352,0.352,0.352,0.352,0.352,0.352625,0.353,0.354,0.355,0.355,0.355,0.356,0.358,0.358,0.359,0.359,0.359,0.3595,0.36,0.36,0.36,0.361,0.361,0.361,0.361,0.361,0.361,0.361,0.361,0.362,0.362,0.362,0.362,0.362,0.362,0.362,0.363,0.364,0.364,0.365,0.365,0.365,0.366,0.366,0.366,0.367,0.367,0.368,0.368,0.369,0.369,0.369,0.3695,0.37,0.0,0.37075,0.372,0.373,0.374,0.374,0.375,0.376,0.377,0.377,0.377,0.377,0.377,0.377,0.377,0.376,0.3755,0.375,0.374,0.374,0.373,0.373,0.373,0.373,0.373,0.373,0.373625,0.374,0.375,0.375,0.376,0.376,0.376,0.0,0.0,0.0,0.0,0.0,0.0,0.0,0.0,0.0,0.0,0.408,0.409,0.40924999999999995,0.41,0.41,0.41,0.409,0.409,0.409,0.409,0.409,0.409,0.408,0.408,0.408,0.408,0.0,0.0,0.0,0.0,0.0,0.0,0.0,0.0,0.0,0.0,0.0,0.0,0.0,0.0,0.0,0.0,0.0,0.0,0.0,0.0,0.0,0.0,0.0,0.0,0.0
3.817,0.0,0.0,0.0,0.0,0.0,0.0,0.0,0.0,0.0,0.0,0.0,0.0,0.0,0.0,0.0,0.0,0.0,0.0,0.0,0.0,0.0,0.0,0.0,0.0,0.531,0.53,0.528,0.5265,0.5251250000000001,0.524,0.523,0.523,0.523,0.522,0.522,0.522,0.523,0.523,0.5235000000000001,0.524,0.524,0.525,0.525,0.5265000000000001,0.527,0.529,0.529,0.53,0.529,0.529,0.529,0.528,0.528,0.525,0.525,0.524,0.524,0.524,0.524,0.523,0.523,0.523,0.523,0.523,0.521625,0.522,0.522,0.522,0.522,0.522,0.522,0.523,0.523,0.524,0.524,0.524,0.524,0.525,0.518,0.511,0.0,0.0,0.0,0.515,0.0,0.0,0.0,0.518,0.519,0.519,0.518,0.516,0.516,0.515,0.514,0.514,0.515,0.51475,0.516,0.516,0.516,0.516,0.515,0.515,0.517,0.5095000000000001,0.5105,0.50625,0.502,0.506,0.508,0.506,0.504,0.503,0.503,0.503,0.502,0.502,0.502,0.502,0.502,0.503,0.503,0.503,0.503,0.504,0.504,0.504,0.504,0.503,0.502,0.502,0.501,0.501,0.501,0.501,0.501,0.5,0.499,0.5,0.501,0.503,0.505,0.504,0.504,0.501,0.5,0.497,0.495,0.49,0.488,0.4875,0.487,0.487,0.488,0.489,0.49,0.492,0.49325,0.494,0.495,0.497,0.496,0.496,0.495,0.495,0.495,0.494,0.493,0.493,0.493,0.492,0.492,0.491,0.491,0.491,0.491,0.49,0.489,0.489,0.489,0.488,0.488,0.488,0.487,0.487,0.487,0.488,0.488,0.488,0.488,0.48775,0.488,0.488,0.4875,0.487,0.48575,0.484,0.484,0.483,0.4845,0.484,0.483,0.482,0.482,0.482,0.482,0.482,0.481,0.48,0.0,0.0,0.477,0.476,0.476,0.477,0.478,0.478,0.47875,0.479,0.479,0.0,0.0,0.481,0.481,0.481,0.478,0.477,0.477,0.477,0.476,0.0,0.4745,0.474375,0.475,0.475,0.475,0.474,0.474,0.0,0.0,0.473,0.471,0.47,0.469,0.469,0.468,0.468,0.468,0.0,0.0,0.0,0.0,0.0,0.0,0.466,0.46599999999999997,0.46599999999999997,0.0,0.0,0.0,0.0,0.463,0.463,0.0,0.0,0.463,0.463,0.0,0.0,0.0,0.4635,0.0,0.0,0.0,0.463,0.463,0.45987500000000003,0.45871875,0.457,0.456,0.455,0.453,0.453,0.453,0.45275,0.452,0.452,0.452,0.45,0.449,0.447,0.0,0.0,0.0,0.0,0.0,0.0,0.0,0.0,0.0,0.0,0.365,0.365,0.364,0.363,0.362,0.362,0.361,0.36049999999999993,0.36,0.36,0.36,0.36,0.36,0.36,0.36,0.36,0.36,0.36,0.36,0.36,0.359,0.36,0.359,0.359,0.359,0.359,0.359,0.359,0.359,0.359,0.359,0.359,0.358,0.358,0.358,0.358,0.358,0.358,0.358,0.358,0.358,0.358,0.358,0.358,0.358,0.358,0.358,0.358,0.358,0.358,0.358,0.358,0.358,0.358,0.358,0.358,0.358,0.358,0.358,0.358,0.358,0.358,0.358,0.358,0.358,0.358,0.358,0.358,0.358,0.358,0.358,0.358,0.358,0.358,0.358,0.358,0.358,0.358,0.358,0.357,0.357,0.357,0.357,0.356,0.356,0.356,0.355,0.355,0.355,0.355,0.355,0.354,0.354,0.354,0.353,0.352,0.352,0.352,0.352,0.352,0.352,0.352,0.352,0.352,0.3525,0.353,0.353,0.354,0.355,0.355,0.355,0.356,0.357,0.358,0.358,0.359,0.359,0.359,0.359625,0.36,0.36,0.361,0.361,0.361,0.361,0.361,0.361,0.361,0.361,0.362,0.362,0.362,0.362,0.362,0.362,0.362,0.363,0.364,0.364,0.364,0.365,0.365,0.366,0.366,0.366,0.366,0.367,0.368,0.368,0.369,0.369,0.369,0.369,0.369625,0.37,0.3705,0.371,0.373,0.373,0.376,0.376,0.377,0.37750000000000006,0.378,0.378,0.379,0.38,0.379,0.379,0.378,0.377,0.376,0.375,0.374,0.374,0.373,0.373,0.373,0.373,0.37350000000000005,0.374,0.374,0.374,0.375,0.376,0.376,0.376,0.0,0.0,0.0,0.0,0.0,0.0,0.0,0.0,0.0,0.0,0.0,0.40700000000000003,0.407,0.408,0.408,0.409,0.409,0.408,0.408,0.408,0.408,0.408,0.408,0.408,0.407,0.407,0.407,0.0,0.0,0.0,0.0,0.0,0.0,0.0,0.0,0.0,0.0,0.0,0.0,0.0,0.0,0.0,0.0,0.0,0.0,0.0,0.0,0.0,0.0,0.0,0.0,0.0
0.0,0.0,0.0,0.0,0.0,0.0,0.0,0.0,0.0,0.0,0.0,0.0,0.0,0.0,0.0,0.0,0.0,0.0,0.0,0.0,0.0,0.0,0.0,0.0,0.0,0.526,0.526,0.524,0.524,0.523,0.522,0.521,0.52,0.519,0.519,0.519,0.519,0.519,0.52,0.521,0.521,0.522,0.522,0.522,0.523,0.523,0.523,0.523,0.523,0.523,0.525,0.522,0.522,0.523,0.522,0.521,0.52,0.5195000000000001,0.519,0.519,0.517,0.517,0.51675,0.516,0.516,0.516,0.516,0.516,0.516,0.516,0.517,0.519,0.5195000000000001,0.52,0.52,0.518,0.5185,0.519,0.514,0.512,0.51,0.5095000000000001,0.509,0.0,0.0,0.0,0.0,0.0,0.0,0.0,0.509,0.509,0.50875,0.508,0.508,0.508,0.508,0.509,0.509,0.509,0.509,0.509,0.51,0.508,0.508,0.5035000000000001,0.496,0.496,0.4985625,0.497,0.5,0.502,0.501,0.501,0.49975,0.5,0.499,0.499,0.499,0.498,0.498,0.499,0.499,0.499,0.0,0.0,0.0,0.0,0.0,0.0,0.0,0.0,0.0,0.4975,0.497,0.4965,0.496,0.4955,0.0,0.491,0.495,0.495,0.0,0.0,0.0,0.0,0.495,0.0,0.0,0.0,0.487,0.48575,0.484,0.484,0.485,0.486,0.487,0.488,0.489,0.491,0.492,0.493,0.495,0.493,0.493,0.493,0.493,0.0,0.492,0.49,0.489,0.489,0.489,0.489,0.489,0.489,0.489,0.488,0.4875,0.487,0.485,0.484,0.484,0.484,0.483,0.482,0.482,0.483,0.483,0.483,0.483,0.483,0.482,0.483,0.483,0.482,0.482,0.482,0.482,0.482,0.481,0.481,0.481,0.48,0.48,0.48,0.479,0.477,0.477,0.476,0.476,0.476,0.475,0.474,0.474,0.474,0.475,0.475,0.476,0.476,0.476,0.476,0.476,0.476,0.477,0.476,0.47575,0.475,0.474,0.474,0.474,0.472,0.471,0.47,0.47,0.47,0.47,0.468,0.469,0.0,0.0,0.469,0.4685,0.0,0.0,0.467,0.466,0.465,0.465,0.464,0.464,0.463,0.463,0.463,0.462,0.462,0.462,0.462,0.462,0.0,0.0,0.46,0.459,0.46,0.459,0.0,0.0,0.461,0.461,0.4615,0.462,0.463,0.462,0.0,0.0,0.46,0.459,0.458,0.457,0.457,0.456,0.455,0.455,0.453,0.452,0.452,0.452,0.451,0.451,0.45,0.448,0.447,0.445,0.444,0.442,0.441,0.441,0.0,0.0,0.0,0.0,0.0,0.0,0.0,0.0,0.0,0.0,0.0,0.0,0.361,0.361,0.36,0.36,0.36,0.36,0.36,0.36,0.36,0.36,0.36,0.36,0.36,0.36,0.36,0.36,0.36,0.36,0.36,0.36,0.36,0.36,0.359,0.359,0.359,0.359,0.359,0.359,0.359,0.359,0.359,0.359,0.358,0.358,0.358,0.358,0.358,0.358,0.358,0.358,0.358,0.358,0.358,0.358,0.358,0.358,0.358,0.358,0.358,0.358,0.358,0.358,0.358,0.358,0.358,0.358,0.358,0.358,0.358,0.358,0.358,0.358,0.358,0.358,0.358,0.358,0.358,0.358,0.358,0.358,0.358,0.358,0.358,0.358,0.358,0.358,0.357,0.357,0.357,0.357,0.356,0.356,0.355,0.355,0.355,0.355,0.355,0.354,0.354,0.353,0.353,0.352,0.352,0.352,0.352,0.352,0.352,0.3525,0.353,0.354,0.354,0.355,0.355,0.355,0.356,0.357,0.358,0.358,0.358,0.359,0.359,0.35949999999999993,0.36,0.36,0.361,0.361,0.361,0.361,0.361,0.361,0.362,0.362,0.362,0.362,0.362,0.362,0.362,0.362,0.363,0.363,0.363,0.364,0.364,0.365,0.365,0.366,0.366,0.366,0.367,0.367,0.368,0.368,0.369,0.369,0.369,0.369,0.3695,0.37,0.37,0.371375,0.372,0.373,0.375,0.37675,0.377,0.378,0.379,0.38,0.381,0.381,0.381,0.381,0.381,0.381,0.381,0.378,0.375,0.374,0.374,0.374,0.373,0.3735,0.374,0.374,0.0,0.0,0.0,0.0,0.0,0.3865,0.0,0.0,0.0,0.0,0.0,0.0,0.0,0.399,0.401,0.402,0.403,0.404,0.406,0.406,0.407,0.408,0.408,0.408,0.408,0.408,0.408,0.408,0.408,0.408,0.408,0.407,0.407,0.407,0.0,0.0,0.0,0.0,0.0,0.0,0.0,0.0,0.0,0.0,0.0,0.0,0.0,0.0,0.0,0.0,0.0,0.0,0.0,0.0,0.0,0.0,0.0,0.0,0.0
0.0,0.0,0.0,0.0,0.0,0.0,0.0,0.0,0.0,0.0,0.0,0.0,0.0,0.0,0.0,0.0,0.0,0.0,0.0,0.0,0.0,0.0,0.0,0.0,0.523,0.523,0.523,0.523,0.522,0.52,0.518,0.518,0.518,0.517,0.517,0.517,0.516,0.516,0.516,0.516,0.516,0.516,0.516,0.516,0.516,0.516,0.517,0.518,0.521,0.52,0.52,0.516,0.517,0.516,0.516,0.516,0.5155000000000001,0.515,0.514,0.514,0.512,0.511,0.511,0.511,0.51,0.51,0.51,0.509,0.509,0.509,0.51,0.51,0.516,0.516,0.514,0.512,0.513,0.512,0.51,0.509,0.509,0.509,0.509,0.508,0.0,0.0,0.0,0.0,0.0,0.0,0.503,0.50275,0.502,0.502,0.502,0.503,0.503,0.503,0.503,0.50475,0.506,0.504,0.0,0.499,0.493,0.493,0.494,0.494,0.495,0.495,0.495,0.4965,0.496,0.496,0.495,0.495,0.495,0.495,0.495,0.495,0.495,0.495,0.495,0.4945,0.0,0.0,0.0,0.0,0.0,0.0,0.0,0.0,0.0,0.494,0.493,0.492,0.491,0.49,0.4865,0.483,0.482,0.488,0.0,0.0,0.0,0.0,0.489,0.0,0.0,0.0,0.485,0.484,0.483,0.4825,0.482,0.0,0.0,0.0,0.0,0.0,0.0,0.0,0.0,0.0,0.492,0.492,0.491,0.4905,0.49,0.489,0.489,0.489,0.489,0.488,0.488,0.488,0.484,0.0,0.0,0.0,0.48,0.481,0.481,0.481,0.48,0.48,0.48,0.481,0.481,0.4795,0.4795,0.4775,0.477125,0.477,0.477,0.477,0.477,0.477,0.478,0.478,0.478,0.478,0.478,0.476,0.476,0.476,0.475,0.475,0.474,0.474,0.472,0.473,0.472,0.471,0.47,0.471,0.471,0.472,0.472,0.473,0.473,0.473,0.473,0.473,0.473,0.472,0.471,0.0,0.0,0.469,0.469,0.468,0.46699999999999997,0.466,0.467,0.466,0.0,0.0,0.466,0.0,0.0,0.4655,0.464,0.0,0.0,0.464,0.463,0.463,0.462,0.46,0.45925,0.458,0.458,0.458,0.457,0.457,0.457,0.456,0.456,0.456,0.456,0.454,0.453,0.455,0.455,0.455,0.455,0.455,0.455,0.456,0.457,0.457,0.456,0.4555,0.455,0.456,0.455,0.455,0.453,0.453,0.453,0.452,0.452,0.452,0.452,0.452,0.451,0.45,0.449,0.448,0.447,0.446,0.444,0.442,0.441,0.441,0.44,0.438,0.0,0.0,0.0,0.0,0.0,0.0,0.0,0.0,0.0,0.0,0.0,0.361,0.0,0.0,0.36,0.36,0.36,0.361,0.36,0.361,0.361,0.361,0.361,0.361,0.361,0.361,0.36,0.361,0.361,0.36,0.36,0.36,0.36,0.36,0.36,0.36,0.36,0.359,0.359,0.359,0.359,0.359,0.359,0.359,0.359,0.359,0.359,0.359,0.359,0.359,0.359,0.359,0.359,0.359,0.359,0.359,0.358,0.358,0.358,0.358,0.358,0.358,0.358,0.358,0.358,0.358,0.358,0.358,0.358,0.358,0.358,0.358,0.358,0.358,0.358,0.358,0.358,0.358,0.358,0.358,0.358,0.358,0.358,0.358,0.358,0.358,0.358,0.358,0.358,0.358,0.357,0.357,0.357,0.356,0.356,0.355,0.355,0.355,0.355,0.355,0.354,0.354,0.353,0.353,0.353,0.352,0.352,0.353,0.353,0.354,0.354,0.355,0.355,0.355,0.356,0.357,0.358,0.358,0.358,0.359,0.359,0.3595,0.36,0.36,0.361,0.361,0.361,0.361,0.361,0.362,0.362,0.362,0.362,0.362,0.362,0.362,0.362,0.362,0.363,0.363,0.363,0.364,0.364,0.365,0.365,0.366,0.366,0.366,0.366,0.367,0.368,0.368,0.369,0.369,0.369,0.369,0.369,0.3695,0.37,0.371,0.373,0.374,0.376,0.378,0.379,0.38,0.381,0.381,0.381,0.382,0.3825,0.0,0.383,0.383,0.384,0.385,0.3835,0.0,0.0,0.384,0.0,0.0,0.0,0.0,0.0,0.0,0.0,0.0,0.0,0.0,0.397,0.0,0.0,0.395,0.395,0.395,0.395,0.396,0.397,0.398,0.399,0.40075000000000005,0.402,0.40349999999999997,0.404,0.405,0.406,0.407,0.407,0.407,0.407,0.408,0.407,0.407,0.407,0.407,0.407,0.407,0.407,0.0,0.0,0.0,0.0,0.0,0.0,0.0,0.0,0.0,0.0,0.0,0.0,0.0,0.0,0.0,0.0,0.0,0.0,0.0,0.0,0.0,0.0,0.0,0.0,0.0
0.0,0.0,0.0,0.0,0.0,0.0,0.0,0.0,0.0,0.0,0.0,0.0,0.0,0.0,0.0,0.0,0.0,0.0,0.502,0.506,0.51,0.509,0.509,0.514,0.515,0.517,0.516,0.517,0.516,0.516,0.516,0.516,0.516,0.516,0.515,0.515,0.514,0.514,0.513,0.513,0.512,0.511,0.511,0.511,0.511,0.511,0.511,0.511,0.51,0.51,0.51175,0.511,0.51,0.5095000000000001,0.509,0.509,0.509375,0.509,0.509,0.509,0.507,0.507,0.507,0.507,0.506,0.506,0.506,0.505,0.505,0.505,0.506,0.506,0.507,0.5075000000000001,0.508,0.5085,0.509,0.509,0.50925,0.509,0.509,0.508,0.507,0.506,0.504,0.502,0.499,0.496,0.496,0.496,0.497,0.497,0.496,0.496,0.0,0.498,0.502,0.502,0.5,0.501,0.0,0.4955,0.49275,0.49,0.489,0.489,0.49,0.491,0.491,0.492,0.493,0.493,0.493,0.493,0.492,0.491,0.491,0.491,0.492,0.492,0.492,0.492,0.491,0.49,0.0,0.0,0.49,0.489,0.489,0.489,0.489,0.489,0.488,0.488,0.488,0.485,0.484,0.483,0.482,0.479,0.479,0.48149999999999993,0.481,0.0,0.0,0.482,0.482,0.483,0.483,0.482,0.482,0.482,0.481,0.481,0.4795,0.0,0.0,0.0,0.0,0.0,0.0,0.0,0.0,0.0,0.0,0.0,0.0,0.0,0.0,0.0,0.0,0.489,0.488,0.0,0.0,0.481,0.477,0.0,0.0,0.0,0.475,0.47575,0.476,0.477,0.476,0.476,0.476,0.476,0.476,0.476,0.476,0.472,0.472,0.472,0.473,0.473,0.474,0.474,0.475,0.476,0.476,0.476,0.476,0.474,0.473,0.472,0.471,0.471,0.47,0.47,0.47,0.47,0.47,0.469,0.469,0.469,0.469,0.469,0.469,0.47,0.47,0.47,0.47,0.47,0.47,0.468,0.46699999999999997,0.0,0.0,0.464,0.463,0.463,0.463,0.463,0.463,0.463,0.0,0.0,0.463,0.463,0.462,0.462,0.46,0.459,0.459,0.459,0.458,0.457,0.457,0.457,0.455,0.455,0.455,0.453,0.453,0.452,0.452,0.452,0.452,0.452,0.451,0.451,0.451,0.451,0.451,0.451,0.451,0.45,0.451,0.451,0.451,0.451,0.45,0.45,0.451,0.451,0.452,0.452,0.452,0.452,0.451,0.452,0.452,0.451,0.451,0.449,0.448,0.447,0.447,0.446,0.444,0.444,0.442,0.441,0.441,0.44,0.438,0.436,0.436,0.435,0.433,0.432,0.431,0.0,0.0,0.0,0.0,0.0,0.0,0.0,0.0,0.0,0.0,0.0,0.0,0.0,0.361,0.361,0.361,0.361,0.361,0.361,0.361,0.361,0.361,0.361,0.361,0.361,0.361,0.361,0.361,0.361,0.361,0.36,0.36,0.36,0.36,0.36,0.36,0.359,0.359,0.359,0.359,0.359,0.359,0.359,0.359,0.359,0.359,0.359,0.359,0.359,0.359,0.359,0.359,0.359,0.359,0.358,0.359,0.359,0.358,0.358,0.358,0.358,0.358,0.358,0.358,0.358,0.358,0.358,0.358,0.358,0.358,0.358,0.358,0.358,0.358,0.358,0.358,0.358,0.358,0.358,0.358,0.358,0.358,0.358,0.358,0.358,0.358,0.358,0.358,0.357,0.357,0.356,0.356,0.355,0.355,0.355,0.355,0.355,0.354,0.354,0.354,0.354,0.354,0.354,0.354,0.355,0.355,0.355,0.356,0.356,0.357,0.358,0.358,0.3585,0.359,0.359,0.359,0.359625,0.36,0.36,0.361,0.361,0.361,0.361,0.361,0.362,0.362,0.362,0.362,0.362,0.362,0.362,0.363,0.363,0.363,0.364,0.364,0.364,0.365,0.365,0.366,0.366,0.366,0.366,0.367,0.367,0.368,0.368,0.369,0.369,0.369,0.369,0.369,0.369625,0.37,0.371,0.373,0.0,0.0,0.0,0.0,0.0,0.383,0.383,0.38325,0.384,0.384,0.3845,0.385,0.385,0.386,0.3875,0.389,0.0,0.0,0.394,0.0,0.0,0.0,0.0,0.0,0.0,0.0,0.397,0.397,0.397,0.396,0.395,0.394,0.394,0.394,0.394,0.394,0.395,0.396,0.397,0.398,0.399,0.401,0.402,0.0,0.4035,0.404,0.406,0.406,0.406,0.407,0.407,0.407,0.407,0.407,0.407,0.407,0.407,0.406,0.0,0.0,0.0,0.0,0.0,0.0,0.0,0.0,0.0,0.0,0.0,0.0,0.0,0.0,0.0,0.0,0.0,0.0,0.0,0.0,0.0,0.0,0.0,0.0,0.0
0.0,0.0,0.0,0.0,0.0,0.0,0.0,0.0,0.0,0.0,0.0,0.0,0.0,0.0,0.496,0.496,0.497,0.497,0.499,0.502,0.501,0.505,0.50575,0.508,0.509,0.509,0.511,0.513,0.513,0.513,0.512,0.512,0.512,0.513,0.511,0.51,0.509,0.509,0.509,0.509,0.508,0.508,0.507,0.507,0.507,0.506,0.50575,0.505,0.505,0.505,0.506,0.506,0.505,0.503,0.504,0.504,0.504,0.503,0.503,0.502,0.502,0.502,0.502,0.502,0.503,0.5025,0.502,0.502,0.502,0.502,0.502,0.502,0.503,0.50375,0.505,0.5061249999999999,0.508,0.508,0.509,0.509,0.508,0.507,0.506,0.504,0.494,0.489,0.4895,0.488,0.489,0.49,0.49075,0.491,0.491,0.4915,0.49224999999999997,0.493,0.49425,0.494,0.493,0.4935,0.49024999999999996,0.487,0.488,0.488,0.487,0.487,0.488,0.488,0.488,0.489,0.489,0.489,0.489,0.489,0.489,0.488,0.488,0.488,0.488,0.488,0.488,0.487,0.487,0.487,0.486,0.485,0.483,0.484,0.483,0.482,0.482,0.483,0.483,0.482,0.482,0.478,0.479,0.478,0.476,0.477,0.478,0.478,0.477,0.4765,0.476,0.477,0.478,0.478,0.478,0.479,0.478,0.478,0.477,0.478,0.477,0.477,0.0,0.0,0.0,0.0,0.0,0.0,0.0,0.0,0.0,0.0,0.0,0.0,0.0,0.0,0.0,0.469,0.467,0.0,0.0,0.46950000000000003,0.47,0.47,0.469,0.469,0.47,0.471,0.473,0.473,0.473,0.473,0.473,0.474,0.473,0.472,0.471,0.469,0.469,0.468,0.469,0.469,0.47,0.47,0.469,0.472,0.474,0.473,0.47,0.469,0.0,0.4675,0.468,0.467,0.0,0.4655,0.465,0.465,0.465,0.464,0.465,0.465,0.466,0.468,0.4685,0.469,0.467,0.467,0.467,0.465,0.464,0.463,0.463,0.462,0.459,0.459,0.458,0.458,0.458,0.459,0.459,0.459,0.46,0.46,0.46,0.458,0.458,0.457,0.456,0.456,0.4555,0.455,0.454,0.453,0.453,0.453,0.452,0.452,0.452,0.451,0.451,0.451,0.451,0.451,0.451,0.45,0.449,0.448,0.4485,0.44775,0.447,0.447,0.447,0.446,0.446,0.446,0.447,0.0,0.0,0.0,0.448,0.449,0.451,0.451,0.451,0.451,0.45,0.45,0.449,0.448,0.447,0.447,0.446,0.446,0.444,0.442,0.442,0.441,0.441,0.441,0.44,0.439,0.436,0.436,0.435,0.434,0.433,0.431,0.431,0.431,0.431,0.43,0.43,0.429,0.0,0.0,0.0,0.0,0.0,0.0,0.0,0.0,0.0,0.0,0.0,0.0,0.0,0.0,0.362,0.362,0.362,0.362,0.362,0.362,0.361,0.361,0.361,0.361,0.361,0.361,0.361,0.361,0.36,0.36,0.36,0.36,0.36,0.36,0.36,0.36,0.36,0.36,0.36,0.36,0.36,0.36,0.359,0.359,0.359,0.359,0.359,0.359,0.359,0.359,0.359,0.359,0.359,0.359,0.359,0.359,0.358,0.358,0.358,0.358,0.358,0.358,0.358,0.358,0.358,0.358,0.358,0.358,0.358,0.358,0.358,0.358,0.358,0.358,0.358,0.358,0.358,0.358,0.358,0.358,0.358,0.358,0.358,0.358,0.358,0.358,0.357,0.356,0.356,0.356,0.355,0.355,0.355,0.355,0.355,0.355,0.355,0.355,0.355,0.355,0.355,0.356,0.356,0.357,0.358,0.358,0.3585,0.359,0.359,0.359,0.36,0.36,0.361,0.361,0.361,0.361,0.361,0.362,0.362,0.362,0.362,0.362,0.362,0.362,0.363,0.363,0.363,0.363,0.364,0.364,0.365,0.365,0.365,0.366,0.366,0.366,0.366,0.366,0.367,0.367,0.368,0.369,0.369,0.369,0.369,0.369,0.3695,0.37,0.0,0.0,0.0,0.0,0.0,0.0,0.0,0.0,0.385,0.385,0.385,0.385,0.385,0.386,0.387,0.387,0.388,0.38862500000000005,0.389,0.391,0.392,0.393,0.394,0.0,0.0,0.0,0.397,0.397,0.397,0.397,0.397,0.396,0.395,0.394,0.394,0.394,0.394,0.394,0.394,0.39425,0.395,0.396,0.397,0.397,0.399,0.0,0.0,0.402,0.4035,0.405,0.405,0.406,0.406,0.407,0.407,0.407,0.407,0.406,0.406,0.406,0.0,0.0,0.0,0.0,0.0,0.0,0.0,0.0,0.0,0.0,0.0,0.0,0.0,0.0,0.0,0.0,0.0,0.0,0.0,0.0,0.0,0.0,0.0,0.0,0.0,0.0
0.0,0.0,0.0,0.0,0.0,0.0,0.0,0.0,0.0,0.0,0.0,0.0,0.495,0.495,0.495,0.495,0.496,0.496,0.497,0.497,0.499,0.5,0.501,0.502,0.502,0.504,0.508,0.509,0.509,0.509,0.509,0.509,0.509,0.509,0.508,0.508,0.507,0.507,0.506,0.505,0.504,0.503,0.503,0.502,0.502,0.501,0.501,0.501,0.499,0.501,0.501,0.499,0.5,0.5,0.5,0.5,0.5,0.5,0.5,0.5,0.5,0.5,0.5,0.5,0.5,0.499,0.499,0.498,0.496,0.496,0.496,0.498,0.498,0.5,0.502,0.503,0.505,0.506,0.508,0.508,0.0,0.497,0.0,0.0,0.0,0.485,0.482,0.483,0.483,0.484,0.485,0.485,0.486,0.487,0.488,0.488,0.488,0.488,0.487,0.486,0.483,0.484,0.483,0.483,0.483,0.483,0.484,0.484,0.485,0.485,0.485,0.485,0.485,0.484,0.484,0.483,0.483,0.484,0.483,0.482,0.482,0.482,0.482,0.482,0.482,0.481,0.479,0.477,0.4785,0.478,0.478,0.477,0.477,0.477,0.477,0.477,0.476,0.476,0.476,0.475,0.474,0.474,0.473,0.472,0.471,0.471,0.471,0.472,0.473,0.473,0.472,0.472,0.473,0.474,0.473,0.474,0.471,0.469,0.467,0.457,0.0,0.0,0.0,0.457,0.457,0.457,0.457,0.457,0.456,0.456,0.456,0.456,0.457,0.457,0.457,0.458,0.4635,0.464125,0.465,0.466,0.467,0.469,0.469,0.469,0.0,0.0,0.469,0.469,0.47,0.465,0.463,0.463,0.463,0.46325,0.464,0.464,0.4645,0.0,0.0,0.0,0.0,0.0,0.0,0.464,0.4635,0.463,0.463,0.462,0.4615,0.461,0.461,0.461,0.461,0.461,0.461,0.461,0.462,0.462,0.0,0.4635,0.4625,0.46237500000000004,0.462,0.462,0.459,0.458,0.458,0.457,0.456,0.456,0.457,0.456,0.456,0.456,0.457,0.457,0.457,0.458,0.457,0.4555,0.454,0.454,0.4525,0.0,0.0,0.4515,0.4505,0.450375,0.451,0.451,0.451,0.451,0.451,0.451,0.45,0.44925000000000004,0.449,0.449,0.448,0.447,0.447,0.447,0.446,0.4459375,0.446,0.446,0.446,0.444,0.44425000000000003,0.445,0.4445,0.0,0.0,0.0,0.446,0.447,0.447,0.447,0.449,0.448,0.448,0.447,0.447,0.446,0.443,0.443,0.442,0.441,0.441,0.441,0.441,0.441,0.44,0.439,0.439,0.438,0.436,0.436,0.435,0.433,0.432,0.431,0.431,0.431,0.43,0.43,0.429,0.429,0.4285,0.428,0.0,0.0,0.0,0.0,0.0,0.0,0.0,0.0,0.0,0.0,0.0,0.0,0.0,0.0,0.0,0.0,0.0,0.0,0.0,0.362,0.362,0.362,0.362,0.362,0.361,0.361,0.361,0.361,0.361,0.361,0.361,0.361,0.36,0.36,0.36,0.36,0.36,0.36,0.36,0.36,0.36,0.36,0.36,0.36,0.36,0.36,0.36,0.36,0.36,0.359,0.359,0.359,0.359,0.359,0.359,0.359,0.359,0.359,0.359,0.359,0.359,0.359,0.358,0.359,0.358,0.358,0.358,0.358,0.358,0.358,0.358,0.358,0.358,0.358,0.358,0.358,0.358,0.358,0.358,0.358,0.358,0.358,0.358,0.358,0.358,0.358,0.357,0.356,0.356,0.356,0.356,0.355,0.355,0.355,0.355,0.355,0.355,0.356,0.356,0.357,0.358,0.358,0.3585,0.359,0.359,0.359,0.36,0.36,0.36,0.361,0.361,0.361,0.362,0.362,0.362,0.362,0.362,0.362,0.362,0.362,0.362,0.363,0.363,0.363,0.364,0.364,0.364,0.365,0.365,0.365,0.366,0.366,0.366,0.366,0.367,0.367,0.368,0.368,0.3685,0.369,0.369,0.369,0.36975,0.37,0.0,0.0,0.0,0.0,0.0,0.386,0.386,0.0,0.0,0.387,0.386,0.387,0.387,0.387,0.388,0.388,0.389,0.389,0.389,0.39,0.391,0.3915,0.392,0.393,0.393,0.394,0.396,0.396,0.397,0.397,0.396,0.396,0.396,0.395,0.395,0.394,0.393,0.393,0.393,0.393,0.393,0.393,0.393,0.393,0.394,0.394,0.3945,0.0,0.0,0.396,0.0,0.0,0.0,0.405,0.0,0.0,0.396,0.394,0.0,0.0,0.0,0.0,0.0,0.0,0.0,0.0,0.0,0.0,0.0,0.0,0.0,0.0,0.0,0.0,0.0,0.0,0.0,0.0,0.0,0.0,0.0,0.0,0.0,0.0,0.0,0.0,0.0,0.0
0.0,0.0,0.0,0.0,0.0,0.0,0.0,0.0,0.489,0.49,0.491,0.492,0.493,0.494,0.494,0.49375,0.495,0.495,0.495,0.495,0.49575,0.496,0.496,0.497,0.497,0.497,0.497,0.503,0.498,0.499,0.503,0.503,0.503,0.503,0.502,0.502,0.502,0.502,0.501,0.501,0.501,0.5,0.499,0.498,0.496,0.495,0.496,0.495,0.495,0.495,0.495,0.495,0.495,0.496,0.496,0.496,0.496,0.496,0.496,0.496,0.496,0.496,0.496,0.496,0.495,0.495,0.495,0.495,0.495,0.495,0.495,0.496,0.497,0.49775,0.499,0.5,0.502,0.5045,0.507,0.507,0.497,0.487,0.0,0.0,0.0,0.481,0.48,0.481,0.481,0.482,0.482,0.482,0.482,0.483,0.483,0.483,0.482,0.481,0.481,0.48,0.48,0.479,0.479,0.48,0.48,0.481,0.481,0.482,0.482,0.482,0.482,0.482,0.482,0.482,0.481,0.481,0.481,0.481,0.48,0.0,0.0,0.0,0.4785,0.477875,0.476,0.476,0.0,0.0,0.476,0.476,0.476,0.476,0.476,0.476,0.476,0.476,0.475,0.475,0.474,0.472,0.471,0.471,0.47,0.469,0.468,0.4685,0.469,0.469,0.0,0.0,0.0,0.469,0.469,0.469,0.467,0.462,0.46399999999999997,0.46025,0.455,0.453,0.4535,0.454,0.454,0.455,0.455,0.455,0.455,0.455,0.454,0.453,0.453,0.453,0.4545,0.455,0.45575,0.456,0.457,0.458,0.461,0.463,0.463,0.464,0.464,0.4645,0.0,0.0,0.463,0.462,0.461,0.459,0.458,0.458,0.458,0.458,0.458,0.459,0.459,0.0,0.0,0.0,0.0,0.0,0.0,0.459,0.458,0.458,0.458,0.457,0.45675,0.0,0.0,0.457,0.457,0.457,0.457,0.457,0.458,0.458,0.458,0.458,0.458,0.458,0.457,0.457,0.455,0.455,0.454,0.453,0.452,0.452,0.452,0.452,0.452,0.452,0.452,0.452,0.453,0.453,0.453,0.4525,0.452,0.452,0.449,0.0,0.0,0.448,0.447,0.447,0.0,0.4485,0.448,0.448,0.447,0.447,0.447,0.447,0.447,0.447,0.446,0.446,0.446,0.446,0.445,0.444,0.443,0.443,0.442,0.442,0.442,0.442,0.442,0.442,0.0,0.0,0.442,0.443,0.443,0.443,0.444,0.443,0.44275,0.442,0.44125,0.44,0.44,0.44,0.44,0.439,0.439,0.439,0.439,0.439,0.439,0.438,0.436,0.436,0.436,0.435,0.433,0.432,0.431,0.431,0.431,0.43,0.43,0.429,0.429,0.428,0.427,0.427,0.426,0.0,0.0,0.0,0.0,0.0,0.0,0.0,0.0,0.0,0.0,0.0,0.0,0.0,0.0,0.0,0.0,0.0,0.0,0.0,0.0,0.0,0.362,0.362,0.362,0.362,0.361,0.361,0.361,0.361,0.361,0.361,0.361,0.361,0.361,0.361,0.361,0.361,0.361,0.361,0.361,0.361,0.361,0.361,0.361,0.361,0.361,0.361,0.36,0.36,0.36,0.359,0.359,0.359,0.359,0.359,0.359,0.359,0.359,0.359,0.359,0.359,0.359,0.359,0.359,0.358,0.358,0.358,0.358,0.358,0.358,0.358,0.359,0.358,0.359,0.359,0.359,0.359,0.359,0.359,0.358,0.359,0.358,0.358,0.358,0.358,0.358,0.358,0.357,0.357,0.356,0.357,0.356,0.356,0.356,0.356,0.356,0.357,0.358,0.358,0.358,0.3585,0.359,0.359,0.36,0.36,0.361,0.361,0.361,0.361,0.362,0.362,0.362,0.362,0.362,0.362,0.362,0.362,0.362,0.362,0.363,0.363,0.364,0.364,0.364,0.365,0.365,0.365,0.365,0.366,0.366,0.366,0.366,0.367,0.368,0.36825,0.369,0.369,0.369,0.37,0.37,0.37,0.371,0.372,0.0,0.0,0.0,0.388,0.389,0.389,0.389,0.388,0.388,0.388,0.388,0.388,0.389,0.389,0.389,0.389,0.389,0.389,0.39,0.391,0.391,0.3915,0.392,0.393,0.393,0.394,0.394,0.395,0.396,0.396,0.396,0.396,0.395,0.394,0.394,0.393,0.393,0.393,0.392,0.392,0.391,0.392,0.391,0.39,0.391,0.39,0.39,0.391,0.391,0.39,0.0,0.0,0.0,0.0,0.0,0.0,0.385,0.0,0.0,0.0,0.0,0.0,0.0,0.0,0.0,0.0,0.0,0.0,0.0,0.0,0.0,0.0,0.0,0.0,0.0,0.0,0.0,0.0,0.0,0.0,0.0,0.0,0.0,0.0,0.0,0.0,0.0,0.0
0.0,0.0,0.0,0.0,0.0,0.0,0.487,0.488,0.488,0.48875,0.489,0.49,0.49,0.49,0.491,0.491,0.492,0.493,0.493,0.493,0.493,0.493,0.493,0.493,0.493,0.493,0.493,0.4945,0.494,0.494,0.494,0.494,0.494,0.497,0.497,0.496,0.496,0.496,0.496,0.495,0.495,0.495,0.495,0.494,0.494,0.494,0.493,0.493,0.493,0.493,0.493,0.493,0.493,0.494,0.493,0.494,0.494,0.495,0.494,0.494,0.49374999999999997,0.494,0.494,0.494,0.493,0.493,0.493,0.493,0.493,0.492,0.493,0.494,0.495,0.495,0.0,0.0,0.0,0.0,0.0,0.484,0.479,0.479,0.479,0.478,0.477,0.477,0.479,0.479,0.48,0.48,0.479,0.48,0.479,0.4785,0.478,0.477,0.476,0.476,0.476,0.476,0.477,0.476,0.477,0.477,0.478,0.478,0.478,0.479,0.479,0.479,0.479,0.478,0.478,0.477,0.477,0.476,0.476,0.475,0.475,0.0,0.0,0.0,0.475,0.475,0.474,0.474,0.0,0.0,0.474,0.473,0.471,0.471,0.471,0.471,0.471,0.0,0.0,0.469,0.469,0.469,0.468,0.4665,0.465,0.465,0.465,0.46375,0.46499999999999997,0.0,0.0,0.0,0.0,0.46499999999999997,0.465,0.46325000000000005,0.461,0.458,0.457,0.453,0.452,0.453,0.452,0.453,0.453,0.452,0.452,0.453,0.453,0.452,0.452,0.452,0.452,0.452,0.453,0.453,0.455,0.455,0.455,0.456,0.456,0.456,0.457,0.456,0.459,0.46,0.459,0.458,0.458,0.458,0.456,0.455,0.454,0.453,0.453,0.454,0.454,0.455,0.4535,0.0,0.0,0.452,0.0,0.0,0.455,0.454,0.453,0.453,0.452,0.452,0.452,0.0,0.0,0.452,0.451,0.452,0.452,0.452,0.452,0.45275000000000004,0.453,0.453,0.453,0.0,0.4525,0.4525,0.45175,0.451,0.451,0.449,0.449,0.4495,0.44912500000000005,0.449,0.449,0.449,0.449,0.449,0.45,0.0,0.0,0.44675,0.44637499999999997,0.446,0.446,0.446,0.446,0.446,0.446,0.446,0.446,0.446,0.447,0.447,0.446,0.446,0.446,0.446,0.445,0.444,0.443,0.442,0.442,0.441,0.441,0.44,0.44,0.439,0.438,0.439,0.438,0.438,0.438,0.438,0.438,0.438,0.4385,0.439,0.439,0.439,0.439,0.438,0.438,0.438,0.436,0.436,0.436,0.436,0.436,0.436,0.43675,0.437,0.437,0.437,0.437,0.436,0.436,0.436,0.435,0.434,0.432,0.431,0.431,0.43,0.429,0.428,0.427,0.4265,0.426,0.426,0.426,0.426,0.425,0.0,0.0,0.0,0.0,0.0,0.0,0.0,0.0,0.0,0.0,0.0,0.0,0.0,0.0,0.0,0.0,0.0,0.406,0.0,0.0,0.0,0.3825,0.37712500000000004,0.362,0.362,0.362,0.362,0.361,0.361,0.361,0.361,0.361,0.361,0.361,0.361,0.361,0.361,0.361,0.361,0.361,0.361,0.361,0.362,0.361,0.361,0.361,0.361,0.361,0.361,0.361,0.36,0.36,0.36,0.359,0.359,0.359,0.359,0.359,0.359,0.359,0.359,0.359,0.359,0.359,0.359,0.359,0.359,0.359,0.359,0.359,0.359,0.359,0.359,0.359,0.359,0.359,0.359,0.359,0.359,0.359,0.359,0.359,0.359,0.358,0.358,0.358,0.358,0.358,0.358,0.358,0.358,0.358,0.358,0.358,0.358,0.358,0.358,0.358,0.3585,0.359,0.359,0.36,0.36,0.361,0.361,0.361,0.361,0.362,0.362,0.362,0.362,0.362,0.362,0.362,0.362,0.362,0.362,0.363,0.363,0.363,0.364,0.364,0.364,0.365,0.365,0.365,0.365,0.366,0.366,0.366,0.367,0.368,0.36825,0.369,0.369,0.37,0.37,0.37,0.371,0.371,0.0,0.0,0.0,0.0,0.0,0.389,0.389,0.389,0.389,0.389,0.389,0.389,0.389,0.389,0.389,0.389,0.389,0.389,0.389,0.389,0.389,0.39,0.39,0.391,0.39137500000000003,0.392,0.392,0.393,0.393,0.394,0.394,0.395,0.395,0.395,0.395,0.393,0.393,0.392,0.391,0.391,0.39,0.389,0.389,0.389,0.389,0.388,0.388,0.388,0.388,0.388,0.386,0.3855,0.383,0.383,0.383,0.0,0.0,0.384,0.384,0.384,0.0,0.0,0.0,0.0,0.0,0.0,0.0,0.0,0.0,0.0,0.0,0.0,0.0,0.0,0.0,0.0,0.0,0.0,0.0,0.0,0.0,0.0,0.0,0.0,0.0,0.0,0.0,0.0,0.0,0.0,0.0
0.0,0.0,0.0,0.483,0.484,0.485,0.485,0.4865,0.486875,0.488,0.488,0.489,0.489,0.489,0.489,0.489,0.489,0.49,0.49,0.49,0.489,0.489,0.489,0.489,0.489,0.489,0.488,0.488,0.4885,0.489,0.489,0.489,0.49,0.489,0.489,0.489,0.489,0.489,0.492,0.491,0.492,0.491,0.49,0.49,0.49,0.49,0.49,0.49,0.49,0.49,0.49,0.49,0.491,0.491,0.491,0.491,0.492,0.492,0.491,0.491,0.491,0.49,0.49,0.49,0.49,0.49,0.49,0.49,0.489,0.489,0.49,0.491,0.491,0.0,0.0,0.0,0.0,0.0,0.0,0.477,0.0,0.4745,0.473,0.474,0.475,0.475,0.475,0.476,0.476,0.476,0.476,0.476,0.476,0.47487499999999994,0.475,0.474,0.474,0.474,0.474,0.475,0.475,0.475,0.475,0.475,0.475,0.475,0.475,0.475,0.475,0.476,0.475,0.475,0.475,0.475,0.473,0.473,0.472,0.471,0.47,0.47,0.47,0.47,0.47,0.469,0.469,0.469,0.46699999999999997,0.465,0.465,0.464,0.466,0.466,0.0,0.0,0.0,0.0,0.0,0.4635,0.464,0.464,0.463,0.46225000000000005,0.4615,0.46087500000000003,0.46,0.459,0.461,0.0,0.0,0.0,0.0,0.461,0.46,0.458,0.458,0.455,0.452,0.452,0.452,0.452,0.452,0.452,0.452,0.452,0.452,0.452,0.452,0.452,0.451,0.451,0.451,0.451,0.451,0.452,0.452,0.452,0.452,0.452,0.452,0.452,0.452,0.452,0.455,0.454,0.453,0.453,0.452,0.453,0.452,0.45125000000000004,0.451,0.4505,0.451,0.45,0.45,0.45,0.448,0.448,0.448,0.44875,0.448,0.4485,0.449,0.449,0.448,0.448,0.44825000000000004,0.447,0.447,0.447,0.447,0.447,0.447,0.448,0.44775000000000004,0.447,0.447,0.448,0.448,0.44775,0.448,0.448,0.448,0.448,0.0,0.0,0.447,0.446,0.446,0.447,0.446,0.446,0.0,0.445,0.4445,0.0,0.0,0.0,0.0,0.441,0.441,0.441,0.441,0.441,0.441,0.441,0.441,0.442,0.442,0.44275000000000003,0.443,0.444,0.444,0.444,0.442,0.442,0.0,0.441,0.44,0.44,0.439,0.438,0.436,0.436,0.435,0.435,0.435,0.434,0.434,0.4345,0.435,0.4345,0.4345,0.0,0.0,0.435,0.4345,0.43325,0.432,0.43324999999999997,0.434,0.434,0.432,0.432,0.432,0.433,0.434,0.435,0.435,0.436,0.436,0.436,0.436,0.436,0.436,0.435,0.434,0.433,0.432,0.431,0.428,0.426,0.426,0.425,0.0,0.0,0.4235,0.425,0.424,0.424,0.424,0.0,0.0,0.0,0.0,0.0,0.0,0.0,0.0,0.0,0.0,0.0,0.0,0.0,0.411,0.0,0.0,0.407,0.406,0.406,0.405,0.404,0.403,0.402,0.382,0.382,0.0,0.0,0.362,0.362,0.362,0.361,0.362,0.362,0.362,0.361,0.362,0.362,0.362,0.362,0.362,0.362,0.362,0.362,0.362,0.362,0.362,0.362,0.362,0.362,0.361,0.361,0.361,0.36,0.36,0.36,0.36,0.36,0.36,0.36,0.36,0.36,0.359,0.359,0.359,0.359,0.359,0.359,0.359,0.359,0.359,0.359,0.359,0.359,0.359,0.359,0.359,0.359,0.359,0.359,0.359,0.359,0.359,0.359,0.359,0.359,0.359,0.359,0.359,0.359,0.359,0.359,0.359,0.359,0.358,0.358,0.358,0.359,0.359,0.359,0.359,0.36,0.361,0.361,0.361,0.362,0.362,0.362,0.362,0.362,0.362,0.362,0.362,0.362,0.362,0.362,0.362,0.362,0.363,0.363,0.364,0.364,0.365,0.365,0.365,0.366,0.366,0.366,0.366,0.367,0.36749999999999994,0.368,0.369,0.369,0.37,0.371,0.371,0.372,0.373,0.3735,0.374,0.0,0.0,0.0,0.0,0.388,0.388,0.389,0.389,0.389,0.389,0.389,0.389,0.389,0.389,0.389,0.389,0.389,0.389,0.389,0.389,0.389,0.389,0.39,0.39,0.391,0.391,0.392,0.392,0.393,0.393,0.393,0.394,0.394,0.394,0.394,0.393,0.392,0.391,0.389,0.387,0.386,0.386,0.386,0.386,0.3855,0.385,0.385,0.38475000000000004,0.384,0.384,0.382,0.382,0.382,0.382,0.382,0.3825,0.383,0.383,0.383,0.383,0.384,0.0,0.0,0.0,0.0,0.0,0.0,0.0,0.0,0.0,0.0,0.0,0.0,0.0,0.0,0.0,0.0,0.0,0.0,0.0,0.0,0.0,0.0,0.0,0.0,0.0,0.0,0.0,0.0,0.0,0.0
0.0,0.0,0.482,0.482,0.48250000000000004,0.483,0.484,0.485,0.485,0.486,0.487,0.487,0.488,0.488,0.488,0.488,0.488,0.489,0.489,0.488,0.488,0.488,0.487,0.487,0.486,0.485,0.485,0.486,0.48612500000000003,0.487,0.487,0.48675,0.488,0.488,0.488,0.488,0.486,0.486,0.485,0.485,0.484,0.488,0.488,0.488,0.488,0.488,0.488,0.488,0.488,0.488,0.489,0.488,0.489,0.489,0.489,0.489,0.489,0.489,0.489,0.488,0.489,0.488,0.488,0.489,0.489,0.489,0.489,0.489,0.489,0.489,0.489,0.49,0.488,0.0,0.0,0.0,0.0,0.469,0.47,0.47,0.47,0.47,0.471,0.471,0.471,0.471,0.471,0.472,0.472,0.471,0.471,0.47,0.47,0.47,0.47,0.47,0.47,0.47,0.47,0.47,0.47,0.471,0.471,0.47,0.47,0.47,0.47,0.47,0.47,0.47,0.47,0.47,0.469,0.46924999999999994,0.469,0.468,0.467,0.466,0.465,0.464,0.464,0.463,0.463,0.463,0.463,0.463,0.463,0.462,0.462,0.46,0.461,0.0,0.0,0.0,0.0,0.0,0.0,0.458,0.458,0.458,0.458,0.458,0.458,0.457,0.4565,0.457,0.457,0.457,0.457,0.457,0.457,0.457,0.456,0.455,0.4535,0.451625,0.45,0.45,0.45,0.45,0.451,0.451,0.451,0.45,0.45,0.45,0.45,0.45,0.449,0.449,0.448,0.448,0.449,0.449,0.449,0.449,0.449,0.449,0.449,0.449,0.448,0.448,0.447,0.447,0.446,0.446,0.446,0.448,0.448,0.447,0.447,0.447,0.447,0.447,0.446,0.446,0.446,0.446,0.446,0.447,0.447,0.447,0.447,0.447,0.446,0.446,0.446,0.445,0.444,0.445,0.445,0.445,0.444,0.444,0.444,0.444,0.444,0.0,0.4435,0.442,0.4425,0.442,0.4425,0.442,0.0,0.0,0.4425,0.442,0.442,0.443,0.442,0.442,0.4415,0.441,0.44,0.0,0.0,0.0,0.0,0.0,0.0,0.0,0.436,0.436,0.436,0.437,0.437,0.439,0.439,0.44,0.441,0.44,0.441,0.441,0.439,0.0,0.0,0.438,0.436,0.436,0.436,0.434,0.433,0.432,0.431,0.431,0.431,0.431,0.431,0.431,0.431,0.431,0.431,0.0,0.0,0.431,0.43,0.4298125,0.43,0.429,0.43,0.43,0.43,0.43,0.429,0.43,0.431,0.431,0.432,0.433,0.435,0.435,0.436,0.436,0.435,0.435,0.432,0.431,0.43,0.426,0.426,0.425,0.424,0.423,0.0,0.0,0.421,0.421,0.42174999999999996,0.422,0.422,0.422,0.421,0.421,0.42,0.419,0.0,0.0,0.0,0.0,0.0,0.412,0.412,0.411,0.411,0.411,0.409,0.407,0.406,0.405,0.404,0.403,0.403,0.402,0.402,0.402,0.0,0.0,0.3815,0.376625,0.362,0.362,0.362,0.362,0.362,0.362,0.362,0.362,0.362,0.362,0.362,0.362,0.362,0.362,0.362,0.362,0.362,0.362,0.362,0.362,0.362,0.362,0.362,0.361,0.361,0.361,0.361,0.361,0.361,0.361,0.36,0.36,0.36,0.36,0.36,0.36,0.36,0.36,0.36,0.36,0.359,0.359,0.36,0.359,0.359,0.359,0.359,0.359,0.359,0.36,0.36,0.36,0.36,0.36,0.36,0.36,0.36,0.36,0.36,0.359,0.359,0.359,0.36,0.36,0.359,0.36,0.36,0.36,0.36,0.36,0.361,0.361,0.361,0.362,0.362,0.362,0.362,0.362,0.362,0.362,0.362,0.362,0.362,0.362,0.362,0.362,0.363,0.363,0.363,0.364,0.364,0.365,0.365,0.366,0.366,0.366,0.366,0.367,0.36724999999999997,0.368,0.369,0.369,0.37,0.37,0.372,0.373,0.3725,0.0,0.3745,0.376,0.377,0.0,0.0,0.0,0.386,0.387,0.388,0.389,0.389,0.389,0.389,0.389,0.389,0.389,0.388,0.389,0.388,0.388,0.388,0.388,0.388,0.388,0.388,0.389,0.389,0.389,0.389,0.389,0.39,0.39,0.391,0.3915,0.393,0.393,0.393,0.393,0.391,0.389,0.389,0.386,0.385,0.385,0.384,0.383,0.383,0.382,0.382,0.382,0.382,0.382,0.381,0.382,0.381,0.382,0.382,0.382,0.382,0.382,0.3825,0.383,0.383,0.384,0.0,0.0,0.0,0.0,0.0,0.0,0.0,0.0,0.0,0.0,0.0,0.0,0.0,0.0,0.0,0.0,0.0,0.0,0.0,0.0,0.0,0.0,0.0,0.0,0.0,0.0,0.0,0.0,0.0,0.0
0.0,0.0,0.48,0.481,0.481,0.48125,0.482,0.482,0.48250000000000004,0.483,0.483,0.484,0.485,0.485,0.485,0.485,0.485,0.485,0.485,0.484,0.483,0.483,0.482,0.482,0.482,0.482,0.482,0.482,0.483,0.483,0.483,0.483,0.483,0.483,0.482,0.482,0.481,0.4805,0.48,0.48,0.479,0.479,0.479,0.479,0.483,0.483,0.484,0.485,0.485,0.484,0.485,0.484,0.485,0.484,0.484,0.483,0.484,0.484,0.485,0.486,0.486,0.485,0.486,0.487,0.487,0.488,0.488,0.488,0.488,0.488,0.488,0.489,0.482,0.469,0.468,0.467,0.467,0.4675,0.468,0.468,0.469,0.469,0.469,0.469,0.469,0.469,0.469,0.469,0.468,0.468,0.467,0.466,0.465,0.466,0.466,0.466,0.467,0.467,0.468,0.46725,0.468,0.468,0.468,0.467,0.467,0.468,0.467,0.467,0.467,0.467,0.467,0.46599999999999997,0.46499999999999997,0.464,0.464,0.463,0.462,0.461,0.461,0.46,0.46,0.457,0.457,0.4575,0.457,0.457,0.457,0.457,0.457,0.45625,0.456,0.4555,0.455,0.0,0.0,0.0,0.0,0.453,0.452,0.453,0.453,0.453,0.453,0.452,0.452,0.452,0.452,0.452,0.452,0.452,0.451,0.451,0.451,0.451,0.449,0.448,0.448,0.447,0.447,0.447,0.447,0.448,0.447,0.447,0.447,0.447,0.447,0.447,0.447,0.446,0.446,0.446,0.446,0.447,0.447,0.447,0.447,0.447,0.447,0.446,0.446,0.446,0.445,0.445,0.444,0.444,0.444,0.443,0.442,0.441,0.441,0.446,0.446,0.446,0.446,0.446,0.444,0.445,0.445,0.446,0.445,0.445,0.445,0.444,0.443,0.443,0.442,0.441,0.441,0.441,0.441,0.44,0.44,0.44,0.44,0.44,0.44,0.4395,0.439,0.439,0.438,0.437,0.438,0.438,0.438,0.438,0.438,0.438,0.439,0.438,0.438,0.437,0.436625,0.436,0.435,0.435,0.434,0.433,0.0,0.0,0.0,0.0,0.434,0.434,0.434,0.435,0.0,0.0,0.0,0.436,0.436,0.436,0.436,0.435,0.434,0.434,0.434,0.432,0.431,0.431,0.43,0.0,0.429,0.43,0.429,0.428,0.429,0.429,0.429,0.429,0.429,0.429,0.428,0.428,0.426,0.426,0.426,0.426,0.426,0.426,0.426,0.426,0.426,0.426,0.426,0.427,0.4275,0.0,0.0,0.431,0.433,0.435,0.435,0.435,0.434,0.432,0.428,0.426,0.425,0.424,0.424,0.42,0.42,0.42,0.419,0.419,0.419,0.419,0.42,0.42,0.421,0.421,0.42,0.42,0.418,0.417,0.416,0.415,0.413,0.412,0.412,0.411,0.411,0.411,0.411,0.41,0.409,0.407,0.406,0.405,0.404,0.403,0.402,0.402,0.402,0.402,0.402,0.401,0.401,0.401,0.391,0.401,0.0,0.0,0.0,0.0,0.0,0.362,0.362,0.362,0.362,0.362,0.362,0.362,0.362,0.362,0.362,0.362,0.362,0.362,0.362,0.362,0.362,0.362,0.362,0.362,0.362,0.362,0.361,0.361,0.361,0.361,0.361,0.361,0.361,0.361,0.361,0.361,0.36,0.36,0.36,0.36,0.36,0.36,0.36,0.36,0.36,0.36,0.36,0.36,0.361,0.36,0.361,0.361,0.361,0.361,0.361,0.361,0.361,0.361,0.361,0.361,0.361,0.361,0.361,0.361,0.361,0.361,0.362,0.362,0.362,0.362,0.362,0.362,0.362,0.362,0.362,0.362,0.362,0.362,0.362,0.362,0.362,0.362,0.362,0.363,0.363,0.364,0.364,0.365,0.365,0.366,0.366,0.366,0.367,0.367,0.36724999999999997,0.368,0.368,0.369,0.369,0.37,0.371,0.372,0.373,0.3735,0.374,0.375,0.376,0.377,0.379,0.381,0.383,0.385,0.385,0.386,0.388,0.388,0.388,0.389,0.388,0.388,0.388,0.388,0.388,0.388,0.387,0.387,0.387,0.386,0.386,0.386,0.386,0.386,0.386,0.387,0.387,0.388,0.388,0.388,0.388,0.389,0.39,0.389,0.389,0.389,0.385,0.0,0.3845,0.3825,0.381625,0.381,0.381,0.38075,0.381,0.38,0.38,0.381,0.381,0.381,0.381,0.381,0.381,0.381,0.381,0.381,0.381,0.381,0.382,0.382,0.38225,0.383,0.0,0.0,0.0,0.0,0.0,0.0,0.0,0.0,0.0,0.0,0.0,0.0,0.0,0.0,0.0,0.0,0.0,0.0,0.0,0.0,0.0,0.0,0.0,0.0,0.0,0.0,0.0,0.0,0.0,0.0
0.476,0.477,0.478,0.478,0.479,0.479,0.479,0.48,0.48,0.481,0.481,0.481,0.482,0.482,0.482,0.482,0.482,0.482,0.482,0.482,0.481,0.481,0.481,0.48,0.479,0.479,0.48,0.48,0.48,0.48,0.48,0.48,0.479,0.479,0.477,0.476,0.476,0.475,0.475,0.475,0.475,0.475,0.475,0.475,0.475,0.476,0.476,0.476,0.48,0.48,0.48,0.48,0.48,0.48,0.48,0.48,0.481,0.481,0.4815,0.482,0.482,0.483,0.484,0.4845,0.485,0.487,0.487,0.488,0.488,0.487,0.475,0.471,0.469,0.464,0.463,0.464,0.465,0.466,0.467,0.467,0.468,0.468,0.468,0.468,0.467,0.467,0.466,0.465,0.0,0.465,0.46375000000000005,0.463,0.463,0.463,0.463,0.462,0.4625,0.463,0.463,0.463,0.463,0.463,0.463,0.463,0.463,0.463,0.4625,0.46325000000000005,0.464,0.464,0.463,0.462,0.461,0.46,0.46,0.459,0.458,0.458,0.458,0.458,0.456,0.4545,0.45387500000000003,0.453,0.453,0.4525,0.452,0.452,0.452,0.452,0.452,0.451,0.45,0.45,0.449,0.448,0.448,0.448,0.44875000000000004,0.449,0.449,0.45,0.44975000000000004,0.449,0.449,0.448,0.449,0.449,0.449,0.448,0.448,0.448,0.44775000000000004,0.447,0.447,0.446,0.446,0.444,0.44475,0.446,0.446,0.446,0.445,0.445,0.445,0.445,0.446,0.445,0.444,0.443,0.4435,0.444,0.445,0.445,0.444,0.0,0.0,0.444,0.443,0.442,0.442,0.441,0.441,0.44,0.439,0.438,0.438,0.438,0.437,0.437,0.437,0.437,0.436,0.436,0.442,0.441,0.44,0.44,0.441,0.443,0.442,0.441,0.441,0.441,0.44,0.44,0.439,0.438,0.438,0.43775000000000003,0.437,0.436,0.436,0.436,0.436,0.436,0.436,0.43587499999999996,0.436,0.435,0.434,0.433,0.434,0.434,0.434,0.434,0.435,0.436,0.436,0.435,0.435,0.432,0.432,0.431,0.43,0.43,0.43,0.43,0.43,0.431,0.431,0.431,0.431,0.431,0.432,0.4315,0.0,0.0,0.0,0.0,0.0,0.0,0.0,0.0,0.429,0.0,0.429,0.428,0.427,0.4265,0.426,0.4255,0.425,0.425,0.425,0.425,0.425,0.425,0.426,0.426,0.425,0.425,0.425,0.425,0.425,0.424,0.424,0.424,0.424,0.424,0.424,0.424,0.424,0.423,0.423,0.424,0.424,0.0,0.0,0.0,0.0,0.431,0.434,0.0,0.0,0.424,0.423,0.4215,0.420875,0.421,0.419,0.417,0.416,0.416,0.416,0.415,0.415,0.415,0.416,0.416,0.417,0.417,0.417,0.417,0.416,0.416,0.414,0.413,0.412,0.411,0.411,0.411,0.411,0.411,0.41,0.409,0.407,0.406,0.406,0.405,0.404,0.403,0.402,0.401,0.401,0.401,0.401,0.401,0.4,0.4,0.4,0.399,0.0,0.0,0.0,0.0,0.0,0.0,0.0,0.362,0.362,0.362,0.362,0.362,0.362,0.362,0.362,0.363,0.363,0.363,0.363,0.362,0.362,0.362,0.362,0.362,0.362,0.362,0.362,0.362,0.362,0.362,0.362,0.362,0.362,0.362,0.362,0.362,0.361,0.361,0.361,0.361,0.361,0.361,0.361,0.361,0.361,0.36,0.361,0.361,0.361,0.361,0.361,0.362,0.362,0.362,0.362,0.362,0.362,0.362,0.361,0.362,0.362,0.362,0.362,0.362,0.362,0.362,0.362,0.362,0.362,0.362,0.362,0.363,0.363,0.363,0.363,0.363,0.363,0.364,0.364,0.364,0.363,0.364,0.364,0.364,0.365,0.365,0.365,0.366,0.366,0.366,0.3665,0.367,0.368,0.368,0.368,0.369,0.0,0.0,0.3705,0.3715,0.372125,0.373,0.374,0.374375,0.375,0.376,0.377,0.378,0.38,0.381,0.382,0.384,0.385,0.386,0.387,0.388,0.388,0.388,0.388,0.388,0.388,0.388,0.387,0.386,0.386,0.386,0.385,0.385,0.385,0.385,0.385,0.385,0.385,0.385,0.385,0.385,0.385,0.385,0.3845,0.383625,0.382,0.382,0.382,0.38,0.38,0.38,0.38,0.379,0.378,0.378,0.378,0.378,0.378,0.378,0.378,0.378,0.379,0.38,0.38,0.38,0.381,0.381,0.381,0.381,0.381,0.381,0.381,0.381,0.381,0.381,0.381,0.0,0.0,0.0,0.0,0.0,0.0,0.0,0.0,0.0,0.0,0.0,0.0,0.0,0.0,0.0,0.0,0.0,0.0,0.0,0.0,0.0,0.0,0.0,0.0,0.0,0.0,0.0,0.0,0.0
0.475,0.476,0.476,0.476,0.476,0.476,0.476,0.476,0.477,0.477,0.477,0.477,0.478,0.478,0.478,0.477,0.477,0.478,0.478,0.477,0.477,0.477,0.476,0.476,0.476,0.476,0.476,0.476,0.476,0.476,0.476,0.476,0.476,0.473,0.472,0.0,0.471,0.47,0.469,0.469,0.47,0.47,0.47,0.471,0.471,0.471,0.471,0.471,0.471,0.471,0.476,0.476,0.476,0.472,0.472,0.474,0.476,0.476,0.476,0.476,0.47624999999999995,0.476,0.0,0.0,0.475,0.475,0.0,0.0,0.472,0.4695,0.462,0.458,0.459,0.461,0.462,0.463,0.463,0.464,0.465,0.465,0.465,0.465,0.464,0.464,0.464,0.463,0.4625,0.462,0.462,0.462,0.46,0.459,0.458,0.458,0.458,0.458,0.458,0.458,0.458,0.458,0.458,0.458,0.458,0.458,0.458,0.458,0.458,0.0,0.4575,0.457,0.456,0.456,0.456,0.456,0.456,0.455,0.455,0.455,0.4545,0.453,0.452,0.452,0.451,0.451,0.45,0.449125,0.448,0.448,0.448,0.448,0.447,0.446,0.446,0.446,0.446,0.446,0.446,0.446,0.446,0.446,0.446,0.447,0.447,0.447,0.447,0.446,0.447,0.447,0.447,0.446,0.446,0.445,0.445,0.443,0.442,0.442,0.44225000000000003,0.441,0.442,0.442,0.441,0.442,0.442,0.442,0.442,0.442,0.442,0.442,0.441,0.441,0.441,0.441,0.441,0.441,0.441,0.0,0.0,0.441,0.441,0.439,0.437,0.436,0.4365,0.43562500000000004,0.435,0.435,0.435,0.4345,0.434,0.434,0.433,0.433,0.433,0.432,0.434,0.436,0.436,0.432,0.437,0.437,0.0,0.0,0.0,0.437,0.0,0.4375,0.436875,0.436,0.436,0.435,0.436,0.0,0.0,0.4335,0.434,0.433,0.432,0.432,0.431,0.43,0.4305,0.431,0.431,0.431,0.431,0.431,0.431,0.431,0.431,0.431,0.0,0.0,0.43,0.429,0.427,0.427,0.428,0.427,0.428,0.428,0.428,0.428,0.427,0.428,0.428,0.428,0.428,0.428,0.0,0.0,0.0,0.0,0.0,0.0,0.424,0.424,0.424,0.0,0.0,0.0,0.423,0.422,0.421,0.421,0.421,0.421,0.422,0.422,0.422,0.0,0.0,0.0,0.423,0.421,0.421,0.421,0.421,0.421,0.421,0.421,0.421,0.421,0.421,0.42,0.42025,0.421,0.421,0.0,0.0,0.0,0.0,0.0,0.0,0.0,0.0,0.416,0.418,0.417,0.416,0.413,0.413,0.413,0.412,0.412,0.412,0.412,0.412,0.413,0.4135,0.414,0.0,0.4155,0.415,0.414,0.413,0.413,0.412,0.41175,0.411,0.411,0.411,0.41,0.41,0.409,0.409,0.407,0.406,0.406,0.404,0.404,0.402,0.402,0.401,0.401,0.4,0.4,0.4,0.4,0.399,0.399,0.398,0.398,0.0,0.0,0.0,0.0,0.0,0.0,0.0,0.0,0.362,0.362,0.362,0.362,0.363,0.363,0.363,0.363,0.363,0.363,0.363,0.363,0.363,0.362,0.362,0.362,0.362,0.362,0.362,0.362,0.362,0.362,0.362,0.362,0.362,0.362,0.362,0.362,0.362,0.362,0.362,0.362,0.362,0.362,0.361,0.361,0.361,0.36150000000000004,0.362,0.362,0.362,0.362,0.362,0.362,0.362,0.362,0.362,0.362,0.362,0.362,0.362,0.362,0.362,0.362,0.362,0.362,0.362,0.363,0.363,0.363,0.363,0.363,0.364,0.364,0.364,0.364,0.365,0.365,0.365,0.365,0.365,0.365,0.365,0.365,0.365,0.365,0.366,0.366,0.366,0.366,0.3665,0.367,0.367,0.368,0.369,0.369,0.369,0.37,0.0,0.0,0.372,0.373,0.373,0.374,0.3745,0.375,0.376,0.377,0.377,0.378,0.38,0.381,0.38175000000000003,0.383,0.384,0.385,0.386,0.387,0.388,0.388,0.388,0.388,0.388,0.387,0.387,0.386,0.385,0.385,0.384,0.384,0.383,0.382,0.382,0.383,0.383,0.383,0.383,0.383,0.382,0.382,0.381,0.379,0.378,0.377,0.377,0.376,0.376,0.377,0.376,0.376,0.377,0.377,0.376,0.376,0.377,0.377,0.377,0.377,0.377,0.378,0.378,0.379,0.38,0.38,0.38,0.381,0.38,0.38,0.379,0.378,0.378,0.378,0.0,0.0,0.0,0.0,0.0,0.0,0.0,0.0,0.0,0.0,0.0,0.0,0.0,0.0,0.0,0.0,0.0,0.0,0.0,0.0,0.0,0.0,0.0,0.0,0.0,0.0,0.0,0.0,0.0,0.0
0.473,0.473,0.473,0.473,0.474,0.474,0.474,0.475,0.475,0.475,0.475,0.475,0.475,0.475,0.475,0.475,0.475,0.475,0.47475,0.475,0.475,0.474,0.474,0.473,0.473,0.473,0.473,0.473,0.473,0.475,0.475,0.471,0.469,0.46799999999999997,0.4675,0.46675,0.466,0.465,0.466,0.467,0.468,0.468,0.468,0.468,0.46824999999999994,0.469,0.469,0.469,0.46799999999999997,0.4675,0.467,0.467,0.467,0.464,0.464,0.469,0.46950000000000003,0.47,0.472,0.47175,0.471,0.4665,0.0,0.0,0.46499999999999997,0.0,0.0,0.0,0.456,0.457,0.457,0.457,0.458,0.458,0.46,0.461,0.463,0.463,0.46275,0.464,0.464,0.464,0.462,0.463,0.461,0.459,0.459,0.459,0.458,0.458,0.457,0.456,0.456,0.455,0.455,0.454,0.454,0.454,0.454,0.4545,0.455,0.455,0.454,0.453,0.453,0.452,0.0,0.0,0.451,0.451,0.451,0.4515,0.452,0.452,0.452,0.452,0.452,0.452,0.452,0.451,0.45,0.448,0.447,0.447,0.447,0.446,0.44625,0.446,0.446,0.446,0.446,0.445,0.444,0.44375000000000003,0.443,0.443,0.4435,0.443375,0.443,0.444,0.444,0.445,0.445,0.4445,0.444625,0.445,0.445,0.445,0.444,0.443,0.442,0.441,0.441,0.44025,0.44,0.44,0.44,0.44,0.44,0.439,0.439,0.439,0.439,0.439,0.439,0.439,0.439,0.439,0.439,0.439,0.439,0.439,0.44,0.44,0.44,0.439,0.439,0.439,0.436,0.435,0.434,0.433,0.432,0.431,0.431,0.431,0.4305,0.43024999999999997,0.43,0.43,0.43,0.43,0.4295,0.4285,0.4295,0.4305,0.43012500000000004,0.429,0.43,0.43,0.0,0.0,0.0,0.432,0.4335,0.435,0.435,0.435,0.434,0.434,0.434,0.0,0.0,0.431,0.431,0.43,0.43,0.43,0.428,0.427,0.427,0.428,0.427,0.428,0.428,0.428,0.428,0.428,0.429,0.429,0.0,0.0,0.428,0.427,0.426,0.426,0.426,0.425,0.425,0.425,0.425,0.424,0.424,0.424,0.424,0.424,0.423,0.422,0.0,0.0,0.421,0.0,0.0,0.421,0.421,0.42,0.42,0.0,0.0,0.0,0.42,0.418,0.418,0.419,0.419,0.419,0.42,0.42,0.42,0.0,0.0,0.0,0.421,0.421,0.421,0.41974999999999996,0.42,0.42,0.42,0.42,0.42,0.419,0.418,0.417,0.417,0.417,0.418,0.0,0.0,0.0,0.0,0.0,0.0,0.0,0.0,0.0,0.411,0.411,0.411,0.4105,0.41,0.41,0.41,0.41,0.41,0.41,0.41,0.411,0.0,0.0,0.0,0.414,0.0,0.0,0.412,0.413,0.412,0.411,0.41,0.409,0.408,0.408,0.409,0.407,0.406,0.406,0.403,0.402,0.402,0.402,0.401,0.4,0.399,0.399,0.399,0.399,0.398,0.398,0.398,0.398,0.397,0.397,0.397,0.0,0.0,0.394,0.393,0.0,0.0,0.0,0.0,0.389,0.389,0.388,0.375,0.3745,0.37124999999999997,0.368,0.0,0.3675,0.365,0.365,0.365,0.365,0.365,0.365,0.364,0.364,0.364,0.363,0.363,0.363,0.362,0.362,0.362,0.363,0.363,0.363,0.363,0.362,0.363,0.363,0.363,0.363,0.363,0.363,0.363,0.363,0.363,0.362,0.362,0.362,0.363,0.363,0.362,0.362,0.36275,0.363,0.363,0.363,0.362,0.362,0.363,0.363,0.363,0.363,0.363,0.36349999999999993,0.364,0.364,0.364,0.36425,0.365,0.365,0.365,0.366,0.366,0.366,0.366,0.366,0.366,0.366,0.366,0.366,0.366,0.366,0.366,0.36675,0.367,0.367,0.367,0.368,0.368,0.369,0.369,0.369,0.37,0.37,0.371,0.372,0.373,0.373,0.374,0.3745,0.375,0.376,0.377,0.377,0.377,0.379,0.38,0.381,0.381,0.382,0.383,0.384,0.385,0.385,0.386,0.386,0.387,0.387,0.387,0.387,0.386,0.385,0.385,0.383,0.38225,0.382,0.381,0.381,0.381,0.381,0.381,0.381,0.381,0.381,0.38,0.379,0.377,0.377,0.377,0.376,0.375,0.375,0.374,0.374,0.374,0.374,0.374,0.374,0.3745,0.375,0.375,0.375,0.376,0.376,0.377,0.377,0.377,0.377,0.377,0.378,0.378,0.378,0.377,0.3765,0.0,0.0,0.0,0.0,0.0,0.0,0.0,0.0,0.0,0.0,0.0,0.0,0.0,0.0,0.0,0.0,0.0,0.0,0.0,0.0,0.0,0.0,0.0,0.0,0.0,0.0,0.0,0.0,0.0,0.0,0.0,0.0,0.0,0.0
0.471,0.471,0.471,0.471,0.471,0.471,0.471,0.471,0.472,0.471,0.471,0.472,0.47175,0.471,0.471,0.471,0.471,0.471,0.471,0.47,0.47,0.469,0.469,0.469,0.469,0.468,0.468,0.466,0.0,0.0,0.46699999999999997,0.464,0.464,0.463,0.463,0.463,0.463,0.463,0.463,0.464,0.464,0.464,0.465,0.465,0.465,0.465,0.466,0.465,0.465,0.464,0.464,0.464,0.464,0.463,0.462,0.464,0.463,0.464,0.468,0.468,0.4625,0.457,0.456,0.455,0.455,0.4555,0.456,0.456,0.456,0.456,0.45625000000000004,0.457,0.457,0.458,0.458,0.459,0.46,0.46,0.459,0.463,0.463,0.458,0.458,0.457,0.457,0.457,0.457,0.457,0.456,0.455,0.454,0.453,0.453,0.452,0.452,0.452,0.0,0.45,0.451,0.44975,0.4494375,0.449,0.4485,0.448,0.0,0.0,0.0,0.0,0.0,0.447,0.0,0.44875,0.448,0.448,0.448,0.449,0.449,0.44825000000000004,0.447,0.447,0.446,0.446,0.446,0.445,0.445,0.445,0.445,0.445,0.445,0.445,0.444,0.444,0.443,0.442,0.442,0.441,0.441,0.441,0.441,0.441,0.441,0.442,0.442,0.442,0.442,0.441,0.441,0.441,0.44,0.44,0.439,0.438,0.437,0.437,0.436,0.436,0.436,0.436,0.436,0.436,0.436,0.436,0.436,0.436,0.436,0.436,0.436,0.435,0.435,0.436,0.435,0.435,0.435,0.435,0.435,0.435,0.434,0.434,0.0,0.0,0.429,0.429,0.428,0.427,0.4275,0.426375,0.426,0.426,0.426,0.426,0.426,0.425,0.426,0.425,0.425,0.425,0.425,0.425,0.426,0.426,0.427,0.427,0.427,0.427,0.427,0.431,0.431,0.431,0.431,0.431,0.431,0.43,0.429,0.429,0.427,0.427,0.426,0.426,0.425,0.425,0.425,0.42475,0.425,0.425,0.425,0.425,0.425,0.425,0.425,0.42525,0.425,0.425,0.425,0.425,0.425,0.425,0.424,0.422,0.422,0.422,0.421,0.421,0.42,0.42,0.42,0.42,0.42,0.418,0.418,0.418,0.41775,0.417,0.417,0.417,0.417,0.417,0.416,0.416,0.416,0.416,0.416,0.416,0.416,0.416,0.416,0.416,0.416,0.416,0.416,0.416,0.417,0.416,0.416,0.417,0.417,0.417,0.417,0.416,0.416,0.4155,0.415375,0.415,0.415,0.413,0.412,0.412,0.411,0.41,0.0,0.0,0.0,0.0,0.0,0.0,0.0,0.0,0.4095,0.0,0.0,0.0,0.409,0.408,0.408,0.408,0.408,0.408,0.408,0.408,0.0,0.0,0.409,0.4095,0.0,0.0,0.411,0.411,0.407,0.407,0.406,0.406,0.4055000000000001,0.406,0.402,0.402,0.402,0.402,0.4,0.4,0.399,0.399,0.399,0.398,0.398,0.398,0.398,0.398,0.397,0.397,0.397,0.397,0.397,0.396,0.394,0.394,0.394,0.393,0.393,0.393,0.0,0.0,0.0,0.389,0.389,0.388,0.387,0.386,0.378125,0.375,0.3735,0.372,0.3695,0.367,0.367,0.367,0.366,0.367,0.367,0.367,0.366,0.366,0.366,0.365,0.364,0.364,0.364,0.364,0.364,0.364,0.364,0.364,0.364,0.364,0.365,0.365,0.365,0.365,0.365,0.365,0.365,0.365,0.365,0.364,0.365,0.364,0.364,0.364,0.364,0.364,0.364,0.364,0.364,0.364,0.364,0.364,0.364,0.364,0.364,0.364,0.365,0.365,0.365,0.365,0.366,0.366,0.366,0.366,0.366,0.366,0.367,0.367,0.367,0.367,0.367,0.367,0.367,0.367,0.368,0.368,0.368,0.368,0.369,0.369,0.369,0.369,0.369,0.37,0.37,0.371,0.372,0.373,0.373,0.374,0.3745,0.375,0.376,0.376,0.377,0.377,0.377,0.378,0.379,0.38,0.381,0.381,0.382,0.3825,0.383,0.384,0.385,0.385,0.385,0.386,0.386,0.386,0.385,0.385,0.381,0.381,0.38,0.379,0.378,0.378,0.378,0.378,0.378,0.378,0.378,0.377,0.377,0.377,0.377,0.376,0.376,0.375,0.374,0.374,0.374,0.373,0.373,0.373,0.373,0.373,0.373,0.373,0.374,0.374,0.374,0.375,0.375,0.375,0.375,0.375,0.374,0.3745,0.375,0.373,0.373,0.373,0.0,0.0,0.0,0.0,0.0,0.0,0.0,0.0,0.0,0.0,0.0,0.0,0.0,0.0,0.0,0.0,0.0,0.0,0.0,0.0,0.0,0.0,0.0,0.0,0.0,0.0,0.0,0.0,0.0,0.0,0.0,0.0,0.0,0.0
0.47,0.469,0.469,0.47,0.469,0.469,0.469,0.469,0.469,0.469,0.469,0.469,0.469,0.469,0.469,0.4675,0.46799999999999997,0.46799999999999997,0.468,0.468,0.465,0.464,0.464,0.464,0.463,0.463,0.461,0.461,0.0,0.0,0.459,0.459,0.459,0.459,0.459,0.45925000000000005,0.459,0.46,0.46,0.461,0.462,0.462,0.462,0.463,0.462,0.462,0.462,0.46,0.46,0.459,0.458,0.458,0.0,0.458,0.457,0.457,0.456,0.454,0.453,0.452,0.45487500000000003,0.455,0.454,0.453,0.454,0.455,0.455,0.454,0.455,0.455,0.455,0.455,0.456,0.457,0.457,0.457,0.457,0.456,0.456,0.456,0.4555,0.45387500000000003,0.453,0.452,0.452,0.452,0.452,0.452,0.452,0.451,0.45,0.4495,0.448,0.448,0.447,0.447,0.4465,0.446,0.446,0.445,0.444,0.444,0.44425000000000003,0.0,0.0,0.0,0.0,0.0,0.0,0.443,0.4445,0.446,0.446,0.446,0.446,0.0,0.0,0.445,0.444,0.442,0.441,0.441,0.441,0.441,0.441,0.441,0.441,0.441,0.442,0.441,0.441,0.441,0.441,0.43925,0.438,0.438,0.437,0.437,0.438,0.438,0.438,0.439,0.44,0.44,0.439,0.438,0.437,0.436,0.436,0.436,0.436,0.43474999999999997,0.434,0.0,0.4335,0.434,0.434,0.433,0.432,0.432,0.43275,0.433,0.432,0.432,0.432,0.432,0.432,0.431,0.431,0.431,0.431,0.431,0.43,0.431,0.0,0.0,0.0,0.427,0.0,0.0,0.425,0.425,0.425,0.424,0.424,0.421,0.42275,0.423,0.424,0.424,0.423,0.423,0.422,0.42275,0.423,0.424,0.42325,0.423,0.4235,0.424,0.425,0.425,0.424,0.424,0.425,0.425,0.425,0.425,0.425,0.428,0.427,0.427,0.426,0.426,0.424,0.424,0.42324999999999996,0.422,0.422,0.421,0.421,0.421,0.422,0.422,0.422,0.421,0.421,0.421,0.421,0.422,0.422,0.0,0.422,0.4215,0.421,0.421,0.42,0.42,0.42,0.419,0.419,0.418,0.4175,0.41762499999999997,0.418,0.417,0.416,0.416,0.416,0.416,0.415,0.416,0.415,0.415,0.415,0.415,0.415,0.414,0.414,0.414,0.414,0.414,0.414,0.414,0.413,0.413,0.412,0.412,0.412,0.4115,0.411,0.4115,0.41162499999999996,0.412,0.412,0.412,0.412,0.412,0.411,0.411,0.411,0.411,0.411,0.41,0.41,0.41,0.409,0.408,0.408,0.0,0.0,0.0,0.0,0.0,0.0,0.0,0.408,0.0,0.0,0.0,0.407,0.406,0.406,0.406,0.406,0.406,0.406,0.406,0.406,0.406,0.406,0.405,0.405,0.406,0.407,0.404,0.404,0.403,0.401,0.402,0.402,0.399,0.399,0.398,0.398,0.398,0.398,0.398,0.398,0.398,0.397,0.397,0.397,0.397,0.397,0.396,0.396,0.396,0.394,0.394,0.3945000000000001,0.394,0.394,0.393,0.393,0.393,0.393,0.392,0.0,0.0,0.0,0.389,0.388,0.387,0.386,0.385,0.385,0.382,0.381,0.381,0.37475,0.3735,0.3735,0.373,0.371,0.3705,0.36975,0.369,0.369,0.368,0.368,0.367,0.366,0.366,0.366,0.366,0.366,0.366,0.366,0.366,0.366,0.366,0.366,0.366,0.366,0.366,0.366,0.366,0.366,0.366,0.366,0.366,0.366,0.366,0.366,0.366,0.365,0.365,0.365,0.365,0.365,0.365,0.365,0.365,0.365,0.365,0.365,0.365,0.365,0.366,0.366,0.366,0.366,0.367,0.367,0.368,0.368,0.368,0.368,0.369,0.369,0.369,0.369,0.369,0.369,0.369,0.369,0.369,0.369,0.369,0.369,0.369,0.369,0.369,0.369,0.37,0.37,0.371,0.373,0.373,0.373,0.374,0.37412500000000004,0.375,0.376,0.376,0.376,0.377,0.377,0.377,0.377,0.378,0.379,0.381,0.381,0.381,0.382,0.0,0.0,0.0,0.0,0.0,0.0,0.381,0.379,0.377,0.376,0.376,0.376,0.376,0.376,0.376,0.376,0.376,0.376,0.375,0.376,0.375,0.375,0.374,0.374,0.374,0.374,0.374,0.373,0.373,0.373,0.373,0.373,0.373,0.373,0.373,0.373,0.373,0.373,0.373,0.373,0.373,0.373,0.373,0.373,0.0,0.37,0.371,0.37,0.37,0.369,0.369,0.369,0.369,0.369,0.0,0.0,0.0,0.0,0.0,0.0,0.0,0.0,0.0,0.0,0.0,0.0,0.0,0.0,0.0,0.0,0.0,0.0,0.0,0.0,0.0,0.0,0.0,0.0,0.0,0.0,0.0,0.0,0.0,0.0,0.0
0.467,0.467,0.467,0.467,0.466,0.466,0.466,0.466,0.466,0.466,0.466,0.465,0.465,0.465,0.465,0.464,0.465,0.465,0.464,0.463,0.462,0.461,0.46,0.458,0.458,0.457,0.456,0.456,0.4545,0.453,0.453,0.453,0.454,0.456,0.456,0.456,0.457,0.457,0.458,0.458,0.458,0.458,0.458,0.458,0.458,0.458,0.457,0.457,0.457,0.456,0.454,0.454,0.4535,0.453,0.452,0.452,0.452,0.451,0.451,0.45,0.45,0.45,0.45,0.452,0.452,0.453,0.453,0.453,0.453,0.453,0.454,0.453,0.453,0.453,0.454,0.454,0.453,0.0,0.0,0.449,0.448,0.449,0.449,0.448,0.449,0.4495,0.451,0.451,0.449,0.448,0.44675000000000004,0.447,0.446,0.445,0.442,0.442,0.441,0.441,0.441,0.441,0.441,0.4405,0.44,0.44,0.44,0.441,0.441,0.441,0.441,0.441,0.442,0.443,0.443,0.442,0.0,0.0,0.0,0.44,0.441,0.438,0.438,0.439,0.439,0.439,0.439,0.439,0.44,0.44,0.44,0.44,0.44,0.438,0.43674999999999997,0.436,0.436,0.435,0.434,0.435,0.435,0.435,0.435,0.435,0.436,0.436,0.435,0.434,0.434,0.433,0.432,0.432,0.431,0.431,0.431,0.431,0.431,0.431,0.431,0.431,0.431,0.43,0.43,0.431,0.43,0.43,0.43,0.43,0.43,0.0,0.4285,0.43,0.428,0.427,0.427,0.427,0.0,0.0,0.0,0.424,0.423,0.422,0.421,0.421,0.421,0.421,0.42,0.421,0.421,0.421,0.421,0.421,0.421,0.421,0.421,0.421,0.421,0.421,0.421,0.421,0.421,0.422,0.422,0.422,0.422,0.423,0.423,0.0,0.0,0.0,0.0,0.425,0.424,0.421,0.42,0.42,0.421,0.421,0.421,0.421,0.42,0.42,0.42,0.42,0.42,0.42,0.42,0.42,0.419,0.419,0.419,0.419,0.419,0.419,0.419,0.418,0.417,0.416,0.416,0.416,0.416,0.415,0.415,0.415,0.415,0.415,0.415,0.415,0.415,0.415,0.415,0.415,0.414,0.414,0.414,0.414,0.413,0.413,0.412,0.412,0.413,0.412,0.412,0.412,0.412,0.411,0.411,0.41,0.409,0.409,0.40900000000000003,0.0,0.0,0.407,0.407,0.408,0.408,0.408,0.408,0.408,0.408,0.40775,0.407,0.407,0.407,0.40725,0.407,0.407,0.407,0.407,0.406,0.407,0.407,0.408,0.0,0.0,0.0,0.407,0.407,0.407,0.406,0.406,0.406,0.405,0.405,0.404,0.403,0.402,0.402,0.402,0.402,0.402,0.402,0.402,0.402,0.397,0.397,0.397,0.397,0.401,0.397,0.397,0.397,0.397,0.396,0.397,0.397,0.397,0.396,0.396,0.396,0.396,0.396,0.395,0.394,0.394,0.394,0.394,0.39375,0.393,0.393,0.393,0.393,0.393,0.393,0.393,0.393,0.392,0.392,0.392,0.391,0.391,0.389,0.389,0.388,0.387,0.385,0.385,0.383,0.381,0.381,0.381,0.38,0.38,0.38,0.379,0.376,0.374,0.371875,0.371,0.371,0.3705,0.3705,0.369625,0.369,0.368,0.368,0.367,0.367,0.367,0.367,0.367,0.367,0.367,0.368,0.368,0.368,0.369,0.369,0.369,0.369,0.369,0.368,0.368,0.367,0.367,0.367,0.366,0.366,0.366,0.366,0.366,0.366,0.365,0.365,0.365,0.365,0.365,0.366,0.366,0.366,0.366,0.366,0.367,0.367,0.368,0.369,0.369,0.369,0.369,0.369,0.369,0.369,0.369,0.369,0.369,0.369,0.369,0.369,0.369,0.369,0.369,0.369,0.369,0.369,0.369,0.369,0.369,0.37,0.37,0.371,0.372,0.373,0.373,0.373,0.374,0.374,0.3745,0.375,0.37549999999999994,0.376,0.376,0.377,0.377,0.377,0.378,0.378,0.378,0.378,0.0,0.0,0.0,0.0,0.0,0.0,0.0,0.0,0.0,0.372,0.371,0.372,0.372,0.372,0.372,0.372,0.372,0.37274999999999997,0.373,0.373,0.372,0.372,0.371,0.372,0.372,0.373,0.373,0.373,0.373,0.373,0.373,0.373,0.373,0.373,0.372,0.372,0.372,0.372,0.372,0.372,0.371,0.371,0.37,0.0,0.0,0.366,0.366,0.366,0.366,0.366,0.366,0.366,0.365,0.366,0.0,0.0,0.0,0.0,0.0,0.0,0.0,0.0,0.0,0.0,0.0,0.0,0.0,0.0,0.0,0.0,0.0,0.0,0.0,0.0,0.0,0.0,0.0,0.0,0.0,0.0,0.0,0.0,0.0,0.0,0.0
0.464,0.463,0.463,0.463,0.463,0.463,0.464,0.463,0.463,0.463,0.463,0.463,0.463,0.463,0.463,0.463,0.463,0.462,0.46,0.459,0.45775000000000005,0.457,0.455,0.454,0.453,0.452,0.452,0.452,0.452,0.452,0.452,0.452,0.452,0.453,0.453,0.454,0.454,0.455,0.455,0.455,0.456,0.4555,0.455125,0.455,0.455,0.455,0.453,0.4525,0.452,0.452,0.452,0.452,0.452,0.452,0.0,0.0,0.45,0.0,0.4485,0.448125,0.448,0.448,0.448,0.451,0.451,0.452,0.452,0.452,0.453,0.453,0.453,0.453,0.452,0.452,0.452,0.452,0.447,0.0,0.0,0.442,0.443,0.443,0.444,0.44475,0.446,0.446,0.446,0.446,0.445,0.4435,0.442,0.441,0.441,0.44,0.44,0.439,0.439,0.438,0.437,0.437,0.438,0.437,0.437,0.437,0.438,0.438,0.438,0.438,0.437,0.4375,0.438,0.44,0.441,0.436,0.436,0.436,0.0,0.0,0.0,0.0,0.435,0.436,0.436,0.436,0.436,0.436,0.437,0.437,0.436,0.436,0.436,0.435,0.432,0.431,0.431,0.43,0.431,0.431,0.431,0.431,0.431,0.431,0.431,0.431,0.431,0.431,0.43,0.43,0.42975,0.429,0.429,0.429,0.429,0.429,0.429,0.429,0.429,0.429,0.429,0.429,0.429,0.429,0.429,0.429,0.427,0.427,0.427,0.4265,0.426,0.426,0.4245,0.4235,0.0,0.4235,0.0,0.0,0.42,0.42,0.42,0.42,0.42,0.42,0.42,0.42,0.419,0.419,0.419,0.419,0.42,0.42,0.42,0.42,0.419,0.42,0.42,0.42,0.42,0.42,0.42,0.421,0.421,0.421,0.42,0.421,0.42,0.0,0.0,0.0,0.0,0.0,0.0,0.4185,0.419,0.419,0.42,0.416,0.416,0.416,0.419,0.418,0.418,0.418,0.418,0.417,0.417,0.416,0.416,0.416,0.416,0.415,0.415,0.0,0.0,0.4145,0.414,0.414,0.412,0.412,0.412,0.412,0.411,0.411,0.411,0.411,0.411,0.412,0.412,0.413,0.413,0.413,0.413,0.413,0.413,0.413,0.412,0.411,0.411,0.411,0.411,0.411,0.411,0.41,0.41,0.409,0.407,0.407,0.407,0.406,0.406,0.0,0.0,0.0,0.0,0.40549999999999997,0.405,0.0,0.405,0.405,0.405,0.405,0.40449999999999997,0.40449999999999997,0.40462499999999996,0.405,0.405,0.405,0.405,0.405,0.40475000000000005,0.406,0.406,0.407,0.407,0.407,0.407,0.406,0.406,0.406,0.404,0.403,0.404,0.404,0.403,0.402,0.402,0.402,0.401,0.398,0.397,0.399,0.397,0.397,0.396,0.396,0.395,0.394,0.394,0.394,0.395,0.395,0.394,0.394,0.394,0.394,0.394,0.394,0.394,0.394,0.394,0.393,0.393,0.393,0.393,0.393,0.393,0.392,0.392,0.392,0.392,0.392,0.392,0.392,0.392,0.392,0.392,0.392,0.391,0.391,0.391,0.391,0.389,0.389,0.387,0.386,0.385,0.385,0.382,0.381,0.381,0.38,0.38,0.38,0.379,0.379,0.377,0.375,0.374,0.373,0.373,0.373,0.373,0.372,0.3705,0.369625,0.369,0.369,0.369,0.369,0.0,0.0,0.368,0.369,0.369,0.369,0.369,0.37,0.37,0.37,0.37,0.37,0.369,0.369,0.369,0.36849999999999994,0.368,0.368,0.367,0.366,0.366,0.366,0.366,0.366,0.366,0.366,0.366,0.366,0.366,0.366,0.366,0.366,0.367,0.367,0.368,0.369,0.369,0.369,0.369,0.369,0.37,0.37,0.37,0.37,0.37,0.37,0.37,0.369,0.369,0.369,0.369,0.369,0.369,0.369,0.369,0.369,0.369,0.369,0.369,0.369,0.37,0.371,0.371,0.372,0.373,0.373,0.373,0.373,0.374,0.374,0.374,0.374,0.374,0.374,0.374,0.374,0.374,0.376,0.3735,0.0,0.0,0.0,0.0,0.0,0.0,0.0,0.0,0.0,0.369,0.369,0.369,0.37,0.37,0.37,0.37,0.37,0.37,0.37024999999999997,0.37,0.3695,0.0,0.0,0.0,0.37,0.372,0.372,0.372,0.372,0.372,0.372,0.373,0.372,0.372,0.372,0.371,0.371,0.371,0.371,0.37,0.369,0.369,0.368,0.365,0.362,0.362,0.362,0.362,0.362,0.364,0.363,0.362,0.363,0.0,0.0,0.0,0.0,0.0,0.0,0.0,0.0,0.0,0.0,0.0,0.0,0.0,0.0,0.0,0.0,0.0,0.0,0.0,0.0,0.0,0.0,0.0,0.0,0.0,0.0,0.0,0.0,0.0,0.0,0.0,0.0
0.461,0.461,0.461,0.46,0.46,0.459,0.459,0.459,0.459,0.459,0.459,0.459,0.46,0.46,0.46,0.46,0.46,0.46,0.457,0.454,0.453,0.452,0.452,0.451,0.45,0.449,0.449,0.45,0.451,0.451,0.451,0.451,0.452,0.452,0.452,0.452,0.452,0.453,0.453,0.452,0.452,0.453,0.452,0.452,0.452,0.452,0.45,0.0,0.4485,0.448,0.448,0.0,0.0,0.449,0.0,0.0,0.448,0.447,0.446,0.446,0.446,0.4455,0.445625,0.446,0.4475,0.44925000000000004,0.451,0.451,0.452,0.452,0.45,0.4505,0.451,0.447,0.0,0.4455,0.442,0.441,0.441,0.441,0.441,0.44075000000000003,0.441,0.441,0.442,0.442,0.0,0.0,0.44,0.0,0.4385,0.43737499999999996,0.436,0.436,0.4365,0.436,0.436,0.436,0.435,0.435,0.435,0.435,0.434,0.434,0.435,0.434,0.433,0.433,0.434,0.434125,0.435,0.431,0.431,0.431,0.431,0.43,0.0,0.0,0.0,0.0,0.431,0.431,0.432,0.433,0.433,0.433,0.43274999999999997,0.432,0.431,0.431,0.431,0.43,0.428,0.4275,0.42725,0.427,0.428,0.428,0.4285,0.429,0.429,0.43,0.43,0.43,0.4295,0.428625,0.429,0.429,0.428,0.427,0.426,0.426,0.426,0.426,0.426,0.426,0.425,0.425,0.425,0.425,0.425,0.425,0.425,0.425,0.424,0.424,0.424,0.424,0.424,0.422,0.421,0.42,0.42,0.42,0.4185,0.417,0.416,0.416,0.416,0.416,0.416,0.416,0.416,0.416,0.416,0.417,0.417,0.417,0.418,0.418,0.418,0.418,0.417,0.417,0.417,0.417,0.416,0.416,0.417,0.417,0.416,0.416,0.416,0.416,0.417,0.417,0.418,0.0,0.0,0.0,0.0,0.416,0.416,0.416,0.416,0.415,0.415,0.415,0.415,0.415,0.415,0.415,0.414,0.414,0.415,0.415,0.414,0.413,0.412,0.411,0.411,0.0,0.0,0.411,0.0,0.4105,0.411,0.41,0.41,0.41,0.409,0.409,0.40875,0.409,0.4095,0.41,0.0,0.0,0.41,0.0,0.0,0.411,0.411,0.411,0.411,0.411,0.41,0.41,0.41,0.409,0.408,0.40725,0.407,0.406,0.406,0.405,0.404,0.404,0.404,0.403,0.0,0.0,0.0,0.403,0.402,0.402,0.402,0.402,0.402,0.402,0.402,0.402,0.402,0.402,0.402,0.402,0.402,0.402,0.402,0.403,0.404,0.0,0.0,0.405,0.398,0.398,0.39975000000000005,0.399,0.39875000000000005,0.399,0.4,0.4,0.397,0.4,0.397,0.397,0.397,0.397,0.396,0.395,0.395,0.395,0.394,0.394,0.394,0.393,0.393,0.393,0.393,0.393,0.393,0.393,0.392,0.393,0.393,0.392,0.392,0.392,0.392,0.391,0.391,0.391,0.39,0.39,0.39,0.39,0.39,0.39025,0.39,0.39,0.39,0.39,0.39,0.39,0.391,0.391,0.391,0.391,0.391,0.389,0.389,0.388,0.386,0.385,0.385,0.382,0.381,0.381,0.381,0.38,0.38,0.38,0.379,0.378,0.377,0.376,0.376,0.375,0.374,0.373,0.373,0.372,0.372,0.371,0.3705,0.37,0.3695,0.3695,0.0,0.0,0.369,0.369,0.37,0.37,0.371,0.371,0.371,0.371,0.372,0.371,0.371,0.37,0.37,0.37,0.369,0.36849999999999994,0.368,0.367,0.367,0.366,0.366,0.366,0.366,0.366,0.366,0.366,0.366,0.366,0.366,0.367,0.367,0.368,0.368,0.369,0.369,0.369,0.37,0.37,0.37,0.37,0.37,0.37,0.37,0.37,0.37,0.37,0.369,0.369,0.369,0.369,0.369,0.369,0.368,0.368,0.368,0.369,0.369,0.369,0.369,0.369,0.369,0.37,0.37,0.371,0.371,0.371,0.372,0.372,0.372,0.372,0.371,0.371,0.371,0.37,0.37,0.369,0.369,0.366,0.364,0.3645,0.365,0.365,0.366,0.366,0.0,0.0,0.366,0.367,0.368,0.369,0.369,0.369,0.369,0.369,0.368,0.368,0.367,0.367,0.0,0.0,0.0,0.3675,0.37,0.37,0.371,0.371,0.371,0.372,0.372,0.372,0.372,0.371,0.371,0.371,0.371,0.37,0.369,0.368,0.367,0.366,0.365,0.362,0.362,0.361,0.361,0.361,0.362,0.362,0.362,0.0,0.0,0.0,0.0,0.0,0.0,0.0,0.0,0.0,0.0,0.0,0.0,0.0,0.0,0.0,0.0,0.0,0.0,0.0,0.0,0.0,0.0,0.0,0.0,0.0,0.0,0.0,0.0,0.0,0.0,0.0,0.0,0.0
0.459,0.459,0.458,0.458,0.458,0.458,0.457,0.457,0.457,0.457,0.457,0.0,0.0,0.456,0.458,0.458,0.4555,0.453,0.0,0.0,0.4495,0.449,0.448,0.447,0.447,0.447,0.447,0.448,0.448,0.448,0.448,0.44875000000000004,0.449,0.449,0.45,0.451,0.451,0.451,0.45,0.44925000000000004,0.449,0.448,0.447,0.447,0.446,0.446,0.446,0.4455,0.445,0.444,0.444,0.0,0.0,0.446,0.445,0.446,0.446,0.446,0.446,0.444,0.444,0.443,0.443,0.444,0.444,0.0,0.0,0.45,0.4505,0.451,0.447,0.448,0.449,0.449,0.444,0.439,0.438,0.437,0.437,0.437,0.437,0.438,0.43724999999999997,0.438,0.439,0.0,0.0,0.0,0.0,0.0,0.435,0.434,0.434,0.434,0.434,0.434,0.434,0.433,0.433,0.433,0.432,0.432,0.431,0.431,0.431,0.431,0.431,0.431,0.431,0.43,0.428,0.427,0.426,0.426,0.426,0.426,0.426,0.426,0.426,0.427,0.427,0.428,0.429,0.43,0.43,0.43,0.429,0.428,0.427,0.426,0.426,0.426,0.425,0.424,0.4245625,0.425,0.425,0.426,0.426,0.426,0.4265,0.428,0.428,0.429,0.428,0.425,0.424,0.423,0.422,0.424,0.424,0.423,0.424,0.425,0.424,0.421,0.421,0.421,0.421,0.421,0.421,0.422,0.421,0.421,0.4205,0.42,0.42,0.42,0.419,0.418,0.417,0.416,0.416,0.416,0.416,0.415,0.415,0.415,0.415,0.415,0.415,0.415,0.415,0.415,0.415,0.415,0.415,0.415,0.416,0.416,0.416,0.416,0.416,0.415,0.416,0.414,0.412,0.413,0.412,0.412,0.412,0.0,0.0,0.4115,0.413,0.4125,0.41312499999999996,0.414,0.415,0.415,0.415,0.415,0.415,0.415,0.414,0.415,0.414,0.414,0.414,0.414,0.413,0.412,0.411,0.411,0.411,0.408,0.407,0.407,0.407,0.406,0.406,0.409,0.408,0.407,0.407,0.407,0.407,0.407,0.407,0.406,0.406,0.406,0.406,0.0,0.40625,0.4065,0.0,0.0,0.0,0.0,0.0,0.407,0.408,0.408,0.408,0.408,0.407,0.407,0.405,0.405,0.405,0.404,0.404,0.0,0.0,0.402,0.402,0.402,0.402,0.402,0.402,0.401,0.401,0.402,0.401,0.401,0.401,0.4,0.4,0.399,0.399,0.399,0.399,0.399,0.399,0.399,0.0,0.0,0.0,0.0,0.0,0.0,0.0,0.3965,0.389,0.39,0.396,0.397,0.393,0.395,0.397,0.398,0.393,0.393,0.394,0.394,0.394,0.394,0.39375,0.393,0.393,0.393,0.393,0.392,0.392,0.391,0.391,0.391,0.391,0.39,0.39,0.39,0.39,0.39,0.39,0.389,0.389,0.389,0.389,0.389,0.389,0.389,0.388,0.388,0.388,0.388,0.388,0.389,0.389,0.389,0.389,0.389,0.389,0.389,0.39,0.39,0.39,0.39,0.39,0.389,0.389,0.388,0.385,0.38375000000000004,0.382,0.381,0.381,0.381,0.38,0.38,0.38,0.379,0.379,0.379,0.378,0.377,0.377,0.377,0.376,0.376,0.375,0.374,0.373,0.373,0.372,0.371,0.37,0.37,0.37,0.37,0.37,0.37,0.371,0.372,0.372,0.373,0.373,0.373,0.373,0.373,0.372,0.372,0.371,0.37,0.37,0.369,0.368,0.367,0.367,0.367,0.366,0.366,0.366,0.366,0.366,0.366,0.366,0.366,0.366,0.366,0.367,0.367,0.368,0.369,0.369,0.369,0.37,0.37,0.37,0.37,0.37,0.37,0.37,0.37,0.37,0.369,0.369,0.369,0.369,0.368,0.368,0.367,0.367,0.367,0.367,0.367,0.367,0.367,0.36749999999999994,0.368,0.368,0.369,0.369,0.369,0.369,0.369,0.369,0.369,0.369,0.369,0.369,0.0,0.3675,0.366,0.366,0.365,0.365,0.364,0.364,0.364,0.364,0.364,0.365,0.365,0.365,0.365,0.365,0.36524999999999996,0.366,0.366,0.366,0.366,0.3655,0.36524999999999996,0.365,0.365,0.364,0.363,0.0,0.0,0.365,0.365,0.3625,0.36412500000000003,0.37,0.37,0.371,0.372,0.372,0.372,0.372,0.371,0.371,0.371,0.37,0.37,0.369,0.367,0.363,0.362,0.361,0.36,0.36,0.359,0.359,0.36,0.36,0.36,0.36,0.0,0.0,0.0,0.0,0.0,0.0,0.0,0.0,0.0,0.0,0.0,0.0,0.0,0.0,0.0,0.0,0.0,0.0,0.0,0.0,0.0,0.0,0.0,0.0,0.0,0.0,0.0,0.0,0.0,0.0,0.0,0.0,0.0
0.457,0.457,0.455,0.455,0.452,0.452,0.452,0.0,0.0,0.45,0.0,0.0,0.0,0.452,0.0,0.0,0.0,0.0,0.0,0.0,0.446,0.446,0.446,0.446,0.446,0.446,0.446,0.447,0.447,0.447,0.447,0.447,0.448,0.448,0.448,0.448,0.448,0.447,0.446,0.446,0.446,0.444,0.443,0.441,0.441,0.441,0.441,0.441,0.44,0.441,0.441,0.441,0.442,0.442,0.442,0.443,0.442,0.441,0.439,0.438,0.437,0.439,0.439,0.439,0.4345,0.0,0.0,0.0,0.0,0.0,0.43,0.43375,0.431,0.431,0.436,0.435,0.433,0.435,0.434,0.434,0.434,0.433,0.432,0.432,0.4325,0.0,0.0,0.0,0.0,0.43,0.431,0.431,0.431,0.431,0.431,0.432,0.432,0.431,0.431,0.431,0.431,0.43,0.43,0.43,0.43,0.43,0.429,0.0,0.4275,0.42612500000000003,0.425,0.425,0.423,0.422,0.421,0.421,0.42224999999999996,0.422,0.423,0.423,0.424,0.424,0.425,0.0,0.0,0.0,0.0,0.423,0.4235,0.42287499999999995,0.422,0.421,0.421,0.4215,0.422,0.423,0.424,0.424,0.424,0.424,0.423,0.425,0.425,0.42275,0.421,0.42,0.42,0.419,0.419,0.418,0.418,0.418,0.418,0.418,0.41925,0.419,0.418,0.419,0.418,0.419,0.419,0.42,0.0,0.0,0.0,0.416,0.416,0.416,0.415,0.415,0.414,0.413,0.413,0.412,0.412,0.412,0.0,0.0,0.0,0.412,0.413,0.412,0.413,0.413,0.0,0.0,0.0,0.414,0.4135,0.41425,0.415,0.415,0.415,0.415,0.411,0.411,0.41,0.408,0.408,0.409,0.0,0.0,0.0,0.407,0.407,0.408,0.408,0.4085,0.409,0.41,0.41,0.411,0.41,0.41,0.41,0.411,0.411,0.411,0.411,0.411,0.41,0.409,0.409,0.407,0.40625,0.405,0.404,0.404,0.403,0.403,0.403,0.404,0.403,0.403,0.403,0.403,0.403,0.402,0.402,0.401,0.404,0.403,0.403,0.403,0.403,0.403,0.0,0.0,0.0,0.0,0.0,0.404,0.403,0.403,0.402,0.402,0.402,0.402,0.402,0.402,0.402,0.402,0.4015,0.0,0.0,0.401,0.401,0.401,0.4,0.4,0.4,0.4,0.4,0.4,0.399,0.399,0.399,0.398,0.398,0.398,0.397,0.397,0.397,0.397,0.397,0.396,0.0,0.0,0.0,0.0,0.0,0.0,0.0,0.388,0.388,0.388,0.392,0.39175,0.389,0.39075000000000004,0.39,0.391,0.0,0.0,0.3915,0.392,0.392,0.392,0.392,0.391,0.39,0.39,0.389,0.389,0.389,0.389,0.389,0.389,0.389,0.389,0.389,0.389,0.389,0.389,0.389,0.388,0.387,0.386,0.386,0.386,0.386,0.385,0.385,0.385,0.386,0.386,0.386,0.386,0.387,0.388,0.388,0.38825000000000004,0.389,0.389,0.389,0.389,0.389,0.389,0.389,0.389,0.389,0.388,0.384,0.383,0.381,0.381,0.38,0.38,0.38,0.379,0.379,0.379,0.379,0.378,0.378,0.377,0.377,0.377,0.377,0.377,0.376,0.375,0.374,0.374,0.373,0.372,0.371,0.37,0.37,0.37,0.37,0.371,0.372,0.373,0.373,0.373,0.373,0.373,0.373,0.373,0.373,0.372,0.371,0.37,0.37,0.369,0.368,0.367,0.367,0.366,0.366,0.366,0.366,0.366,0.366,0.366,0.366,0.366,0.366,0.366,0.366,0.367,0.368,0.369,0.369,0.369,0.369,0.37,0.37,0.37,0.37,0.37,0.37,0.37,0.369,0.369,0.369,0.369,0.368,0.366,0.366,0.366,0.366,0.366,0.366,0.366,0.366,0.366,0.366,0.366,0.366,0.366,0.367,0.367,0.367,0.367,0.367,0.367,0.367,0.36675,0.366,0.365,0.364,0.364,0.36375,0.363,0.364,0.363,0.363,0.363,0.363,0.363,0.362,0.362,0.362,0.362,0.362,0.363,0.363,0.363,0.363,0.3625,0.362,0.36206249999999995,0.362,0.362,0.36,0.36,0.361,0.361,0.36150000000000004,0.362,0.355,0.354,0.0,0.0,0.0,0.0,0.0,0.0,0.371,0.0,0.0,0.0,0.0,0.0,0.362,0.362,0.361,0.36,0.36,0.359,0.358,0.358,0.358,0.358,0.358,0.358,0.0,0.0,0.0,0.0,0.0,0.0,0.0,0.0,0.0,0.0,0.0,0.0,0.0,0.0,0.0,0.0,0.0,0.0,0.0,0.0,0.0,0.0,0.0,0.0,0.0,0.0,0.0,0.0,0.0,0.0,0.0,0.0,0.0,0.0
0.451,0.451,0.449,0.448,0.447,0.447,0.446,0.0,0.0,0.0,0.0,0.0,0.445,0.0,0.0,0.0,0.0,0.0,0.0,0.0,0.443,0.444,0.443,0.444,0.444,0.445,0.445,0.446,0.446,0.446,0.445,0.446,0.447,0.447,0.447,0.446,0.444,0.443,0.443,0.442,0.442,0.44,0.438,0.436,0.437,0.436,0.436,0.436,0.436,0.436,0.4365,0.437,0.439,0.4375,0.43925000000000003,0.441,0.432,0.431,0.431,0.429,0.43024999999999997,0.432,0.4295,0.425,0.425,0.0,0.0,0.0,0.0,0.0,0.425,0.426,0.427,0.427,0.427,0.427,0.428,0.431,0.431,0.429,0.429,0.428,0.427,0.426,0.426,0.425,0.425,0.425,0.4255,0.426,0.426,0.427,0.428,0.429,0.429,0.43,0.43,0.43,0.429,0.429,0.428,0.428,0.4275,0.427375,0.427,0.4265,0.4255,0.42474999999999996,0.424,0.422,0.421,0.42,0.42,0.4195,0.419,0.41924999999999996,0.42,0.42,0.42,0.42,0.42,0.42,0.421,0.0,0.0,0.0,0.0,0.42,0.42,0.42,0.42,0.42,0.42,0.41937499999999994,0.42,0.42,0.42,0.42,0.42,0.419,0.419,0.418,0.417,0.416,0.416,0.416,0.416,0.415,0.416,0.415,0.415,0.415,0.415,0.415,0.416,0.4155,0.416,0.416,0.416,0.416,0.416,0.416,0.0,0.0,0.0,0.412,0.41275,0.413,0.413,0.41,0.41,0.41,0.409,0.409,0.409,0.409,0.0,0.0,0.0,0.411,0.411,0.411,0.411,0.411,0.0,0.0,0.0,0.411,0.411,0.4110625,0.412,0.414,0.411,0.0,0.4065,0.406125,0.405,0.405,0.405,0.40549999999999997,0.0,0.0,0.0,0.404,0.404,0.0,0.0,0.0,0.406,0.0,0.0,0.0,0.0,0.405,0.405,0.405,0.405,0.405,0.406,0.407,0.0,0.40349999999999997,0.402,0.402,0.402,0.401,0.401,0.401,0.402,0.402,0.402,0.402,0.402,0.402,0.402,0.402,0.402,0.401,0.4,0.399,0.398,0.397,0.395,0.394,0.394,0.394,0.395,0.396,0.396,0.3965,0.397,0.397,0.397,0.394,0.394,0.4,0.398,0.39825,0.399,0.399,0.399,0.399,0.399,0.399,0.399,0.399,0.399,0.399,0.399,0.399,0.398,0.398,0.398,0.398,0.398,0.398,0.397,0.397,0.397,0.397,0.396,0.395,0.394,0.394,0.393,0.393,0.391,0.39,0.389,0.0,0.0,0.0,0.388,0.387,0.388,0.388,0.388,0.389,0.389,0.389,0.389,0.3885,0.0,0.0,0.389,0.389,0.39,0.39,0.389,0.389,0.389,0.388,0.388,0.386,0.386,0.38675000000000004,0.387,0.387,0.388,0.388,0.388,0.388,0.388,0.388,0.386,0.385,0.0,0.384,0.385,0.3845,0.384,0.384,0.384,0.385,0.385,0.385,0.385,0.386,0.386,0.386,0.386,0.387,0.388,0.388,0.389,0.389,0.389,0.389,0.389,0.388,0.3845,0.381,0.381,0.38,0.38,0.379,0.379,0.379,0.379,0.378,0.378,0.378,0.378,0.377,0.377,0.377,0.377,0.377,0.377,0.376,0.376,0.375,0.374,0.373,0.373,0.372,0.371,0.37,0.37,0.371,0.371,0.371,0.372,0.372,0.372,0.373,0.373,0.373,0.373,0.373,0.372,0.371,0.37,0.37,0.369,0.368,0.367,0.366,0.366,0.366,0.366,0.366,0.366,0.365,0.365,0.365,0.365,0.365,0.366,0.366,0.366,0.366,0.367,0.367,0.368,0.369,0.369,0.369,0.37,0.37,0.37,0.37,0.37,0.369,0.369,0.369,0.368,0.367,0.366,0.366,0.366,0.365,0.365,0.365,0.365,0.365,0.365,0.365,0.365,0.365,0.365,0.365,0.365,0.365,0.365,0.365,0.365,0.365,0.365,0.365,0.364,0.363,0.363,0.363,0.362,0.362,0.362,0.362,0.362,0.362,0.362,0.361,0.361,0.359,0.35975,0.36,0.36,0.36,0.359,0.0,0.0,0.35975,0.358,0.359,0.358,0.358,0.357,0.357,0.357,0.358,0.358,0.356,0.0,0.0,0.0,0.0,0.0,0.0,0.0,0.0,0.0,0.0,0.0,0.0,0.0,0.0,0.0,0.0,0.359,0.359,0.359,0.358,0.356,0.356,0.356,0.356,0.356,0.0,0.0,0.0,0.0,0.0,0.0,0.0,0.0,0.0,0.0,0.0,0.0,0.0,0.0,0.0,0.0,0.0,0.0,0.0,0.0,0.0,0.0,0.0,0.0,0.0,0.0,0.0,0.0,0.0,0.0,0.0,0.0,0.0,0.0,0.0
0.446,0.445,0.445,0.443,0.442,0.441,0.0,0.0,0.0,0.0,0.44,0.0,0.0,0.0,0.0,0.0,0.0,0.0,0.0,0.44,0.44,0.441,0.441,0.441,0.441,0.442,0.442,0.442,0.441,0.441,0.441,0.443,0.446,0.445,0.444,0.445,0.44,0.44,0.44,0.439,0.438,0.436,0.436,0.433,0.433,0.432,0.431,0.431,0.431,0.431,0.433,0.435,0.434,0.433,0.0,0.432,0.0,0.4245,0.425,0.425,0.423,0.4225,0.422,0.421,0.0,0.0,0.0,0.421,0.421,0.421,0.422,0.42275,0.423,0.424,0.424,0.424,0.425,0.428,0.423,0.422,0.425,0.424,0.423,0.422,0.421,0.421,0.421,0.421,0.422,0.424,0.424,0.425,0.425,0.426,0.426,0.426,0.426,0.426,0.426,0.4255,0.425,0.425,0.425,0.425,0.424,0.423,0.422,0.42,0.418,0.418,0.417,0.417,0.417,0.417,0.417,0.417,0.417,0.417,0.417,0.417,0.417,0.417,0.416,0.417,0.417,0.416,0.416,0.416,0.416,0.416,0.416,0.416,0.416,0.416,0.416,0.416,0.416,0.0,0.0,0.0,0.415,0.4135,0.0,0.412,0.4115,0.4115,0.4115,0.411,0.4115,0.41037499999999993,0.408,0.41,0.411,0.41124999999999995,0.412,0.411,0.411,0.411,0.411,0.411,0.411,0.411,0.0,0.0,0.41,0.41,0.41,0.409,0.409,0.409,0.408,0.407,0.406,0.406,0.406,0.406,0.406,0.407,0.407,0.407,0.408,0.408,0.409,0.409,0.409,0.4085,0.408,0.407,0.407,0.407,0.405,0.405,0.4,0.401,0.402,0.402,0.402,0.402,0.402,0.402,0.402,0.402,0.402,0.402,0.402,0.0,0.0,0.0,0.0,0.0,0.0,0.0,0.0,0.0,0.0,0.398,0.4005000000000001,0.402,0.4015,0.40049999999999997,0.39925,0.398,0.398,0.398,0.398,0.398,0.398,0.398,0.3985,0.399,0.39949999999999997,0.4,0.401,0.401,0.401,0.402,0.4,0.399,0.398,0.397,0.395,0.394,0.393,0.39249999999999996,0.392,0.392,0.392,0.392,0.392,0.393,0.393,0.394,0.393,0.393,0.393,0.393,0.394,0.394,0.394,0.394,0.394,0.394,0.394,0.395,0.397,0.397,0.397,0.397,0.398,0.398,0.398,0.398,0.398,0.398,0.398,0.397,0.397,0.397,0.397,0.396,0.395,0.394,0.393,0.393,0.392,0.391,0.39,0.389,0.389,0.388,0.388,0.387,0.387,0.386,0.386,0.386,0.386,0.386,0.386,0.386,0.387,0.386,0.0,0.0,0.387,0.388,0.388,0.386,0.386,0.386,0.386,0.386,0.386,0.385,0.385,0.385,0.386,0.386,0.386,0.386,0.386,0.387,0.387,0.386,0.385,0.384,0.383,0.382,0.381,0.38187499999999996,0.382,0.382,0.382,0.383,0.383,0.384,0.384,0.385,0.385,0.385,0.385,0.385,0.385,0.386,0.388,0.388,0.388,0.388,0.0,0.0,0.0,0.3775,0.378,0.378,0.377,0.377,0.377,0.37775000000000003,0.378,0.378,0.378,0.378,0.377,0.377,0.377,0.377,0.377,0.377,0.376,0.376,0.375,0.374,0.373,0.372,0.371,0.37,0.37,0.37,0.369,0.37,0.37,0.37,0.371,0.371,0.371,0.372,0.372,0.373,0.373,0.372,0.37,0.37,0.369,0.369,0.368,0.367,0.366,0.366,0.366,0.365,0.365,0.365,0.365,0.365,0.365,0.365,0.365,0.365,0.365,0.365,0.366,0.366,0.366,0.366,0.367,0.368,0.369,0.369,0.369,0.369,0.369,0.369,0.369,0.368,0.367,0.366,0.366,0.366,0.366,0.3655,0.365,0.364,0.364,0.364,0.363,0.363,0.363,0.363,0.363,0.363,0.363,0.363,0.363,0.363,0.363,0.363,0.363,0.363,0.363,0.362,0.362,0.362,0.362,0.362,0.362,0.362,0.362,0.362,0.362,0.362,0.36,0.359,0.359,0.359,0.358,0.358,0.358,0.358,0.357,0.0,0.0,0.357,0.357,0.357,0.357,0.356,0.356,0.355,0.355,0.354,0.353,0.353,0.0,0.0,0.0,0.0,0.0,0.0,0.349,0.0,0.0,0.0,0.0,0.0,0.0,0.0,0.0,0.0,0.0,0.355,0.35524999999999995,0.355,0.354,0.354,0.354,0.354,0.354,0.0,0.0,0.0,0.0,0.0,0.0,0.0,0.0,0.0,0.0,0.0,0.0,0.0,0.0,0.0,0.0,0.0,0.0,0.0,0.0,0.0,0.0,0.0,0.0,0.0,0.0,0.0,0.0,0.0,0.0,0.0,0.0,0.0,0.0,0.0
0.0,0.0,0.0,0.4395,0.439,0.437,0.0,0.0,0.0,0.0,0.0,0.0,0.0,0.0,0.0,0.0,0.433,0.434,0.435,0.435,0.436,0.436,0.436,0.437,0.438,0.438,0.438,0.437,0.437,0.437,0.436,0.436,0.436,0.436,0.436,0.436,0.436,0.0,0.435,0.436,0.435,0.433,0.431,0.431,0.431,0.43,0.429,0.4285,0.429,0.429,0.0,0.0,0.0,0.0,0.0,0.423,0.4205,0.418,0.418,0.4215,0.4205,0.41974999999999996,0.419,0.4185,0.0,0.0,0.417,0.418,0.418,0.418,0.419,0.42,0.42,0.42,0.42,0.42,0.42,0.42,0.42,0.4195,0.419,0.419,0.419,0.42,0.4195,0.42,0.42,0.42,0.421,0.421,0.422,0.0,0.0,0.425,0.425,0.425,0.425,0.425,0.423,0.422125,0.422,0.421,0.421,0.421,0.419,0.418,0.417,0.417,0.416,0.415,0.415,0.415,0.415,0.415,0.415,0.415,0.415,0.416,0.416,0.415,0.415,0.415,0.415,0.415,0.415,0.415,0.415,0.415,0.415,0.415,0.415,0.415,0.414,0.413,0.413,0.413,0.412,0.0,0.0,0.0,0.4105,0.409,0.4085,0.408,0.407,0.407,0.407,0.407,0.407,0.407,0.407,0.406,0.407,0.407,0.408,0.4085,0.0,0.0,0.4075,0.407,0.407,0.406,0.406,0.406,0.406,0.406,0.406,0.406,0.406,0.405,0.404,0.403,0.403,0.402,0.402,0.403,0.403,0.404,0.404,0.405,0.406,0.406,0.406,0.406,0.406,0.406,0.405,0.405,0.404,0.403,0.0,0.401,0.398,0.398,0.39949999999999997,0.4,0.4,0.399,0.4,0.4,0.399,0.399,0.4,0.4,0.4,0.0,0.0,0.0,0.0,0.0,0.0,0.0,0.397,0.0,0.0,0.397,0.397,0.398,0.397,0.394,0.393,0.393,0.394,0.394,0.395,0.395,0.395,0.3955,0.39575000000000005,0.396,0.397,0.397,0.397,0.3975,0.398,0.398,0.397,0.3965,0.396,0.394,0.393,0.392,0.392,0.391,0.389,0.389,0.389,0.389,0.389,0.389,0.389,0.38975000000000004,0.39,0.39,0.391,0.391,0.391,0.391,0.391,0.391,0.393,0.394,0.393,0.393,0.394,0.397,0.397,0.397,0.397,0.3975,0.398,0.398,0.0,0.0,0.398,0.397,0.397,0.396,0.396,0.394,0.394,0.393,0.393,0.392,0.391,0.39,0.389,0.389,0.389,0.388,0.388,0.387,0.387,0.386,0.386,0.386,0.385,0.385,0.385,0.385,0.385,0.385,0.385,0.385,0.385,0.385,0.384,0.0,0.0,0.3825,0.382,0.382,0.381,0.382,0.381,0.38125000000000003,0.381,0.381,0.381,0.0,0.3825,0.381,0.382,0.381,0.381,0.381,0.38,0.38,0.38,0.38,0.381,0.381,0.381,0.381,0.38125,0.383,0.384,0.384,0.385,0.385,0.385,0.385,0.384,0.384,0.384,0.38025,0.379,0.3795,0.0,0.0,0.0,0.374,0.376,0.37675,0.377,0.377,0.377,0.377,0.377,0.377,0.377,0.377,0.377,0.377,0.377,0.377,0.377,0.376,0.376,0.375,0.374,0.373,0.371,0.37,0.3695,0.369,0.369,0.369,0.369,0.369,0.369,0.369,0.369,0.369,0.37,0.37,0.371,0.372,0.372,0.37,0.369,0.369,0.368,0.367,0.366,0.366,0.366,0.365,0.365,0.365,0.364,0.364,0.364,0.364,0.364,0.364,0.364,0.364,0.364,0.364,0.36474999999999996,0.365,0.366,0.366,0.366,0.367,0.368,0.368,0.369,0.369,0.368,0.367,0.367,0.366,0.366,0.366,0.366,0.365,0.365,0.365,0.364,0.363,0.363,0.363,0.362,0.362,0.362,0.362,0.362,0.361,0.361,0.361,0.361,0.361,0.361,0.361,0.361,0.361,0.361,0.361,0.361,0.361,0.361,0.361,0.36,0.36,0.36,0.361,0.36,0.359,0.358,0.358,0.0,0.3565,0.35562499999999997,0.355,0.355,0.355,0.355,0.355,0.355,0.355,0.355,0.355,0.3555,0.355,0.355,0.355,0.354,0.354,0.352,0.352,0.352,0.0,0.0,0.0,0.348,0.348,0.348,0.348,0.348,0.348,0.348,0.348,0.349,0.0,0.0,0.0,0.0,0.351,0.352,0.351,0.351,0.351,0.351,0.351,0.352,0.0,0.0,0.0,0.0,0.0,0.0,0.0,0.0,0.0,0.0,0.0,0.0,0.0,0.0,0.0,0.0,0.0,0.0,0.0,0.0,0.0,0.0,0.0,0.0,0.0,0.0,0.0,0.0,0.0,0.0,0.0,0.0,0.0,0.0,0.0
0.0,0.0,0.0,0.436,0.435,0.43524999999999997,0.436,0.436,0.434,0.0,0.0,0.0,0.431,0.4305,0.43,0.431,0.431,0.431,0.431,0.432,0.432,0.433,0.434,0.435,0.435,0.435,0.434,0.433,0.0,0.0,0.428,0.427,0.43,0.431,0.432,0.432,0.0,0.0,0.43,0.43,0.429,0.429,0.428,0.427,0.427,0.426,0.426,0.425,0.0,0.0,0.0,0.0,0.0,0.0,0.0,0.417,0.416,0.416,0.416,0.418,0.418,0.417,0.416,0.416,0.415,0.415,0.416,0.416,0.415,0.415,0.416,0.416,0.416,0.4165,0.416,0.416,0.416,0.41674999999999995,0.416,0.41662499999999997,0.416,0.41675,0.417,0.417,0.417,0.417,0.419,0.419,0.419,0.42,0.4205,0.0,0.0,0.4215,0.0,0.4215,0.422,0.421,0.41924999999999996,0.418,0.417,0.416,0.416,0.416,0.415,0.415,0.414,0.414,0.412,0.412,0.412,0.412,0.413,0.41274999999999995,0.412,0.412,0.413,0.413,0.412,0.412,0.412,0.411,0.411,0.411,0.411,0.411,0.411,0.411,0.411,0.411,0.411,0.411,0.411,0.411,0.41,0.409,0.40800000000000003,0.40800000000000003,0.408,0.407,0.406,0.406,0.406,0.406,0.406,0.406,0.406,0.405,0.405,0.404,0.404,0.404,0.404,0.405,0.406,0.406,0.0,0.0,0.404,0.404,0.403,0.4025,0.402,0.402,0.402,0.402,0.402,0.402,0.402,0.4015,0.401,0.4,0.4,0.4,0.4,0.4,0.401,0.402,0.402,0.402,0.402,0.402,0.403,0.404,0.403,0.40325,0.402,0.399,0.401,0.4,0.3985,0.397,0.397,0.398,0.398,0.398,0.398,0.398,0.398,0.398,0.398,0.398,0.398,0.398,0.398,0.0,0.0,0.0,0.0,0.0,0.0,0.0,0.395,0.395,0.394,0.3945000000000001,0.394,0.394,0.393,0.39249999999999996,0.392,0.392,0.392,0.393,0.393,0.393,0.393,0.393,0.393,0.0,0.0,0.0,0.0,0.0,0.0,0.393,0.392,0.0,0.3915,0.389,0.389,0.389,0.388,0.388,0.387,0.387,0.386,0.386,0.386,0.386,0.386,0.386,0.386,0.387,0.387,0.387,0.388,0.388,0.389,0.39,0.0,0.0,0.392,0.39175000000000004,0.392,0.394,0.396,0.397,0.397,0.3975,0.398,0.0,0.0,0.0,0.397,0.397,0.3965,0.396,0.395,0.394,0.394,0.393,0.393,0.391,0.39,0.39,0.389,0.389,0.389,0.388,0.387,0.387,0.386,0.386,0.386,0.386,0.385,0.385,0.385,0.385,0.385,0.384,0.383,0.383,0.382,0.38,0.0,0.0,0.0,0.379,0.379,0.379,0.379,0.379,0.377,0.378,0.378,0.377,0.377,0.378,0.379,0.378,0.378,0.378,0.378,0.378,0.378,0.377,0.377,0.378,0.378,0.379,0.379,0.378,0.378,0.3765,0.377,0.375,0.376,0.376,0.0,0.3775,0.376,0.376,0.376,0.37,0.3725,0.371,0.372,0.373,0.373,0.374,0.374,0.376,0.376,0.376,0.377,0.377,0.377,0.377,0.377,0.377,0.377,0.377,0.377,0.377,0.376,0.376,0.376,0.375,0.373,0.373,0.3685,0.36812500000000004,0.368,0.367,0.367,0.367,0.367,0.367,0.367,0.367,0.36749999999999994,0.368,0.368,0.0,0.3685,0.368,0.3675,0.367,0.367,0.367,0.366,0.366,0.365,0.365,0.365,0.364,0.364,0.363,0.363,0.363,0.363,0.363,0.363,0.363,0.363,0.363,0.363,0.364,0.364,0.3645,0.365,0.365,0.366,0.366,0.366,0.367,0.0,0.0,0.0,0.0,0.363,0.0,0.0,0.365,0.36449999999999994,0.364,0.364,0.364,0.363,0.363,0.362,0.362,0.362,0.361,0.36,0.36,0.359,0.359,0.358,0.358,0.358,0.358,0.358,0.358,0.358,0.358,0.358,0.358,0.358,0.358,0.358,0.358,0.358,0.358,0.358,0.358,0.3575,0.359,0.355,0.355,0.3545,0.354,0.353,0.352,0.352,0.352,0.352,0.352,0.353,0.353,0.354,0.354,0.355,0.355,0.355,0.354,0.354,0.353,0.352,0.352,0.351,0.35,0.349,0.348,0.348,0.348,0.347,0.347,0.347,0.347,0.347,0.347,0.348,0.0,0.0,0.0,0.346,0.3475,0.347,0.348,0.3475,0.3485,0.348875,0.349,0.35,0.0,0.0,0.0,0.0,0.0,0.0,0.0,0.0,0.0,0.0,0.0,0.0,0.0,0.0,0.0,0.0,0.0,0.0,0.0,0.0,0.0,0.0,0.0,0.0,0.0,0.0,0.0,0.0,0.0,0.0,0.0,0.0,0.0,0.0,0.0
0.431,0.431,0.432,0.432,0.432,0.433,0.433,0.433,0.431,0.0,0.0,0.428,0.427,0.427,0.428,0.4285,0.0,0.4285,0.42887499999999995,0.43,0.4295,0.43025,0.431,0.0,0.0,0.431,0.431,0.0,0.0,0.0,0.425,0.425,0.425,0.426,0.4265,0.427,0.0,0.0,0.426,0.4255,0.425,0.425,0.424,0.424,0.423,0.423,0.421,0.4205,0.0,0.0,0.0,0.0,0.0,0.0,0.0,0.415,0.415,0.415,0.415,0.416,0.415,0.415,0.414,0.413,0.413,0.413,0.412,0.412,0.412,0.413,0.414,0.4135,0.41362499999999996,0.414,0.414,0.414,0.414,0.415,0.41425,0.415,0.415,0.415,0.415,0.416,0.416,0.416,0.416,0.416,0.418,0.418,0.419,0.419,0.419,0.418,0.418,0.418,0.41725,0.417,0.415,0.415,0.414,0.414,0.413,0.413,0.413,0.413,0.412,0.412,0.41125,0.411,0.411,0.411,0.411,0.411,0.411,0.411,0.411,0.411,0.411,0.411,0.41,0.41,0.41,0.41,0.41,0.41,0.409,0.409,0.409,0.409,0.408,0.408,0.40700000000000003,0.406,0.406,0.40449999999999997,0.404,0.404,0.403,0.402,0.402,0.0,0.0,0.4025,0.402,0.402,0.402,0.402,0.402,0.402,0.402,0.402,0.402,0.402,0.402,0.4035,0.40275000000000005,0.402,0.402,0.402,0.4,0.40012499999999995,0.4,0.4,0.399,0.398,0.399,0.399,0.398,0.398,0.398,0.398,0.398,0.398,0.398,0.3985,0.399,0.4,0.4,0.4,0.4005,0.401,0.402,0.402,0.402,0.402,0.401,0.398,0.398,0.397,0.397,0.396,0.395,0.396,0.396,0.397,0.397,0.397,0.397,0.397,0.397,0.397,0.397,0.397,0.397,0.0,0.0,0.395,0.394,0.394,0.394,0.394,0.394,0.394,0.394,0.393,0.393,0.393,0.392,0.391,0.391,0.39,0.39,0.39,0.391,0.39,0.391,0.391,0.391,0.0,0.0,0.0,0.0,0.0,0.0,0.0,0.0,0.0,0.387,0.386,0.386,0.386,0.385,0.385,0.385,0.3845,0.385,0.384,0.384,0.384,0.384,0.384,0.385,0.385,0.385,0.385,0.385,0.386,0.387,0.3875,0.0,0.0,0.0,0.39,0.0,0.0,0.393,0.0,0.0,0.0,0.0,0.0,0.0,0.0,0.0,0.0,0.0,0.0,0.0,0.0,0.0,0.0,0.0,0.0,0.385,0.3855,0.386,0.386,0.386,0.386,0.386,0.386,0.386,0.386,0.386,0.385,0.385,0.385,0.385,0.385,0.384,0.383,0.381,0.378,0.37775,0.377,0.0,0.0,0.0,0.377,0.376,0.376,0.376,0.376,0.372,0.373,0.373,0.373,0.373,0.373,0.37475,0.376,0.376,0.375,0.3755,0.3755,0.375375,0.375,0.376,0.376,0.377,0.377,0.377,0.376,0.37249999999999994,0.368,0.367,0.367,0.367,0.367,0.3685,0.37,0.37,0.369,0.369,0.369,0.37,0.37,0.3705,0.371,0.372,0.373,0.373,0.374,0.375,0.375,0.376,0.377,0.377,0.377,0.377,0.377,0.377,0.377,0.377,0.377,0.376,0.375,0.374,0.371,0.368,0.36775,0.366,0.366,0.366,0.36575,0.366,0.366,0.366,0.366,0.366,0.366,0.366,0.0,0.0,0.0,0.366,0.366,0.0,0.3645,0.365,0.365,0.365,0.364,0.364,0.363,0.363,0.363,0.362,0.362,0.362,0.362,0.362,0.362,0.362,0.362,0.362,0.362,0.362,0.362,0.363,0.364,0.364,0.365,0.365,0.3655,0.366,0.366,0.0,0.0,0.0,0.0,0.359,0.0,0.0,0.364,0.363,0.363,0.363,0.363,0.363,0.362,0.362,0.361,0.36,0.359,0.359,0.358,0.358,0.356,0.356,0.356,0.356,0.355,0.355,0.356,0.356,0.356,0.356,0.0,0.0,0.355,0.355,0.355,0.0,0.355,0.354,0.354,0.353,0.352,0.352,0.352,0.351,0.351,0.351,0.35,0.35,0.349,0.35,0.35,0.35,0.351,0.351,0.351,0.352,0.352,0.352,0.352,0.352,0.351,0.35,0.35,0.349,0.348,0.348,0.347,0.347,0.346,0.345,0.345,0.344,0.345,0.342,0.342,0.341,0.341,0.341,0.341,0.341,0.344,0.342,0.345,0.344,0.346,0.347,0.0,0.0,0.0,0.0,0.0,0.0,0.0,0.0,0.0,0.0,0.0,0.0,0.0,0.0,0.0,0.0,0.0,0.0,0.0,0.0,0.0,0.0,0.0,0.0,0.0,0.0,0.0,0.0,0.0,0.0,0.0,0.0,0.0,0.0,0.0,0.0,0.0
