0.426,0.426,0.426,0.426,0.426,0.426,0.426,0.0,0.0,0.0,0.0,0.427,0.0,0.0,0.0,0.0,0.0,0.423,0.423,0.423,0.421,0.421,0.421,0.421,0.421,0.421,0.421,0.421,0.421,0.421,0.421,0.42,0.42,0.42,0.419,0.418,0.417,0.417,0.416,0.416,0.415,0.415,0.414,0.4135,0.413,0.411,0.411,0.411,0.0,0.0,0.0,0.0,0.0,0.409,0.409,0.41,0.41,0.41,0.41,0.411,0.411,0.411,0.411,0.411,0.40974999999999995,0.40993749999999995,0.41,0.41,0.409,0.0,0.0,0.0,0.409,0.409,0.41,0.41,0.411,0.411,0.41,0.407,0.407,0.407,0.406,0.406,0.406,0.406,0.406,0.406,0.406,0.406,0.406,0.405,0.405,0.40449999999999997,0.404,0.402,0.402,0.402,0.404,0.404,0.404,0.404,0.403,0.40375000000000005,0.404,0.40425000000000005,0.405,0.404,0.404,0.404,0.403,0.403,0.402,0.402,0.4,0.399,0.399,0.398,0.3985000000000001,0.398,0.398,0.398,0.398,0.398,0.398,0.398,0.398,0.398,0.398,0.398,0.3975,0.0,0.0,0.0,0.397,0.397,0.397,0.397,0.397,0.397,0.397,0.396,0.394,0.394,0.393,0.393,0.392,0.391,0.391,0.0,0.0,0.391,0.39,0.39,0.39,0.3905,0.3905,0.390125,0.389,0.389,0.0,0.0,0.388,0.388,0.388,0.388,0.388,0.388,0.388,0.0,0.0,0.0,0.389,0.389,0.389,0.389,0.39,0.389,0.39,0.389,0.389,0.389,0.388,0.388,0.0,0.0,0.0,0.0,0.385,0.385,0.384,0.383,0.0,0.0,0.0,0.0,0.0,0.0,0.0,0.381,0.381,0.381,0.38,0.379,0.378,0.378,0.378,0.378,0.377,0.377,0.377,0.377,0.377,0.377,0.377,0.378,0.378,0.378,0.378,0.378,0.378,0.377,0.376,0.374,0.373,0.0,0.0,0.373,0.373,0.373,0.374,0.373,0.373,0.373,0.373,0.372,0.372,0.373,0.373,0.373,0.373,0.373,0.373,0.373,0.372,0.372,0.371,0.371,0.372,0.372,0.373,0.373,0.373,0.373,0.373,0.374,0.374,0.374,0.374,0.373,0.37,0.37,0.369,0.368,0.36675,0.366,0.365,0.365,0.365,0.365,0.365,0.365,0.365,0.365,0.364,0.0,0.0,0.0,0.0,0.0,0.0,0.363,0.0,0.0,0.0,0.3625,0.36275,0.363,0.363,0.362,0.363,0.363,0.363,0.364,0.363,0.363,0.0,0.0,0.362,0.0,0.3615,0.361625,0.362,0.361,0.36,0.359,0.359,0.358,0.358,0.357,0.3565,0.356,0.357,0.357,0.358,0.358,0.35725,0.357,0.357,0.356,0.356,0.356,0.356,0.356,0.356,0.356,0.3565,0.357,0.357,0.0,0.0,0.0,0.0,0.0,0.354,0.353,0.352,0.352,0.352,0.352,0.352,0.352,0.352,0.352,0.352,0.352,0.351,0.35,0.35,0.349,0.3485,0.34812499999999996,0.347,0.347,0.347,0.346,0.346,0.346,0.345,0.345,0.345,0.345,0.345,0.345,0.345,0.34574999999999995,0.345,0.346,0.346,0.347,0.347,0.347,0.0,0.0,0.346,0.346,0.346,0.346,0.345,0.345,0.345,0.345,0.345,0.345,0.345,0.344,0.343,0.343,0.342,0.342,0.0,0.0,0.0,0.342,0.342,0.342,0.342,0.341,0.34,0.34,0.34,0.34,0.34,0.34,0.341,0.341,0.3415,0.342,0.341,0.341,0.341,0.341,0.341,0.34,0.34,0.339,0.339,0.339,0.339,0.339,0.338,0.338,0.338,0.338,0.337,0.337,0.337,0.336,0.336,0.336,0.335,0.335,0.0,0.0,0.0,0.0,0.0,0.0,0.0,0.0,0.335,0.335,0.335,0.335,0.335,0.335,0.335,0.335,0.335,0.335,0.335,0.334,0.0,0.0,0.0,0.333,0.332,0.3325,0.333,0.333,0.0,0.0,0.0,0.331,0.331,0.33,0.33,0.329,0.329,0.329,0.329,0.329,0.327,0.327,0.329,0.0,0.0,0.0,0.328,0.327,0.327,0.327,0.327,0.327,0.327,0.327,0.327,0.3265,0.327,0.0,0.0,0.0,0.0,0.325,0.325,0.324,0.324,0.324,0.323,0.323,0.323,0.323,0.322,0.322,0.322,0.0,0.0,0.0,0.0,0.0,0.0,0.0,0.0,0.0,0.0,0.0,0.0,0.0,0.0,0.0,0.0,0.0,0.0,0.0,0.0,0.0,0.0,0.0,0.0,0.0,0.0,0.0,0.0,0.0,0.0,0.0,0.0,0.0,0.0,0.0,0.0
0.426,0.425,0.425,0.0,0.4235,0.424,0.424,0.424,0.0,0.0,0.0,0.0,0.0,0.0,0.0,0.0,0.0,0.421,0.42074999999999996,0.42,0.42,0.419,0.419,0.419,0.419,0.419,0.418,0.418,0.418,0.417,0.417,0.417,0.416,0.416,0.416,0.415,0.415,0.415,0.414,0.413,0.412,0.412,0.411,0.411,0.411,0.409,0.407,0.4085,0.0,0.0,0.0,0.0,0.0,0.407,0.407,0.407,0.407,0.407,0.408,0.407,0.407,0.407,0.407,0.407,0.407,0.407,0.407,0.406,0.407,0.406,0.407,0.407,0.407,0.407,0.407,0.407,0.0,0.0,0.0,0.0,0.40449999999999997,0.0,0.4035,0.403,0.0,0.4025,0.402,0.403,0.403,0.402,0.0,0.0,0.402,0.402,0.401,0.4,0.4,0.399,0.4,0.399,0.399,0.402,0.402,0.402,0.401,0.402,0.402,0.401,0.401,0.401,0.4,0.399,0.398,0.397,0.397,0.397,0.397,0.397,0.397,0.396,0.396,0.396,0.396,0.396,0.396,0.395,0.395,0.395,0.395,0.394,0.394,0.0,0.0,0.0,0.394,0.394,0.394,0.394,0.394,0.393,0.393,0.392,0.391,0.39,0.39,0.389,0.389,0.388,0.388,0.3885,0.389,0.388,0.389,0.388,0.388,0.388,0.388,0.388,0.388,0.0,0.0,0.0,0.386,0.385,0.385,0.385,0.385,0.385,0.385,0.0,0.0,0.0,0.386,0.386,0.387,0.0,0.0,0.387,0.388,0.386,0.386,0.385,0.384,0.384,0.0,0.0,0.0,0.0,0.0,0.0,0.0,0.0,0.0,0.0,0.0,0.0,0.0,0.377,0.377,0.378,0.378,0.378,0.378,0.377,0.377,0.377,0.377,0.376,0.376,0.376,0.376,0.376,0.376,0.376,0.376,0.375,0.376,0.376,0.376,0.375,0.374,0.373,0.372,0.369,0.36974999999999997,0.369,0.369,0.369,0.369,0.37,0.37,0.37,0.37,0.37,0.37,0.37,0.37,0.37,0.371,0.37,0.371,0.371,0.371,0.37,0.37,0.369,0.369,0.369,0.369,0.369,0.37,0.37,0.37,0.37,0.37,0.37,0.37,0.0,0.0,0.0,0.369,0.36724999999999997,0.366,0.366,0.364,0.364,0.363,0.363,0.363,0.363,0.363,0.363,0.363,0.362,0.362,0.0,0.0,0.0,0.0,0.0,0.0,0.36,0.0,0.0,0.36,0.36,0.3604375,0.361,0.361,0.361,0.361,0.0,0.361,0.3615,0.0,0.0,0.0,0.0,0.36,0.3595,0.359,0.359,0.359,0.359,0.0,0.357,0.355,0.355,0.355,0.355,0.355,0.355,0.355,0.355,0.355,0.356,0.355,0.355,0.355,0.355,0.355,0.355,0.355,0.355,0.355,0.355,0.355,0.355,0.0,0.0,0.0,0.0,0.0,0.0,0.352,0.0,0.351,0.351,0.351,0.351,0.351,0.351,0.351,0.351,0.351,0.35,0.349,0.3485,0.3485,0.347875,0.347,0.347,0.346,0.345,0.0,0.0,0.0,0.345,0.345,0.34474999999999995,0.345,0.345,0.345,0.345,0.345,0.345,0.345,0.345,0.345,0.345,0.345,0.345,0.0,0.0,0.345,0.345,0.344,0.344,0.344,0.343,0.343,0.343,0.343,0.343,0.342,0.342,0.341,0.34,0.0,0.0,0.0,0.0,0.0,0.339,0.34,0.0,0.0,0.339,0.339,0.339,0.3385,0.3385,0.338625,0.339,0.339,0.339,0.34,0.0,0.0,0.0,0.339,0.339,0.338,0.337,0.337,0.337,0.337,0.337,0.337,0.337,0.337,0.336,0.336,0.336,0.335,0.335,0.33475,0.335,0.333,0.333,0.333,0.0,0.0,0.0,0.0,0.0,0.0,0.0,0.0,0.0,0.333,0.333,0.333,0.333,0.333,0.333,0.333,0.333,0.333,0.333,0.333,0.333,0.332,0.332,0.331,0.331,0.33,0.33,0.33,0.3305,0.0,0.0,0.0,0.329,0.328,0.328,0.326,0.325,0.325,0.327,0.325,0.325,0.326,0.326,0.326,0.0,0.0,0.0,0.326,0.326,0.326,0.325,0.325,0.325,0.325,0.325,0.324,0.324,0.324,0.324,0.3235,0.323,0.323,0.323,0.323,0.323,0.322,0.321,0.321,0.321,0.321,0.321,0.32,0.32,0.32,0.0,0.0,0.0,0.0,0.0,0.0,0.0,0.0,0.0,0.0,0.0,0.0,0.0,0.0,0.0,0.0,0.0,0.0,0.0,0.0,0.0,0.0,0.0,0.0,0.0,0.0,0.0,0.0,0.0,0.0,0.0,0.0,0.0,0.0,0.0,0.0
0.424,0.423,0.422,0.4215,0.421,0.42,0.42,0.42,0.42,0.42,0.42,0.0,0.0,0.0,0.0,0.0,0.0,0.419,0.419,0.418,0.417,0.417,0.416,0.416,0.416,0.416,0.415,0.415,0.415,0.415,0.415,0.414,0.414,0.413,0.413,0.412,0.412,0.412,0.412,0.411,0.411,0.41,0.408,0.408,0.407,0.406,0.406,0.406,0.406,0.406,0.406,0.406,0.406,0.406,0.406,0.406,0.406,0.406,0.406,0.406,0.406,0.406,0.406,0.4055,0.405,0.404,0.404,0.404,0.404,0.404,0.405,0.404,0.404,0.404,0.405,0.404,0.0,0.0,0.0,0.0,0.402,0.4015,0.401,0.4,0.3995,0.399,0.399,0.399,0.3995,0.0,0.0,0.0,0.399,0.398,0.398,0.398,0.398,0.397,0.397,0.397,0.397,0.397,0.396,0.398,0.398,0.398,0.398,0.0,0.0,0.398,0.398,0.397,0.0,0.3955,0.395,0.395,0.394,0.394,0.394,0.394,0.393,0.393,0.393,0.393,0.393,0.393,0.393,0.393,0.392,0.392,0.392,0.392,0.392,0.392,0.392,0.393,0.392,0.392,0.392,0.391,0.39,0.389,0.389,0.388,0.388,0.387,0.386,0.386,0.386,0.386,0.386,0.386,0.386,0.386,0.386,0.386,0.387,0.387,0.386,0.0,0.0,0.0,0.385,0.385,0.385,0.384,0.384,0.384,0.384,0.383,0.384,0.384,0.384,0.384,0.0,0.0,0.0,0.0,0.0,0.3815,0.381,0.381,0.38,0.378,0.0,0.0,0.377,0.0,0.0,0.0,0.0,0.0,0.0,0.0,0.0,0.0,0.376,0.376,0.376,0.377,0.377,0.377,0.377,0.376,0.375,0.374,0.374,0.374,0.373,0.373,0.373,0.373,0.373,0.373,0.373,0.373,0.373,0.0,0.0,0.0,0.0,0.0,0.3695,0.369,0.368,0.368,0.368,0.368,0.368,0.368,0.368,0.368,0.368,0.369,0.369,0.369,0.369,0.369,0.369,0.369,0.369,0.369,0.369,0.369,0.369,0.368,0.368,0.368,0.368,0.368,0.368,0.368,0.0,0.0,0.0,0.0,0.3675,0.0,0.0,0.0,0.0,0.364,0.364,0.363,0.362,0.362,0.362,0.362,0.362,0.362,0.362,0.362,0.362,0.361,0.361,0.36,0.0,0.0,0.358,0.358,0.358,0.358,0.358,0.358,0.358,0.358,0.358,0.359,0.359,0.3595,0.0,0.0,0.359,0.359,0.0,0.0,0.0,0.0,0.358,0.358,0.358,0.358,0.3565,0.0,0.0,0.355,0.355,0.354,0.354,0.354,0.353,0.353,0.353,0.0,0.0,0.0,0.0,0.353,0.353,0.353,0.353,0.353,0.353,0.353,0.352,0.352,0.352,0.352,0.0,0.0,0.0,0.0,0.0,0.0,0.35,0.35,0.35,0.35,0.35,0.35,0.35,0.349,0.349,0.349,0.34875,0.348,0.348,0.347,0.347,0.347,0.346,0.345,0.345,0.344,0.0,0.0,0.0,0.3445,0.345,0.344,0.344,0.343,0.343,0.343,0.343,0.343,0.343,0.343,0.343,0.343,0.343,0.343,0.343,0.343,0.343,0.342,0.342,0.342,0.342,0.342,0.342,0.342,0.342,0.342,0.341,0.34,0.339,0.339,0.0,0.0,0.0,0.0,0.338,0.338,0.338,0.0,0.0,0.0,0.0,0.337,0.337,0.337,0.337,0.337,0.337,0.337,0.0,0.0,0.0,0.0,0.336,0.335,0.335,0.335,0.335,0.335,0.335,0.335,0.335,0.335,0.335,0.335,0.335,0.335,0.333,0.333,0.332,0.332,0.332,0.332,0.331,0.331,0.331,0.331,0.331,0.0,0.0,0.332,0.332,0.332,0.332,0.332,0.331,0.331,0.332,0.332,0.332,0.332,0.332,0.332,0.331,0.331,0.33,0.33,0.329,0.329,0.329,0.328,0.328,0.328,0.3255,0.323,0.323,0.323,0.326,0.324,0.323,0.323,0.323,0.323,0.323,0.323,0.323,0.323,0.323,0.323,0.323,0.323,0.323,0.323,0.323,0.323,0.323,0.32275000000000004,0.322,0.32225000000000004,0.322,0.321,0.321,0.32,0.32,0.32,0.32,0.32,0.32,0.32,0.0,0.0,0.0,0.32,0.32,0.319,0.318,0.318,0.318,0.318,0.318,0.0,0.0,0.0,0.0,0.0,0.0,0.0,0.0,0.0,0.0,0.0,0.0,0.0,0.0,0.0,0.0,0.0,0.0,0.0,0.0,0.0,0.0,0.0,0.0,0.0,0.0,0.0,0.0,0.0,0.0,0.0,0.0,0.0,0.0
0.42,0.42,0.419,0.418,0.417,0.416,0.416,0.417,0.416,0.417,0.41624999999999995,0.416,0.416,0.416,0.0,0.0,0.416,0.416,0.416,0.0,0.0,0.4145,0.41362499999999996,0.413,0.413,0.412,0.413,0.413,0.4125,0.412,0.411,0.411,0.411,0.411,0.411,0.41,0.41,0.41,0.41,0.408,0.407,0.407,0.407,0.406,0.406,0.405,0.403,0.403,0.403,0.403,0.403,0.403,0.403,0.403,0.403,0.40375000000000005,0.404,0.404,0.404,0.403,0.403,0.403,0.403,0.402625,0.402,0.402,0.402,0.402,0.40175000000000005,0.402,0.402,0.402,0.402,0.401,0.40125000000000005,0.401,0.401,0.0,0.0,0.0,0.398,0.398,0.398,0.397,0.39687500000000003,0.397,0.397,0.397,0.396,0.0,0.0,0.0,0.396,0.396,0.396,0.396,0.395,0.395,0.394,0.394,0.394,0.393,0.393,0.393,0.393,0.393,0.3935,0.0,0.0,0.395,0.395,0.394,0.394,0.394,0.393,0.393,0.392,0.392,0.391,0.391,0.391,0.391,0.391,0.391,0.391,0.39,0.39,0.39,0.389,0.389,0.389,0.389,0.39,0.389,0.39,0.391,0.391,0.39,0.39,0.389,0.389,0.388,0.386,0.386,0.385,0.385,0.385,0.385,0.385,0.385,0.385,0.385,0.385,0.385,0.385,0.385,0.385,0.385,0.385,0.385,0.385,0.385,0.384,0.383,0.382,0.381,0.381,0.381,0.381,0.381,0.381,0.381,0.381,0.381,0.0,0.0,0.0,0.0,0.0,0.377,0.377,0.377,0.377,0.376,0.375,0.374,0.374,0.374,0.374,0.0,0.0,0.0,0.0,0.373,0.373,0.373,0.37375,0.374,0.374,0.375,0.374,0.374,0.375,0.375,0.373,0.373,0.373,0.372,0.372,0.371,0.371,0.371,0.37,0.37,0.37,0.37,0.37,0.0,0.0,0.0,0.0,0.0,0.367,0.367,0.366,0.366,0.366,0.366,0.366,0.366,0.366,0.36575,0.366,0.366,0.366,0.366,0.366,0.367,0.366,0.0,0.0,0.367,0.366,0.366,0.366,0.366,0.366,0.366,0.366,0.365,0.0,0.0,0.0,0.0,0.0,0.0,0.365,0.0,0.0,0.0,0.0,0.3615,0.362,0.362,0.361,0.361,0.36,0.36,0.36,0.36,0.36,0.359,0.359,0.359,0.358,0.358,0.358,0.357,0.357,0.357,0.357,0.357,0.357,0.357,0.357,0.357,0.357,0.358,0.358,0.358,0.0,0.0,0.356,0.356,0.0,0.0,0.355,0.355,0.354,0.354,0.354,0.35424999999999995,0.354,0.0,0.0,0.353,0.352,0.352,0.352,0.352,0.352,0.352,0.351,0.0,0.0,0.0,0.0,0.3505,0.351,0.351,0.351,0.351,0.351,0.351,0.35,0.349,0.349,0.348,0.348,0.346,0.346,0.0,0.0,0.348,0.348,0.348,0.349,0.349,0.349,0.348,0.348,0.348,0.348,0.348,0.347,0.346,0.345,0.345,0.345,0.345,0.345,0.344,0.344,0.343,0.0,0.0,0.0,0.344,0.342,0.342,0.342,0.342,0.342,0.342,0.342,0.341,0.342,0.342,0.341,0.341,0.341,0.341,0.341,0.341,0.341,0.341,0.341,0.341,0.341,0.341,0.341,0.34,0.34,0.34,0.0,0.0,0.337,0.337,0.337,0.337,0.337,0.336,0.336,0.337,0.0,0.0,0.0,0.0,0.0,0.335,0.335,0.335,0.335,0.335,0.335,0.3345,0.0,0.0,0.0,0.0,0.333,0.333,0.333,0.333,0.333,0.333,0.333,0.333,0.333,0.333,0.333,0.0,0.0,0.332,0.332,0.331,0.33,0.33,0.329,0.329,0.329,0.329,0.329,0.328,0.328,0.329,0.329,0.329,0.33,0.33,0.33,0.33,0.33025000000000004,0.33,0.33,0.33,0.331,0.331,0.331,0.33,0.329,0.329,0.329,0.328,0.327,0.326,0.324,0.324,0.324,0.325,0.323,0.322,0.322,0.322,0.322,0.322,0.321,0.321,0.321,0.321,0.321,0.321,0.321,0.321,0.321,0.321,0.321,0.321,0.321,0.322,0.322,0.322,0.321,0.321,0.32,0.32,0.32,0.319,0.319,0.318,0.318,0.318,0.318,0.318,0.318,0.3185,0.0,0.0,0.0,0.318,0.318,0.317,0.317,0.317,0.317,0.3165,0.0,0.0,0.0,0.0,0.0,0.0,0.0,0.0,0.0,0.0,0.0,0.0,0.0,0.0,0.0,0.0,0.0,0.0,0.0,0.0,0.0,0.0,0.0,0.0,0.0,0.0,0.0,0.0,0.0,0.0,0.0,0.0,0.0,0.0,0.0
0.0,0.417,0.416,0.416,0.416,0.415,0.415,0.415,0.415,0.414,0.412,0.412,0.412,0.413,0.0,0.0,0.412,0.4125,0.412,0.0,0.0,0.412,0.411,0.411,0.411,0.411,0.411,0.411,0.41,0.41,0.41,0.409,0.409,0.409,0.408,0.408,0.408,0.407,0.407,0.406,0.406,0.40499999999999997,0.405,0.404,0.402,0.402,0.401,0.401,0.401,0.401,0.4,0.4,0.4005,0.40075000000000005,0.401,0.402,0.402,0.402,0.402,0.401,0.401,0.40075,0.401,0.4,0.4,0.399,0.399,0.399,0.399,0.4,0.4,0.3995,0.39937500000000004,0.399,0.398,0.398,0.397,0.396,0.395,0.395,0.394,0.394,0.394,0.394,0.394,0.394,0.393,0.393,0.393,0.393,0.393,0.393,0.393,0.393,0.39325000000000004,0.393,0.393,0.393,0.392,0.392,0.391,0.391,0.39,0.39,0.39,0.39,0.389,0.389,0.389,0.392,0.392,0.391,0.39,0.39,0.3895,0.389375,0.389,0.389,0.389,0.389,0.389,0.389,0.389,0.38875,0.389,0.388,0.388,0.388,0.388,0.388,0.388,0.389,0.389,0.389,0.389,0.39,0.39,0.389,0.389,0.389,0.387,0.386,0.385,0.385,0.384,0.38375000000000004,0.384,0.384,0.384,0.384,0.384,0.384,0.384,0.384,0.385,0.385,0.384,0.384,0.383,0.383,0.383,0.382,0.381,0.381,0.381,0.38,0.38,0.38,0.379,0.378,0.378,0.377,0.37775000000000003,0.378,0.0,0.0,0.0,0.0,0.0,0.374,0.374,0.374,0.374,0.37325,0.373,0.373,0.373,0.372,0.37225,0.373,0.0,0.0,0.0,0.372,0.372,0.372,0.372,0.37225,0.373,0.373,0.373,0.373,0.372,0.372,0.371,0.371,0.37,0.37,0.369,0.369,0.369,0.369,0.369,0.369,0.369,0.368,0.368,0.0,0.0,0.0,0.367,0.367,0.366,0.366,0.366,0.365,0.365,0.365,0.364,0.364,0.363,0.363,0.363,0.36375,0.364,0.364,0.364,0.0,0.0,0.0,0.0,0.3645,0.364,0.364,0.364,0.364,0.363,0.0,0.0,0.0,0.0,0.0,0.0,0.0,0.0,0.0,0.3615,0.0,0.0,0.0,0.0,0.359,0.359,0.359,0.359,0.359,0.359,0.359,0.359,0.359,0.359,0.359,0.359,0.358,0.358,0.358,0.358,0.357,0.357,0.35624999999999996,0.356,0.356,0.35625,0.357,0.356,0.356,0.355,0.356,0.355,0.355,0.354,0.353,0.352,0.352,0.351,0.351,0.351,0.351,0.351,0.351,0.351,0.351,0.351,0.351,0.351,0.351,0.351,0.351,0.351,0.351,0.35,0.35,0.0,0.0,0.348,0.0,0.0,0.348,0.348,0.348,0.349,0.34925,0.349,0.0,0.0,0.348,0.347,0.346,0.346,0.34500000000000003,0.345,0.0,0.0,0.346,0.347,0.348,0.348,0.348,0.348,0.347,0.346,0.346,0.346,0.3455,0.345,0.0,0.0,0.342,0.342,0.342,0.342,0.342,0.342,0.342,0.342,0.342,0.342,0.342,0.342,0.341,0.341,0.341,0.341,0.341,0.341,0.34,0.34,0.34,0.34,0.34,0.339,0.339,0.3385,0.338,0.338,0.339,0.339,0.339,0.339,0.338,0.338,0.338,0.338,0.338,0.0,0.0,0.335,0.335,0.335,0.335,0.335,0.335,0.335,0.335,0.0,0.0,0.0,0.0,0.0,0.333,0.333,0.333,0.333,0.332,0.332,0.332,0.332,0.0,0.0,0.332,0.332,0.332,0.332,0.331,0.331,0.332,0.332,0.332,0.332,0.332,0.331,0.0,0.0,0.3305,0.33,0.329,0.329,0.328,0.328,0.328,0.328,0.327,0.327,0.327,0.327,0.328,0.329,0.329,0.329,0.329,0.33,0.33,0.33,0.33,0.329,0.329,0.329,0.329,0.329,0.0,0.0,0.0,0.325,0.324,0.324,0.323,0.323,0.32275,0.323,0.322,0.321,0.321,0.321,0.321,0.321,0.32,0.32,0.32,0.32,0.32,0.32,0.32,0.32,0.32,0.32,0.32,0.32,0.32,0.32,0.32,0.32,0.319,0.319,0.319,0.318,0.318,0.318,0.318,0.318,0.31725,0.317,0.317,0.317,0.317,0.317,0.317,0.316,0.316,0.316,0.316,0.316,0.316,0.315,0.315,0.315,0.315,0.0,0.0,0.0,0.0,0.0,0.0,0.0,0.0,0.0,0.0,0.0,0.0,0.0,0.0,0.0,0.0,0.0,0.0,0.0,0.0,0.0,0.0,0.0,0.0,0.0,0.0,0.0,0.0,0.0,0.0,0.0,0.0,0.0,0.0,0.0
0.0,0.414,0.415,0.41424999999999995,0.414,0.414,0.414,0.414,0.414,0.411,0.411,0.41,0.41,0.41,0.41,0.41,0.41,0.41,0.41,0.41,0.41,0.41,0.41,0.409,0.409,0.408,0.408,0.408,0.408,0.407,0.407,0.407,0.407,0.407,0.407,0.406,0.406,0.406,0.405,0.404,0.403,0.402,0.402,0.401,0.4,0.399,0.399,0.398,0.398,0.398,0.398,0.398,0.398,0.3984375,0.398,0.399,0.399,0.399,0.398,0.398,0.398,0.398,0.398,0.398,0.397,0.398,0.398,0.398,0.3975,0.39775000000000005,0.398,0.397,0.397,0.397,0.396,0.395,0.394,0.393,0.393,0.393,0.393,0.392,0.392,0.392,0.391,0.391,0.391,0.391,0.391,0.391,0.391,0.391,0.391,0.391,0.391,0.39,0.39,0.389,0.389,0.389,0.389,0.388,0.388,0.388,0.388,0.388,0.387,0.386,0.385,0.385,0.384,0.388,0.387,0.386,0.386,0.386,0.386,0.386,0.386,0.386,0.386,0.386,0.386,0.386,0.386,0.386,0.386,0.386,0.386,0.3865,0.387,0.388,0.388,0.388,0.388,0.389,0.389,0.386,0.3855,0.385,0.385,0.384,0.384,0.383,0.382,0.382,0.382,0.382,0.382,0.382,0.382,0.3825,0.383,0.383,0.383,0.383,0.382,0.382,0.381,0.381,0.381,0.38,0.379,0.378,0.377,0.377,0.377,0.377,0.377,0.376,0.376,0.375,0.375,0.37450000000000006,0.374,0.373,0.373,0.373,0.372,0.372,0.372,0.371,0.371,0.37,0.37,0.37,0.37,0.37,0.37,0.369,0.369,0.369,0.37,0.37,0.37,0.37,0.37,0.37,0.37,0.371,0.371,0.37,0.37,0.369,0.369,0.36849999999999994,0.368,0.368,0.3675,0.367,0.367,0.367,0.367,0.366,0.366,0.366,0.366,0.366,0.366,0.365,0.365,0.364,0.364,0.364,0.364,0.363,0.362,0.362,0.362,0.362,0.362,0.362,0.362,0.362,0.362,0.362,0.3615,0.0,0.0,0.0,0.0,0.362,0.362,0.362,0.362,0.362,0.362,0.0,0.0,0.0,0.36,0.36,0.36,0.36,0.358,0.358,0.358,0.0,0.0,0.0,0.358,0.358,0.358,0.358,0.358,0.358,0.358,0.358,0.357,0.358,0.358,0.358,0.358,0.358,0.358,0.357,0.357,0.356,0.356,0.355,0.355,0.356,0.355,0.355,0.354,0.353,0.353,0.352,0.352,0.352,0.351,0.351,0.349,0.349,0.349,0.349,0.349,0.349,0.349,0.349,0.349,0.349,0.349,0.349,0.349,0.349,0.349,0.349,0.349,0.348,0.348,0.348,0.0,0.0,0.3465,0.345,0.3455,0.346,0.346,0.347,0.347,0.348,0.3465,0.0,0.0,0.345,0.345,0.344,0.344,0.343,0.0,0.0,0.344,0.344,0.345,0.345,0.345,0.345,0.345,0.345,0.3445,0.344,0.344,0.343,0.342,0.0,0.0,0.0,0.341,0.3415,0.0,0.0,0.341,0.342,0.342,0.342,0.342,0.341,0.34,0.339,0.339,0.339,0.339,0.339,0.339,0.339,0.339,0.338,0.338,0.338,0.338,0.337,0.336625,0.336,0.336,0.337,0.337,0.337,0.336,0.336,0.335,0.335,0.335,0.335,0.3345,0.334,0.333,0.333,0.333,0.333,0.333,0.333,0.333,0.333,0.333,0.332,0.0,0.0,0.331,0.3315,0.332,0.331,0.331,0.33,0.33,0.33,0.33,0.33,0.329,0.329,0.329,0.329,0.33,0.33,0.33,0.33,0.33,0.33,0.33,0.3295,0.329,0.0,0.0,0.329,0.328,0.328,0.327,0.327,0.327,0.327,0.327,0.326,0.326,0.326,0.327,0.327,0.328,0.328,0.328,0.329,0.329,0.329,0.329,0.329,0.329,0.328,0.32575,0.325,0.0,0.0,0.0,0.0,0.322,0.322,0.321,0.321,0.321,0.321,0.321,0.321,0.321,0.32,0.32,0.32,0.32,0.319,0.318,0.318,0.319,0.319,0.318,0.319,0.319,0.319,0.31925000000000003,0.32,0.32,0.319,0.319,0.318,0.318,0.318,0.318,0.317,0.316,0.316,0.316,0.3165,0.316375,0.316,0.316,0.316,0.315,0.315,0.315,0.315,0.315,0.315,0.315,0.315,0.315,0.315,0.315,0.315,0.315,0.315,0.0,0.0,0.0,0.0,0.0,0.0,0.0,0.0,0.0,0.0,0.0,0.0,0.0,0.0,0.0,0.0,0.0,0.0,0.0,0.0,0.0,0.0,0.0,0.0,0.0,0.0,0.0,0.0,0.0,0.0,0.0,0.0,0.0,0.0,0.0
0.411,0.41174999999999995,0.412,0.412,0.412,0.411,0.411,0.411,0.411,0.409,0.408,0.407,0.407,0.407,0.408,0.408,0.407,0.407,0.407,0.407,0.407,0.406,0.406,0.406,0.405,0.405,0.406,0.406,0.406,0.406,0.406,0.406,0.406,0.406,0.404,0.404,0.402,0.4,0.399,0.399,0.398,0.398,0.398,0.398,0.397,0.397,0.397,0.397,0.397,0.397,0.397,0.397,0.397,0.397,0.397,0.397,0.397,0.397,0.0,0.0,0.0,0.396,0.396,0.396,0.395,0.396,0.396,0.396,0.396,0.3954375,0.395,0.394,0.394,0.394,0.393,0.393,0.392,0.392,0.391,0.391,0.39,0.39,0.39,0.389,0.389,0.389,0.389,0.389,0.389,0.389,0.389,0.389,0.389,0.388,0.388,0.388,0.387,0.386,0.386,0.386,0.386,0.386,0.385,0.385,0.385,0.385,0.385,0.383,0.38275000000000003,0.382,0.381,0.381,0.381,0.381,0.384,0.384,0.384,0.384,0.384,0.385,0.385,0.385,0.385,0.384,0.384,0.384,0.384,0.384,0.385,0.385,0.385,0.385,0.385,0.385,0.385,0.385,0.385,0.383,0.382,0.381,0.381,0.381,0.381,0.38,0.381,0.381,0.381,0.381,0.381,0.381,0.381,0.381,0.381,0.381,0.0,0.0,0.0,0.0,0.0,0.0,0.0,0.0,0.0,0.0,0.0,0.375,0.375,0.374,0.374,0.374,0.373,0.373,0.373,0.371,0.371,0.37,0.37,0.37,0.369,0.37,0.37,0.37,0.369,0.369,0.0,0.0,0.369,0.369,0.0,0.0,0.0,0.368,0.369,0.369,0.369,0.369,0.369,0.369,0.36825,0.369,0.369,0.0,0.0,0.366,0.366,0.366,0.366,0.366,0.366,0.366,0.366,0.366,0.365,0.365,0.365,0.364,0.363,0.363,0.362,0.362,0.362,0.362,0.362,0.362,0.362,0.362,0.361,0.361,0.36,0.36,0.36,0.36,0.359,0.359,0.359,0.359,0.359,0.0,0.0,0.0,0.359,0.359,0.359,0.359,0.359,0.358,0.3585,0.0,0.0,0.355,0.355,0.356,0.356,0.356,0.355,0.355,0.355,0.355,0.356,0.356,0.356,0.356,0.356,0.357,0.357,0.357,0.357,0.356,0.356,0.356,0.356,0.357,0.357,0.357,0.357,0.356,0.355,0.354,0.354,0.354,0.354,0.352,0.0,0.0,0.0,0.3505,0.351,0.351,0.351,0.35,0.349,0.348,0.348,0.348,0.348,0.348,0.348,0.348,0.348,0.348,0.34775,0.348,0.348,0.3475,0.3475,0.3475,0.3475,0.0,0.0,0.0,0.347,0.345,0.345,0.345,0.345,0.343,0.344,0.344,0.344,0.345,0.345,0.345,0.344,0.0,0.0,0.342,0.342,0.342,0.342,0.0,0.0,0.0,0.0,0.0,0.0,0.3435,0.344,0.344,0.344,0.3435,0.34275,0.342,0.341,0.341,0.3405,0.0,0.0,0.0,0.34,0.341,0.0,0.0,0.341,0.0,0.0,0.0,0.3405,0.34,0.339,0.3385,0.338,0.338,0.338,0.337,0.337,0.337,0.336,0.336,0.336,0.3355,0.335,0.335,0.335,0.335,0.0,0.0,0.0,0.3345,0.334,0.333,0.333,0.332,0.332,0.332,0.332,0.332,0.332,0.332,0.332,0.332,0.332,0.332,0.332,0.332,0.332,0.331,0.33,0.33,0.33,0.33,0.33,0.33,0.329,0.329,0.329,0.329,0.328,0.328,0.328,0.328,0.327,0.3275,0.328,0.328,0.328,0.328,0.327,0.327,0.327,0.327,0.327,0.327,0.327,0.327,0.326,0.326,0.326,0.326,0.326,0.326,0.326,0.326,0.3255,0.326,0.326,0.326,0.326,0.326,0.327,0.327,0.327,0.328,0.328,0.329,0.327,0.326,0.321,0.3215,0.0,0.0,0.0,0.32,0.32,0.32,0.32,0.32,0.32,0.32,0.32,0.32,0.319,0.319,0.318,0.318,0.318,0.318,0.318,0.318,0.318,0.318,0.318,0.318,0.318,0.318,0.318,0.318,0.318,0.318,0.318,0.317,0.317,0.317,0.316,0.315,0.315,0.315,0.315,0.315,0.315,0.315,0.315,0.315,0.314,0.314,0.314,0.314,0.313,0.313,0.313,0.314,0.314,0.314,0.314,0.314,0.315,0.315,0.0,0.0,0.0,0.0,0.0,0.0,0.0,0.0,0.0,0.0,0.0,0.0,0.0,0.0,0.0,0.0,0.0,0.0,0.0,0.0,0.0,0.0,0.0,0.0,0.0,0.0,0.0,0.0,0.0,0.0,0.0,0.0,0.0,0.0,0.0
0.41,0.41,0.41,0.41,0.0,0.0,0.409,0.408,0.407,0.406,0.406,0.406,0.406,0.406,0.406,0.406,0.406,0.406,0.405,0.405,0.405,0.403,0.403,0.402,0.402,0.402,0.402,0.402,0.402,0.403,0.403,0.404,0.404,0.402,0.398,0.397,0.396,0.396,0.396,0.396,0.396,0.396,0.395,0.395,0.395,0.394,0.394,0.394,0.394,0.394,0.3945,0.39437500000000003,0.394,0.394,0.394,0.394,0.394,0.395,0.0,0.0,0.0,0.394,0.394,0.394,0.394,0.394,0.394,0.394,0.393,0.393,0.393,0.393,0.392,0.392,0.391,0.391,0.39,0.39,0.389,0.389,0.389,0.388,0.388,0.388,0.388,0.387,0.387,0.38749999999999996,0.388,0.388,0.388,0.387,0.387,0.386,0.0,0.3855,0.384875,0.385,0.385,0.385,0.384,0.384,0.383,0.383,0.382,0.382,0.38175,0.381,0.381,0.381,0.38,0.38,0.38,0.379,0.379,0.379,0.382,0.381,0.382,0.382,0.381,0.382,0.381,0.381,0.381,0.381,0.381,0.381,0.381,0.382,0.382,0.382,0.383,0.0,0.0,0.0,0.0,0.0,0.378,0.378,0.377,0.377,0.377,0.377,0.378,0.378,0.379,0.379,0.379,0.379,0.3795,0.3795,0.0,0.0,0.0,0.0,0.0,0.0,0.0,0.0,0.0,0.0,0.0,0.0,0.0,0.373,0.373,0.373,0.372,0.371,0.371,0.37,0.369,0.369,0.369,0.369,0.369,0.369,0.369,0.369,0.369,0.369,0.369,0.0,0.0,0.0,0.3675,0.368,0.0,0.0,0.0,0.0,0.367,0.36675,0.366,0.366,0.366,0.366,0.365,0.366,0.3655,0.0,0.0,0.363,0.363,0.363,0.363,0.363,0.363,0.363,0.363,0.363,0.362,0.362,0.362,0.362,0.362,0.362,0.362,0.361,0.361,0.361,0.361,0.361,0.361,0.361,0.36,0.359,0.359,0.359,0.359,0.358,0.358,0.357,0.356,0.357,0.357,0.357,0.358,0.357,0.358,0.358,0.358,0.357,0.356,0.356,0.355,0.355,0.354,0.354,0.354,0.354,0.355,0.354,0.353,0.353,0.0,0.3535,0.354,0.354,0.354,0.354,0.354,0.355,0.355,0.355,0.354,0.353,0.353,0.354,0.354,0.354,0.353,0.3525,0.352,0.352,0.352,0.351,0.0,0.0,0.348,0.0,0.0,0.0,0.0,0.348,0.0,0.0,0.3485,0.348125,0.348,0.3465,0.0,0.3465,0.348,0.347,0.347,0.347,0.347,0.346,0.346,0.346,0.346,0.346,0.346,0.346,0.346,0.0,0.0,0.0,0.0,0.343,0.342,0.342,0.342,0.341,0.342,0.342,0.342,0.342,0.342,0.342,0.341,0.34,0.34,0.34,0.34,0.34,0.3405,0.0,0.0,0.0,0.0,0.0,0.0,0.342,0.34299999999999997,0.344,0.343,0.342,0.341,0.341,0.34,0.339,0.339,0.0,0.0,0.0,0.339,0.0,0.0,0.0,0.0,0.0,0.0,0.0,0.339,0.0,0.0,0.0,0.336,0.335,0.335,0.335,0.335,0.0,0.0,0.0,0.0,0.33375,0.334,0.333,0.333,0.333,0.0,0.0,0.0,0.332,0.332,0.331,0.331,0.33,0.33,0.33,0.33,0.33,0.33,0.3305,0.331,0.331,0.331,0.331,0.331,0.3305,0.33,0.33,0.329,0.329,0.329,0.329,0.329,0.329,0.329,0.327,0.327,0.327,0.327,0.326,0.326,0.326,0.326,0.326,0.326,0.326,0.326,0.326,0.326,0.325,0.325,0.325,0.325,0.325,0.325,0.325,0.325,0.326,0.326,0.326,0.326,0.325,0.325,0.324,0.324,0.324,0.324,0.325,0.325,0.3255,0.326,0.326,0.0,0.0,0.0,0.0,0.0,0.321,0.319,0.318,0.318,0.318,0.318,0.318,0.318,0.318,0.318,0.318,0.318,0.3185,0.0,0.0,0.0,0.0,0.318,0.317,0.317,0.317,0.31675,0.317,0.317,0.317,0.316,0.316,0.316,0.316,0.316,0.316,0.315,0.315,0.3155,0.315,0.315,0.315,0.315,0.315,0.314,0.314,0.314,0.314,0.313,0.313,0.313,0.313,0.313,0.313,0.313,0.313,0.313,0.313,0.313,0.313,0.313,0.31325,0.313,0.3135,0.314,0.314,0.0,0.0,0.0,0.0,0.0,0.0,0.0,0.0,0.0,0.0,0.0,0.0,0.0,0.0,0.0,0.0,0.0,0.0,0.0,0.0,0.0,0.0,0.0,0.0,0.0,0.0,0.0,0.0,0.0,0.0,0.0,0.0,0.0,0.0,0.0
0.408,0.40800000000000003,0.0,0.0,0.0,0.0,0.405,0.405,0.40375,0.403,0.403,0.403,0.403,0.403,0.404,0.403,0.403,0.402,0.402,0.402,0.403,0.402,0.40075000000000005,0.4,0.4,0.4,0.4,0.4,0.4,0.399,0.398,0.39675000000000005,0.396,0.3945,0.393,0.393,0.39225,0.392,0.393,0.393,0.393,0.393,0.393,0.393,0.393,0.393,0.393,0.393,0.392,0.392,0.392,0.392,0.392,0.393,0.393,0.393,0.393,0.393,0.0,0.0,0.393,0.393,0.393,0.393,0.393,0.393,0.393,0.393,0.392,0.391,0.391,0.39,0.39,0.39,0.39,0.389,0.389,0.389,0.388,0.388,0.386,0.385,0.385,0.385,0.385,0.385,0.386,0.386,0.386,0.386,0.385,0.385,0.385,0.3835,0.38325,0.383,0.382,0.382,0.382,0.381,0.381,0.381,0.381,0.381,0.3805,0.38,0.379,0.378,0.378,0.377,0.377,0.377,0.377,0.377,0.377,0.377,0.377,0.379,0.379,0.379,0.379,0.379,0.378,0.378,0.378,0.378,0.379,0.37925,0.38,0.38,0.3795,0.0,0.0,0.0,0.0,0.0,0.0,0.0,0.374,0.374,0.374,0.0,0.0,0.376,0.376,0.377,0.377,0.377,0.378,0.378,0.378,0.378,0.0,0.0,0.0,0.0,0.0,0.0,0.374,0.0,0.0,0.373,0.0,0.0,0.0,0.37,0.37,0.37,0.37,0.369,0.36875,0.368,0.0,0.0,0.368,0.368,0.368,0.368,0.367,0.368,0.367,0.367,0.367,0.3665,0.366,0.366,0.366,0.0,0.0,0.0,0.0,0.0,0.365,0.365,0.365,0.0,0.0,0.0,0.3625,0.362,0.362,0.3615,0.361,0.361,0.361,0.36,0.36,0.36,0.36,0.36,0.36,0.36,0.36,0.36,0.36,0.36,0.36,0.36,0.36,0.36,0.359,0.0,0.0,0.0,0.359,0.359,0.358,0.357,0.357,0.357,0.356,0.356,0.355,0.355,0.355,0.355,0.355,0.355,0.355,0.355,0.356,0.356,0.356,0.356,0.355,0.355,0.354,0.352,0.352,0.352,0.352,0.0,0.0,0.0,0.0,0.0,0.0,0.352,0.352,0.352,0.0,0.0,0.0,0.352,0.352,0.3515,0.35124999999999995,0.351,0.352,0.353,0.352,0.353,0.0,0.0,0.0,0.3485,0.3485,0.0,0.0,0.0,0.342,0.0,0.0,0.0,0.0,0.0,0.0,0.0,0.346,0.346,0.346,0.345,0.345,0.345,0.345,0.345,0.345,0.345,0.345,0.345,0.0,0.344,0.344,0.344,0.344,0.344,0.3435,0.0,0.0,0.0,0.0,0.34,0.34,0.34,0.34,0.34,0.34,0.34,0.34,0.34,0.34,0.339,0.339,0.339,0.339,0.338,0.338,0.338,0.339,0.0,0.0,0.0,0.0,0.0,0.341,0.3415,0.342,0.0,0.0,0.3405,0.34,0.339,0.338,0.337,0.336,0.336,0.336,0.336,0.336,0.0,0.0,0.0,0.0,0.0,0.0,0.0,0.339,0.0,0.0,0.0,0.334,0.333,0.333,0.0,0.0,0.0,0.0,0.0,0.0,0.332,0.331,0.331,0.331,0.331,0.33,0.33,0.33,0.329,0.329,0.329,0.329,0.329,0.329,0.329,0.329,0.329,0.329,0.329,0.33,0.33,0.329,0.329,0.329,0.329,0.329,0.329,0.329,0.328,0.328,0.328,0.327,0.327,0.326,0.326,0.326,0.326,0.325,0.325,0.325,0.325,0.324,0.324,0.324,0.324,0.324,0.324,0.323,0.323,0.323,0.323,0.323,0.323,0.323,0.324,0.324,0.324,0.324,0.324,0.324,0.324,0.323,0.3215,0.0,0.322,0.323,0.323,0.321,0.32325000000000004,0.32306250000000003,0.323,0.0,0.0,0.0,0.0,0.0,0.316,0.316,0.317,0.317,0.317,0.317,0.317,0.317,0.317,0.317,0.317,0.317,0.317,0.0,0.0,0.0,0.0,0.317,0.316,0.316,0.315,0.315,0.315,0.315,0.315,0.315,0.3145,0.314,0.314,0.314,0.0,0.0,0.314,0.314,0.314,0.314,0.314,0.314,0.313,0.313,0.312,0.312,0.312,0.312,0.0,0.0,0.0,0.312,0.312,0.312,0.312,0.312,0.312,0.312,0.312,0.313,0.313,0.313,0.313,0.0,0.0,0.0,0.0,0.0,0.0,0.0,0.0,0.0,0.0,0.0,0.0,0.0,0.0,0.0,0.0,0.0,0.0,0.0,0.0,0.0,0.0,0.0,0.0,0.0,0.0,0.0,0.0,0.0,0.0,0.0,0.0,0.0,0.0,0.0,0.0,0.0
0.407,0.406,0.0,0.0,0.0,0.0,0.401,0.401,0.4,0.4005,0.40075000000000005,0.401,0.401,0.401,0.402,0.402,0.4015,0.401,0.0,0.399,0.398,0.398,0.398,0.3975,0.39737500000000003,0.397,0.397,0.397,0.0,0.3925,0.391125,0.389,0.386,0.388375,0.388,0.389,0.388,0.389,0.389,0.39,0.391,0.391,0.391,0.391,0.391,0.391,0.391,0.39,0.39,0.39,0.39,0.39,0.391,0.391,0.391,0.391,0.391,0.391,0.392,0.392,0.392,0.392,0.392,0.393,0.393,0.393,0.393,0.392,0.391,0.39,0.39,0.39,0.389,0.389,0.389,0.389,0.386,0.0,0.3845,0.385,0.385,0.384,0.383,0.3835,0.385,0.385,0.385,0.385,0.385,0.384,0.384,0.384,0.381,0.381,0.38,0.379,0.379,0.379,0.379,0.378,0.378,0.378,0.378,0.377,0.37687499999999996,0.376,0.376,0.376,0.376,0.375,0.375,0.374,0.375,0.374,0.374,0.374,0.374,0.376,0.0,0.0,0.375,0.374,0.374,0.376,0.376,0.37625000000000003,0.377,0.377,0.377,0.377,0.377,0.0,0.0,0.374,0.373,0.0,0.0,0.0,0.372,0.371,0.371,0.0,0.0,0.373,0.373,0.3745,0.375375,0.377,0.377,0.377,0.377,0.377,0.0,0.0,0.0,0.0,0.37,0.37,0.369,0.368,0.367,0.3685,0.36824999999999997,0.368,0.368,0.368,0.368,0.369,0.368,0.368,0.367,0.366,0.0,0.0,0.3665,0.366,0.366,0.366,0.366,0.366,0.366,0.366,0.365,0.365,0.364,0.364,0.364,0.0,0.0,0.0,0.0,0.0,0.363,0.362,0.362,0.0,0.0,0.0,0.36,0.359,0.359,0.359,0.358,0.358,0.358,0.358,0.358,0.358,0.358,0.358,0.358,0.359,0.359,0.359,0.358,0.358,0.359,0.359,0.359,0.358,0.0,0.0,0.0,0.0,0.358,0.357,0.356,0.355,0.355,0.355,0.355,0.354,0.354,0.352,0.35274999999999995,0.353,0.353,0.353,0.353,0.354,0.355,0.355,0.355,0.355,0.354,0.352,0.351,0.351,0.351,0.352,0.352,0.0,0.0,0.0,0.0,0.0,0.351,0.35,0.35,0.0,0.0,0.0,0.0,0.349,0.3485,0.348,0.34806249999999994,0.348,0.347,0.346,0.0,0.0,0.0,0.0,0.0,0.345,0.345,0.0,0.0,0.342,0.341,0.341,0.342,0.0,0.0,0.0,0.343,0.343,0.344,0.344,0.343,0.343,0.34299999999999997,0.343,0.343,0.343,0.343,0.343,0.342,0.0,0.0,0.342,0.342,0.341,0.341,0.341,0.341,0.339,0.339,0.338,0.338,0.338,0.338,0.338,0.338,0.338,0.0,0.0,0.339,0.339,0.338,0.33775000000000005,0.338,0.338,0.338,0.338,0.337,0.338,0.338,0.338,0.338,0.3385,0.339,0.339,0.34,0.341,0.341,0.0,0.0,0.339,0.339,0.338,0.336,0.335,0.335,0.335,0.334,0.333,0.333,0.0,0.0,0.0,0.0,0.0,0.0,0.336,0.3355,0.0,0.0,0.332,0.332,0.332,0.331,0.0,0.0,0.0,0.0,0.0,0.329,0.329,0.328,0.328,0.328,0.328,0.328,0.327,0.327,0.327,0.327,0.327,0.327,0.327,0.327,0.327,0.327,0.327,0.327,0.327,0.327,0.327,0.328,0.328,0.328,0.328,0.328,0.328,0.3275,0.327,0.326,0.326,0.326,0.3255,0.0,0.0,0.324,0.324,0.324,0.323,0.323,0.323,0.323,0.323,0.323,0.323,0.0,0.3225,0.322,0.32175,0.321,0.321,0.321,0.321,0.3215,0.0,0.0,0.0,0.322,0.323,0.322,0.322,0.321,0.319,0.3195,0.32,0.32,0.32,0.32,0.321,0.32,0.318,0.0,0.0,0.0,0.0,0.0,0.315,0.315,0.315,0.315,0.316,0.316,0.316,0.316,0.316,0.316,0.316,0.317,0.317,0.0,0.0,0.0,0.315,0.315,0.315,0.314,0.314,0.313,0.313,0.313,0.313,0.312,0.312,0.312,0.312,0.3125,0.0,0.0,0.0,0.312,0.0,0.3125,0.312,0.312,0.312,0.312,0.311,0.311,0.31,0.3105,0.0,0.0,0.0,0.0,0.31,0.311,0.312,0.312,0.312,0.312,0.3115,0.312,0.0,0.0,0.0,0.0,0.0,0.0,0.0,0.0,0.0,0.0,0.0,0.0,0.0,0.0,0.0,0.0,0.0,0.0,0.0,0.0,0.0,0.0,0.0,0.0,0.0,0.0,0.0,0.0,0.0,0.0,0.0,0.0,0.0,0.0,0.0,0.0,0.0,0.0,0.0,0.0
0.0,0.0,0.0,0.0,0.4,0.399,0.398,0.398,0.398,0.398,0.3976875000000001,0.398,0.398,0.398,0.398,0.0,0.0,0.0,0.0,0.396,0.396,0.396,0.39525,0.395,0.395,0.394,0.394,0.392,0.389,0.386,0.385,0.385,0.385,0.385,0.386,0.386,0.387,0.38725,0.388,0.388,0.389,0.389,0.389,0.389,0.389,0.389,0.389,0.389,0.389,0.389,0.389,0.389,0.389,0.389,0.389,0.389,0.389,0.39,0.39,0.39,0.39,0.3905,0.391,0.391,0.392,0.393,0.392,0.391,0.3875,0.387,0.387,0.386,0.386,0.385,0.385,0.3845,0.383,0.382,0.381,0.381,0.382,0.381,0.381,0.381,0.382,0.382,0.382,0.381,0.381,0.381,0.38,0.37975000000000003,0.378,0.377,0.377,0.377,0.376,0.376,0.377,0.376,0.376,0.376,0.375,0.375,0.374,0.374,0.373,0.373,0.373,0.373,0.373,0.373,0.373,0.373,0.373,0.373,0.373,0.373,0.0,0.0,0.373,0.37224999999999997,0.372,0.372,0.372,0.374,0.374,0.375,0.374,0.373,0.373,0.373,0.371,0.37,0.369,0.369,0.369,0.369,0.368,0.3685,0.369,0.369,0.3695,0.37,0.37,0.372,0.373,0.3735,0.374,0.374,0.375,0.375,0.374,0.367,0.365,0.364,0.363,0.362,0.362,0.362,0.363,0.364,0.3648125,0.365,0.365,0.365,0.365,0.366,0.366,0.366,0.365,0.364,0.364,0.364,0.365,0.365,0.365,0.365,0.365,0.365,0.365,0.364,0.364,0.363,0.362,0.362,0.361,0.0,0.0,0.0,0.0,0.0,0.36,0.36,0.36,0.0,0.0,0.0,0.358,0.357,0.356,0.356,0.355,0.355,0.356,0.356,0.356,0.356,0.356,0.3565,0.357,0.357,0.356,0.356,0.35625,0.357,0.356,0.356,0.355,0.355,0.0,0.0,0.0,0.355,0.355,0.355,0.355,0.354,0.3535,0.35287499999999994,0.352,0.352,0.351,0.351,0.351,0.351,0.351,0.351,0.351,0.351,0.351,0.351,0.35,0.349,0.349,0.349,0.348,0.348,0.348,0.348,0.348,0.0,0.0,0.0,0.0,0.0,0.347,0.347,0.347,0.0,0.0,0.0,0.0,0.346,0.34525,0.3453125,0.345,0.344,0.344,0.342,0.0,0.0,0.0,0.342,0.342,0.342,0.342,0.341,0.34,0.339,0.338,0.338,0.339,0.339,0.0,0.0,0.3405,0.341,0.341,0.341,0.341,0.341,0.341,0.341,0.341,0.341,0.341,0.341,0.341,0.341,0.341,0.341,0.339,0.339,0.338,0.338,0.0,0.0,0.0,0.0,0.3365,0.3365,0.3365,0.336625,0.337,0.337,0.0,0.0,0.337,0.337,0.337,0.336,0.336,0.336,0.336,0.336,0.336,0.336,0.336,0.336,0.336,0.0,0.0,0.337,0.337,0.338,0.338,0.338,0.338,0.337,0.336,0.335,0.333,0.333,0.332,0.332,0.331,0.0,0.0,0.0,0.0,0.0,0.0,0.0,0.0,0.0,0.332,0.332,0.332,0.331,0.331,0.33,0.329,0.329,0.0,0.0,0.0,0.327,0.327,0.326,0.326,0.326,0.326,0.326,0.326,0.3255,0.325,0.325,0.326,0.326,0.326,0.326,0.326,0.326,0.326,0.326,0.326,0.326,0.326,0.326,0.326,0.326,0.326,0.326,0.0,0.0,0.32575,0.326,0.326,0.325,0.325,0.324,0.0,0.0,0.0,0.322,0.322,0.322,0.322,0.321,0.321,0.321,0.321,0.321,0.321,0.321,0.321,0.321,0.321,0.32,0.32,0.32,0.32,0.0,0.0,0.0,0.32,0.32,0.318,0.318,0.318,0.318,0.318,0.318,0.318,0.317,0.317,0.318,0.315,0.313,0.313,0.313,0.313,0.314,0.314,0.314,0.314,0.314,0.315,0.315,0.315,0.315,0.315,0.315,0.315,0.315,0.315,0.315,0.315,0.315,0.314,0.313,0.313,0.312,0.312,0.312,0.312,0.311,0.311,0.311,0.311,0.31074999999999997,0.311,0.311,0.311,0.311,0.0,0.0,0.31,0.3105,0.311,0.311,0.31,0.0,0.0,0.31,0.309,0.309,0.309,0.308,0.308,0.308,0.3085,0.309,0.31,0.31,0.31,0.31,0.311,0.311,0.311,0.0,0.0,0.0,0.0,0.0,0.0,0.0,0.0,0.0,0.0,0.0,0.0,0.0,0.0,0.0,0.0,0.0,0.0,0.0,0.0,0.0,0.0,0.0,0.0,0.0,0.0,0.0,0.0,0.0,0.0,0.0,0.0,0.0,0.0,0.0,0.0,0.0,0.0,0.0,0.0
0.0,0.0,0.0,0.394,0.394,0.396,0.39525,0.394,0.394,0.394,0.394,0.394,0.394,0.3945,0.3945,0.0,0.0,0.0,0.0,0.393,0.393,0.393,0.392,0.392,0.391,0.39,0.0,0.3885,0.386,0.385,0.385,0.385,0.385,0.385,0.385,0.385,0.385,0.385,0.386,0.386,0.386,0.387,0.388,0.388,0.388,0.388,0.387,0.387,0.386,0.386,0.386,0.387,0.387,0.387,0.386,0.386,0.387,0.388,0.388,0.388,0.389,0.389,0.39,0.3905,0.391,0.392,0.3865,0.381,0.381,0.381,0.381,0.383,0.382,0.382,0.381,0.381,0.38,0.379,0.379,0.379,0.379,0.378,0.379,0.38,0.3795,0.379625,0.38,0.0,0.0,0.0,0.3765,0.377,0.375,0.374,0.374,0.374,0.374,0.374,0.374,0.374,0.37325,0.373,0.373,0.373,0.372,0.372,0.372,0.372,0.372,0.371,0.371,0.37124999999999997,0.371,0.371,0.37,0.37,0.37,0.37,0.37,0.371,0.37,0.37,0.37,0.37,0.37,0.37,0.369,0.0,0.0,0.0,0.0,0.0,0.0,0.366,0.366,0.366,0.366,0.366,0.366,0.366,0.366,0.367,0.36675,0.0,0.0,0.0,0.0,0.0,0.0,0.0,0.371,0.0,0.0,0.0,0.0,0.0,0.0,0.361,0.361,0.361,0.36175,0.362,0.362,0.362,0.362,0.3635,0.363375,0.363,0.363,0.362,0.362,0.362,0.362,0.362,0.362,0.362,0.362,0.362,0.0,0.0,0.0,0.362,0.362,0.36,0.36,0.36,0.0,0.0,0.0,0.0,0.0,0.0,0.0,0.358,0.358,0.357,0.355,0.355,0.355,0.35450000000000004,0.354,0.354,0.354,0.354,0.354,0.354,0.35375,0.354,0.354,0.355,0.355,0.355,0.354,0.354,0.354,0.354,0.354,0.353,0.352,0.352,0.0,0.0,0.0,0.352,0.352,0.0,0.0,0.0,0.352,0.351,0.351,0.351,0.35,0.35,0.35,0.35,0.349,0.0,0.0,0.348,0.348,0.348,0.348,0.347,0.347,0.347,0.346,0.346,0.345,0.345,0.345,0.0,0.0,0.0,0.344,0.344,0.344,0.344,0.344,0.0,0.0,0.342,0.342,0.342,0.342,0.343,0.342,0.341,0.34,0.34,0.34,0.339,0.339,0.339,0.339,0.339,0.34,0.33925000000000005,0.338,0.338,0.337,0.337,0.337,0.337,0.338,0.338,0.338,0.338,0.338,0.339,0.339,0.339,0.339,0.339,0.339,0.339,0.339,0.3395,0.34,0.34,0.34,0.339,0.339,0.338,0.338,0.338,0.0,0.0,0.0,0.0,0.335,0.335,0.335,0.335,0.335,0.335,0.335,0.335,0.335,0.335,0.335,0.335,0.335,0.335,0.335,0.335,0.335,0.335,0.335,0.335,0.0,0.0,0.0,0.0,0.334,0.334,0.3345,0.335,0.0,0.0,0.0,0.3325,0.332,0.332,0.331,0.33,0.0,0.0,0.0,0.0,0.0,0.0,0.0,0.0,0.0,0.0,0.0,0.0,0.0,0.33,0.329,0.328,0.327,0.326,0.326,0.326,0.325,0.325,0.325,0.325,0.325,0.3245,0.324,0.324,0.324,0.324,0.324,0.324,0.324,0.324,0.324,0.324,0.324,0.324,0.324,0.324,0.324,0.324,0.324,0.324,0.0,0.324,0.324,0.324,0.0,0.0,0.324,0.324,0.323,0.323,0.323,0.323,0.0,0.0,0.0,0.321,0.321,0.32,0.32,0.32,0.32,0.32,0.32,0.32,0.32,0.32,0.32,0.319,0.319,0.319,0.318,0.318,0.317,0.0,0.0,0.0,0.315,0.318,0.0,0.0,0.316,0.316,0.0,0.0,0.0,0.0,0.0,0.3145,0.0,0.0,0.3115,0.312,0.312,0.3125,0.312375,0.312,0.313,0.313,0.313,0.31325,0.313,0.313,0.3135,0.31325000000000003,0.313,0.3135,0.314,0.314,0.0,0.0,0.0,0.311,0.31,0.31,0.31,0.31,0.309,0.309,0.309,0.309,0.309,0.309,0.309,0.309,0.309,0.309,0.309,0.309,0.309,0.309,0.309,0.309,0.0,0.0,0.0,0.0,0.307,0.307,0.307,0.307,0.306,0.307,0.0,0.0,0.0,0.0,0.0,0.0,0.0,0.309,0.309,0.0,0.0,0.0,0.0,0.0,0.0,0.0,0.0,0.0,0.0,0.0,0.0,0.0,0.0,0.0,0.0,0.0,0.0,0.0,0.0,0.0,0.0,0.0,0.0,0.0,0.0,0.0,0.0,0.0,0.0,0.0,0.0,0.0,0.0,0.0,0.0,0.0,0.0,0.0,0.0
0.0,0.0,0.0,0.392,0.393,0.393,0.393,0.393,0.392,0.392,0.391,0.391,0.39125,0.391,0.391,0.391,0.391,0.391,0.389,0.389,0.389,0.388,0.388,0.388,0.385,0.385,0.385,0.385,0.384,0.383,0.383,0.383,0.383,0.383,0.384,0.384,0.384,0.384,0.384,0.385,0.385,0.385,0.385,0.385,0.385,0.385,0.385,0.385,0.385,0.3845,0.385,0.385,0.385,0.385,0.0,0.0,0.0,0.3845,0.384,0.385,0.387,0.387,0.389,0.38025,0.381,0.0,0.37875000000000003,0.3774375,0.378,0.377,0.377,0.378,0.0,0.3775,0.3775,0.37675000000000003,0.376,0.376,0.376,0.376,0.376,0.376,0.376,0.377,0.377,0.377,0.0,0.0,0.0,0.0,0.373,0.373,0.373,0.373,0.372,0.373,0.372,0.373,0.372,0.37124999999999997,0.37,0.37,0.37,0.3695,0.369,0.369,0.369,0.37,0.37,0.37,0.37,0.37,0.369,0.369,0.369,0.369,0.369,0.369,0.369,0.369,0.369,0.369,0.369,0.368,0.367,0.366,0.366,0.0,0.0,0.0,0.0,0.0,0.0,0.364,0.36474999999999996,0.365,0.365,0.364,0.364,0.363,0.364,0.36424999999999996,0.364,0.0,0.0,0.0,0.0,0.0,0.0,0.0,0.0,0.0,0.0,0.0,0.0,0.0,0.0,0.36,0.36,0.3605,0.361,0.361,0.36074999999999996,0.361,0.361,0.362,0.362,0.362,0.361,0.361,0.359,0.359,0.359,0.359,0.359,0.3595,0.0,0.0,0.0,0.0,0.0,0.359,0.359,0.359,0.358,0.358,0.0,0.0,0.0,0.0,0.0,0.0,0.0,0.355,0.355,0.355,0.354,0.0,0.353,0.352,0.352,0.352,0.352,0.352,0.352,0.351,0.351,0.352,0.352,0.352,0.352,0.352,0.352,0.0,0.0,0.351,0.35,0.35,0.349,0.349,0.349,0.349,0.349,0.349,0.35,0.0,0.0,0.0,0.35,0.349,0.349,0.348,0.348,0.348,0.348,0.348,0.347,0.0,0.0,0.34550000000000003,0.0,0.345,0.345,0.0,0.345,0.345,0.345,0.344,0.343,0.343,0.342,0.342,0.342,0.342,0.342,0.341,0.341,0.341,0.342,0.341,0.34,0.34,0.34,0.34,0.341,0.341,0.3405,0.34,0.339,0.339,0.338,0.338,0.338,0.338,0.338,0.338,0.338,0.338,0.337,0.337,0.337,0.337,0.337,0.337,0.337,0.338,0.338,0.338,0.338,0.338,0.338,0.338,0.338,0.338,0.338,0.338,0.338,0.338,0.338,0.338,0.339,0.338,0.338,0.337,0.337,0.337,0.336,0.3355,0.335,0.335,0.335,0.335,0.335,0.335,0.3335,0.33375,0.334,0.334,0.3335,0.333,0.0,0.0,0.0,0.333,0.333,0.0,0.0,0.0,0.0,0.0,0.0,0.0,0.0,0.0,0.0,0.0,0.0,0.0,0.0,0.0,0.0,0.33,0.33,0.33,0.329,0.329,0.0,0.0,0.0,0.0,0.0,0.0,0.0,0.0,0.0,0.0,0.0,0.0,0.0,0.328,0.327,0.326,0.326,0.326,0.324,0.323,0.323,0.323,0.32325,0.323,0.324,0.323,0.323,0.323,0.323,0.323,0.323,0.323,0.322,0.323,0.323,0.323,0.323,0.323,0.323,0.323,0.323,0.323,0.322,0.322,0.322,0.322,0.322,0.0,0.0,0.322,0.322,0.321,0.32125,0.321,0.321,0.32,0.32,0.32,0.319,0.319,0.319,0.319,0.318,0.318,0.318,0.318,0.318,0.318,0.318,0.318,0.318,0.318,0.317,0.317,0.315,0.315,0.314,0.314,0.314,0.314,0.314,0.314,0.0,0.0,0.314,0.314,0.0,0.0,0.0,0.0,0.0,0.311,0.0,0.0,0.31,0.31,0.311,0.311,0.311,0.311,0.311,0.312,0.31175,0.312,0.312,0.312,0.312,0.312,0.312,0.0,0.0,0.0,0.0,0.0,0.0,0.31,0.309,0.309,0.309,0.308,0.308,0.308,0.308,0.308,0.308,0.308,0.308,0.308,0.307,0.307,0.307,0.307,0.307,0.307,0.307,0.307,0.0,0.0,0.0,0.0,0.305,0.305,0.305,0.305,0.305,0.0,0.0,0.0,0.0,0.0,0.0,0.0,0.0,0.305,0.305,0.305,0.0,0.0,0.0,0.0,0.0,0.0,0.0,0.0,0.0,0.0,0.0,0.0,0.0,0.0,0.0,0.0,0.0,0.0,0.0,0.0,0.0,0.0,0.0,0.0,0.0,0.0,0.0,0.0,0.0,0.0,0.0,0.0,0.0,0.0,0.0,0.0,0.0,0.0,0.0
0.0,0.0,0.39,0.39,0.39050000000000007,0.39,0.39,0.389,0.389,0.389,0.389,0.389,0.389,0.388,0.389,0.389,0.389,0.388,0.386,0.385,0.385,0.385,0.384,0.383,0.382,0.382,0.382,0.382,0.381,0.381,0.381,0.381,0.382,0.382,0.382,0.382,0.382,0.382,0.382,0.382,0.382,0.382,0.383,0.383,0.383,0.382,0.382,0.382,0.382,0.382,0.382,0.382,0.3825,0.0,0.0,0.0,0.0,0.381,0.381,0.378,0.376,0.37,0.369,0.37,0.371,0.371,0.371,0.372,0.37325,0.373,0.373,0.0,0.0,0.373,0.374,0.3739375,0.373,0.373,0.373,0.37325,0.373,0.373,0.373,0.373,0.373,0.3725,0.0,0.0,0.0,0.37,0.369,0.37,0.37,0.37,0.37,0.37,0.369,0.369,0.369,0.369,0.368,0.368,0.367,0.366,0.367,0.367,0.367,0.368,0.368,0.368,0.0,0.0,0.368,0.368,0.368,0.368,0.367,0.368,0.368,0.366,0.36624999999999996,0.366,0.366,0.365,0.364,0.364,0.363,0.0,0.0,0.0,0.362,0.362,0.362,0.362,0.364,0.363,0.363,0.363,0.362,0.362,0.362,0.362,0.362,0.361,0.0,0.0,0.0,0.0,0.0,0.0,0.0,0.0,0.0,0.0,0.0,0.361,0.359,0.359,0.3585,0.35875,0.359,0.359,0.359,0.359,0.3595,0.36,0.35975,0.359,0.359,0.359,0.358,0.358,0.357,0.357,0.357,0.357,0.0,0.0,0.0,0.0,0.0,0.357,0.357,0.356,0.356,0.356,0.0,0.0,0.0,0.0,0.0,0.0,0.0,0.354,0.354,0.3525,0.0,0.0,0.351,0.351,0.351,0.35,0.35,0.349,0.349,0.349,0.349,0.35,0.35,0.35,0.349,0.3495,0.0,0.0,0.0,0.348,0.348,0.348,0.3474999999999999,0.348,0.348,0.347,0.347,0.347,0.347,0.0,0.0,0.0,0.3475,0.347,0.347,0.348,0.347,0.347,0.347,0.3465,0.0,0.0,0.345,0.343,0.3425,0.342,0.342,0.3425,0.343,0.343,0.342,0.342,0.342,0.3415,0.341125,0.341,0.341,0.341,0.34,0.34,0.34,0.34,0.33975,0.339,0.339,0.338,0.339,0.339,0.339,0.339,0.339,0.339,0.338,0.338,0.338,0.338,0.337,0.337,0.337,0.337,0.337,0.337,0.336,0.336,0.336,0.336,0.336,0.336,0.336,0.336,0.336,0.3365,0.33625000000000005,0.336,0.337,0.336,0.336,0.336,0.336,0.336,0.336,0.336,0.0,0.0,0.337,0.337,0.337,0.336,0.336,0.336,0.336,0.335,0.335,0.335,0.335,0.334,0.334,0.333,0.332,0.33193750000000005,0.332,0.332,0.332,0.33,0.0,0.0,0.0,0.331,0.331,0.0,0.0,0.0,0.0,0.0,0.0,0.0,0.0,0.0,0.0,0.0,0.0,0.0,0.0,0.0,0.327,0.327,0.327,0.327,0.327,0.326,0.0,0.0,0.0,0.324,0.0,0.0,0.0,0.0,0.0,0.0,0.0,0.0,0.0,0.0,0.0,0.0,0.324,0.324,0.323,0.323,0.323,0.322,0.322,0.322,0.322,0.321,0.321,0.321,0.321,0.321,0.321,0.321,0.321,0.321,0.321,0.321,0.321,0.321,0.321,0.321,0.321,0.321,0.321,0.32,0.32,0.32,0.0,0.0,0.0,0.0,0.32,0.32,0.32,0.32,0.319,0.318,0.318,0.318,0.318,0.318,0.318,0.318,0.318,0.317,0.317,0.317,0.317,0.317,0.317,0.317,0.316,0.316,0.315,0.314,0.314,0.313,0.313,0.313,0.313,0.313,0.313,0.313,0.313,0.313,0.312,0.312,0.312,0.0,0.0,0.0,0.0,0.3095,0.0,0.0,0.0,0.31,0.31,0.31,0.0,0.0,0.0,0.0,0.31,0.31,0.31,0.31,0.0,0.3105,0.0,0.0,0.0,0.0,0.0,0.0,0.0,0.3085,0.307,0.307,0.307,0.307,0.307,0.307,0.307,0.307,0.307,0.307,0.307,0.307,0.307,0.307,0.306,0.306,0.305,0.305,0.305,0.305,0.0,0.0,0.0,0.0,0.303,0.303,0.303,0.303,0.303,0.0,0.0,0.0,0.0,0.0,0.0,0.0,0.0,0.0,0.0,0.0,0.0,0.0,0.0,0.0,0.0,0.0,0.0,0.0,0.0,0.0,0.0,0.0,0.0,0.0,0.0,0.0,0.0,0.0,0.0,0.0,0.0,0.0,0.0,0.0,0.0,0.0,0.0,0.0,0.0,0.0,0.0,0.0,0.0,0.0,0.0,0.0,0.0,0.0,0.0
0.0,0.0,0.0,0.0,0.389,0.389,0.388,0.388,0.387,0.387,0.387,0.387,0.386,0.386,0.386,0.386,0.385,0.385,0.384,0.384,0.383,0.382,0.382,0.381,0.381,0.3805,0.381,0.38,0.38,0.38,0.38,0.38025000000000003,0.381,0.381,0.381,0.381,0.381,0.381,0.381,0.381,0.381,0.381,0.381,0.381,0.38,0.38,0.38,0.38,0.38,0.38,0.38,0.38,0.38,0.0,0.0,0.0,0.0,0.377,0.37475,0.371,0.369,0.369,0.369,0.369,0.369,0.369,0.37,0.37,0.37,0.37,0.37,0.371,0.372,0.372,0.372,0.372,0.372,0.372,0.372,0.371,0.371,0.371,0.37,0.369,0.369,0.368,0.368,0.368,0.368,0.368,0.368,0.368,0.369,0.369,0.369,0.368,0.367,0.366,0.366,0.366,0.366,0.365,0.365,0.365,0.365,0.365,0.365,0.365,0.365,0.365,0.0,0.0,0.366,0.366,0.366,0.366,0.366,0.366,0.365,0.365,0.364,0.364,0.363,0.362,0.362,0.362,0.361,0.361,0.36,0.359,0.36,0.36,0.361,0.361,0.361,0.361,0.362,0.362,0.362,0.362,0.362,0.361,0.361,0.36,0.359,0.0,0.0,0.0,0.0,0.0,0.0,0.0,0.0,0.0,0.358,0.358,0.357,0.357,0.357,0.357,0.357,0.357,0.357,0.357,0.357375,0.358,0.358,0.358,0.357,0.357,0.356,0.355,0.355,0.355,0.355,0.355,0.0,0.0,0.0,0.354,0.354,0.354,0.0,0.0,0.0,0.354,0.0,0.0,0.0,0.0,0.0,0.0,0.351,0.351,0.35075,0.35,0.0,0.0,0.348,0.348,0.348,0.348,0.348,0.348,0.348,0.3475,0.34762499999999996,0.348,0.348,0.348,0.348,0.347,0.0,0.0,0.347,0.346,0.345,0.345,0.345,0.345,0.345,0.345,0.344,0.344,0.345,0.0,0.0,0.345,0.345,0.345,0.345,0.345,0.346,0.346,0.345,0.345,0.345,0.345,0.344,0.343,0.342,0.342,0.342,0.342,0.342,0.342,0.341,0.341,0.341,0.34,0.34,0.34,0.34,0.339,0.339,0.339,0.0,0.3385,0.338,0.338,0.338,0.338,0.338,0.338,0.338,0.338,0.338,0.338,0.338,0.337,0.337,0.337,0.336,0.336,0.336,0.336,0.335,0.335,0.335,0.335,0.335,0.335,0.335,0.335,0.335,0.335,0.335,0.335,0.0,0.0,0.335,0.335,0.335,0.335,0.335,0.334,0.0,0.0,0.0,0.0,0.334,0.0,0.0,0.334,0.334,0.334,0.334,0.333,0.333,0.333,0.333,0.333,0.332,0.332,0.331,0.33,0.33,0.33,0.329,0.329,0.329,0.329,0.329,0.33,0.329,0.0,0.0,0.0,0.0,0.0,0.329,0.329,0.329,0.0,0.0,0.0,0.0,0.0,0.0,0.326,0.0,0.0,0.325,0.325,0.325,0.324,0.324,0.323,0.322,0.0,0.0,0.0,0.0,0.0,0.0,0.0,0.0,0.0,0.0,0.0,0.0,0.0,0.323,0.323,0.322,0.321,0.321,0.321,0.321,0.321,0.321,0.32,0.32,0.32,0.32,0.32,0.32,0.32,0.32,0.32,0.32,0.32,0.32,0.32,0.319,0.319,0.319,0.318,0.318,0.318,0.318,0.318,0.0,0.0,0.0,0.0,0.318,0.318,0.318,0.318,0.318,0.317,0.317,0.316,0.316,0.316,0.316,0.316,0.316,0.316,0.315,0.315,0.315,0.314,0.3145,0.3145,0.314,0.0,0.0,0.313,0.312,0.312,0.312,0.312,0.312,0.312,0.312,0.0,0.0,0.31,0.31,0.31,0.3095,0.0,0.0,0.0,0.0,0.308,0.0,0.0,0.0,0.309,0.309,0.309,0.0,0.0,0.0,0.0,0.309,0.308,0.308,0.3085,0.30874999999999997,0.309,0.0,0.0,0.0,0.0,0.0,0.0,0.0,0.307,0.307,0.306,0.306,0.306,0.306,0.305,0.306,0.306,0.306,0.306,0.306,0.306,0.306,0.306,0.305,0.305,0.304,0.303,0.303,0.302,0.302,0.302,0.302,0.302,0.302,0.302,0.302,0.302,0.302,0.302,0.302,0.302,0.0,0.0,0.0,0.0,0.0,0.0,0.0,0.0,0.0,0.0,0.0,0.0,0.0,0.0,0.0,0.0,0.0,0.0,0.0,0.0,0.0,0.0,0.0,0.0,0.0,0.0,0.0,0.0,0.0,0.0,0.0,0.0,0.0,0.0,0.0,0.0,0.0,0.0,0.0,0.0,0.0,0.0,0.0,0.0,0.0,0.0,0.0
0.0,0.0,0.0,0.0,0.386,0.386,0.386,0.3855,0.385,0.385,0.385,0.385,0.385,0.385,0.385,0.385,0.0,0.0,0.0,0.382,0.381,0.381,0.379,0.379,0.378,0.378,0.378,0.378,0.378,0.378,0.379,0.379,0.379,0.379,0.379,0.38,0.379,0.379,0.378,0.378,0.378,0.378,0.378,0.378,0.0,0.0,0.377,0.377,0.377,0.377,0.377,0.377,0.377,0.377,0.376,0.376,0.375,0.371,0.37,0.369,0.369,0.369,0.369,0.369,0.369,0.369,0.369,0.369,0.3685,0.368625,0.369,0.369,0.369,0.369,0.369,0.369,0.369,0.369,0.369,0.369,0.369,0.369,0.367,0.366,0.366,0.366,0.366,0.366,0.366,0.366,0.366,0.366,0.366,0.366,0.366,0.366,0.365,0.364,0.363,0.363,0.363,0.363,0.363,0.363,0.363,0.363,0.362,0.362,0.362,0.363,0.363,0.363,0.363,0.364,0.364,0.365,0.365,0.0,0.0,0.363,0.0,0.0,0.0,0.36,0.36,0.36,0.3595,0.359,0.359,0.359,0.359,0.359,0.359,0.36,0.359,0.359,0.358,0.358,0.358,0.359,0.35850000000000004,0.358,0.357,0.356,0.356,0.355,0.355,0.0,0.0,0.0,0.0,0.0,0.0,0.354,0.354,0.355,0.354,0.354,0.355,0.355,0.354,0.354,0.354,0.355,0.355,0.355,0.355,0.355,0.354,0.354,0.355,0.354,0.353,0.353,0.352,0.352,0.352,0.352,0.351,0.351,0.351,0.351,0.0,0.0,0.0,0.349,0.0,0.0,0.0,0.0,0.0,0.0,0.0,0.348,0.348,0.348,0.348,0.347,0.347,0.347,0.347,0.346,0.346,0.346,0.346,0.346,0.346,0.346,0.346,0.346,0.345,0.345,0.345,0.345,0.345,0.344,0.344,0.344,0.344,0.343,0.342,0.342,0.342,0.342,0.342,0.342,0.342,0.343,0.3435,0.344,0.345,0.345,0.345,0.345,0.345,0.344,0.343,0.343,0.342,0.341,0.341,0.34,0.34,0.34,0.34,0.34,0.339,0.0,0.0,0.339,0.339,0.339,0.339,0.338,0.0,0.0,0.0,0.337,0.337,0.337,0.337,0.337,0.337,0.337,0.337,0.337,0.337,0.337,0.336,0.336,0.336,0.335,0.335,0.335,0.335,0.335,0.333,0.333,0.333,0.333,0.333,0.33325,0.333,0.333,0.333,0.333,0.333,0.333,0.0,0.0,0.333,0.332,0.333,0.332,0.332,0.0,0.0,0.0,0.0,0.0,0.0,0.0,0.0,0.0,0.0,0.0,0.0,0.0,0.0,0.0,0.332,0.332,0.33,0.33,0.329,0.3285,0.328,0.328,0.328,0.328,0.327,0.327,0.327,0.327,0.327,0.327,0.3265,0.326,0.326,0.326,0.326,0.326,0.3275,0.0,0.0,0.0,0.0,0.324,0.325,0.3245,0.0,0.0,0.0,0.324,0.323,0.323,0.322,0.322,0.3215,0.0,0.0,0.0,0.0,0.0,0.0,0.0,0.0,0.0,0.0,0.0,0.0,0.0,0.3215,0.321,0.321,0.321,0.32,0.32,0.319,0.319,0.319,0.318,0.318,0.318,0.318,0.318,0.318,0.318,0.318,0.318,0.318,0.31825000000000003,0.318,0.318,0.318,0.318,0.317,0.316,0.316,0.315,0.315,0.315,0.315,0.0,0.0,0.315,0.316,0.316,0.316,0.316,0.316,0.315,0.315,0.315,0.315,0.315,0.315,0.315,0.315,0.315,0.313,0.313,0.315,0.313,0.312,0.312,0.312,0.0,0.0,0.312,0.311,0.311,0.311,0.311,0.311,0.311,0.31,0.0,0.0,0.308,0.307,0.307,0.307,0.307,0.307,0.307,0.307,0.307,0.307,0.307,0.307,0.307,0.307,0.307,0.0,0.0,0.0,0.307,0.307,0.307,0.307,0.307,0.306,0.307,0.306,0.306,0.0,0.0,0.0,0.305,0.305,0.305,0.305,0.305,0.305,0.304,0.304,0.304,0.304,0.304,0.304,0.0,0.0,0.0,0.304,0.304,0.304,0.303,0.302,0.302,0.302,0.302,0.301,0.301,0.3,0.3,0.3,0.3,0.0,0.0,0.0,0.299,0.299,0.299,0.0,0.0,0.0,0.298,0.0,0.0,0.0,0.0,0.0,0.0,0.0,0.0,0.0,0.0,0.0,0.0,0.0,0.0,0.0,0.0,0.0,0.0,0.0,0.0,0.0,0.0,0.0,0.0,0.0,0.0,0.0,0.0,0.0,0.0,0.0,0.0,0.0,0.0,0.0,0.0,0.0,0.0,0.0,0.0,0.0,0.0,0.0
0.0,0.0,0.0,0.0,0.0,0.0,0.385,0.0,0.384,0.385,0.385,0.385,0.385,0.385,0.383,0.383,0.0,0.0,0.0,0.38,0.378,0.378,0.377,0.377,0.377,0.377,0.377,0.377,0.377,0.377,0.377,0.377,0.377,0.378,0.377,0.377,0.37675,0.377,0.376,0.37575000000000003,0.376,0.375,0.3755,0.0,0.0,0.0,0.375,0.376,0.376,0.376,0.375,0.375,0.376,0.3745,0.373,0.37,0.369,0.369,0.369,0.369,0.368,0.368,0.368,0.368,0.368,0.368,0.368,0.368,0.367,0.367,0.367,0.367,0.367,0.367,0.366,0.366,0.366,0.366,0.366,0.366,0.366,0.366,0.365,0.365,0.365,0.365,0.364,0.364,0.364,0.364,0.364,0.364,0.364,0.365,0.365,0.364,0.362,0.362,0.362,0.361,0.362,0.361,0.361,0.361,0.361,0.361,0.36074999999999996,0.361,0.361,0.361,0.361,0.362,0.362,0.362,0.362,0.362,0.362,0.0,0.0,0.361,0.0,0.0,0.0,0.358,0.358,0.358,0.358,0.358,0.358,0.358,0.358,0.358,0.359,0.359,0.358,0.358,0.357,0.357,0.357,0.356,0.355,0.356,0.355,0.355,0.355,0.354,0.0,0.0,0.0,0.0,0.351,0.352,0.352,0.352,0.352,0.352,0.352,0.352,0.352,0.352,0.35224999999999995,0.352,0.352,0.352,0.0,0.0,0.0,0.0,0.352,0.352,0.352,0.351,0.351,0.351,0.351,0.35,0.35,0.349,0.348,0.348,0.3485,0.348,0.0,0.0,0.0,0.346,0.0,0.0,0.0,0.0,0.0,0.0,0.0,0.345,0.345,0.0,0.0,0.345,0.34525,0.345,0.345,0.345,0.345,0.345,0.345,0.345,0.345,0.344,0.344,0.344,0.344,0.344,0.343,0.343,0.342,0.342,0.342,0.342,0.342,0.342,0.341,0.341,0.341,0.34,0.3405,0.341,0.3415,0.342,0.342,0.342,0.343,0.343,0.344,0.344,0.3435,0.343,0.342,0.341,0.341,0.339,0.339,0.339,0.338,0.339,0.338,0.338,0.338,0.0,0.0,0.3375,0.338,0.337,0.337,0.3365,0.0,0.0,0.0,0.336,0.335,0.335,0.336,0.336,0.3355,0.0,0.0,0.0,0.335,0.335,0.335,0.335,0.335,0.334,0.333,0.333,0.333,0.332,0.332,0.332,0.332,0.332,0.332,0.332,0.332,0.332,0.332,0.332,0.332,0.3315,0.33175,0.332,0.331,0.331,0.33,0.33,0.33,0.0,0.0,0.328,0.0,0.0,0.0,0.0,0.0,0.0,0.0,0.0,0.0,0.0,0.0,0.0,0.0,0.0,0.0,0.0,0.327,0.327,0.326,0.326,0.0,0.0,0.0,0.3265,0.326,0.326,0.326,0.326,0.325875,0.325,0.326,0.326,0.326,0.326,0.326,0.326,0.325,0.324,0.323,0.323,0.323,0.323,0.0,0.0,0.0,0.322,0.322,0.321,0.321,0.321,0.321,0.0,0.0,0.0,0.0,0.0,0.0,0.0,0.0,0.0,0.0,0.0,0.0,0.0,0.32,0.319,0.319,0.318,0.318,0.318,0.318,0.318,0.318,0.318,0.318,0.318,0.318,0.318,0.318,0.318,0.318,0.318,0.318,0.317,0.317,0.317,0.317,0.316,0.315,0.315,0.315,0.315,0.315,0.314,0.314,0.314,0.315,0.315,0.315,0.315,0.315,0.315,0.315,0.315,0.314,0.313,0.313,0.313,0.313,0.312,0.312,0.312,0.312,0.312,0.312,0.31,0.31,0.31,0.31,0.31,0.31,0.31,0.31,0.31,0.31,0.31,0.31,0.0,0.0,0.0,0.0,0.307,0.307,0.307,0.307,0.30625,0.306,0.306,0.307,0.307,0.307,0.307,0.307,0.307,0.306,0.306,0.306,0.306,0.306,0.305,0.305,0.305,0.305,0.305,0.305,0.305,0.304,0.304,0.0,0.0,0.304,0.304,0.304,0.304,0.304,0.304,0.304,0.303,0.303,0.303,0.303,0.303,0.0,0.0,0.0,0.0,0.0,0.302,0.302,0.301,0.301,0.3,0.3,0.3,0.3,0.3,0.299,0.299,0.299,0.2995,0.0,0.0,0.0,0.299,0.298,0.298,0.298,0.297,0.297,0.297,0.0,0.0,0.0,0.0,0.0,0.0,0.0,0.0,0.0,0.0,0.0,0.0,0.0,0.0,0.0,0.0,0.0,0.0,0.0,0.0,0.0,0.0,0.0,0.0,0.0,0.0,0.0,0.0,0.0,0.0,0.0,0.0,0.0,0.0,0.0,0.0,0.0,0.0,0.0,0.0,0.0,0.0,0.0
0.0,0.0,0.0,0.0,0.0,0.0,0.384,0.3835,0.383,0.384,0.383,0.384,0.383,0.382,0.381,0.381,0.378,0.377,0.376,0.377,0.376,0.376,0.376,0.376,0.376,0.375,0.376,0.376,0.376,0.376,0.376,0.376,0.376,0.376,0.376,0.374,0.374,0.373,0.373,0.373,0.373,0.373,0.373,0.373,0.373,0.373,0.373,0.373,0.373,0.373,0.373,0.373,0.374,0.371125,0.369,0.368,0.367,0.368,0.367,0.367,0.367,0.367,0.367,0.367,0.367,0.367,0.367,0.366,0.366,0.366,0.366,0.366,0.366,0.366,0.365,0.365,0.0,0.3645,0.365,0.36449999999999994,0.364,0.363,0.363,0.36324999999999996,0.363,0.363,0.363,0.362,0.36275,0.363,0.363,0.363,0.362,0.362,0.362,0.362,0.361,0.36,0.36,0.359,0.359,0.359,0.359,0.35924999999999996,0.359,0.359,0.359,0.359,0.359,0.359,0.359,0.359,0.359,0.359,0.359,0.359,0.359,0.359,0.358,0.3585,0.35824999999999996,0.358,0.357,0.357,0.357,0.357,0.357,0.356,0.355,0.3555,0.356,0.357,0.357,0.356,0.356,0.355,0.0,0.355,0.355,0.3535,0.35424999999999995,0.355,0.354,0.351,0.353,0.351,0.0,0.0,0.0,0.0,0.0,0.0,0.351,0.0,0.351,0.351,0.351,0.351,0.351,0.351,0.351,0.351,0.35075,0.351,0.0,0.0,0.0,0.0,0.35,0.35,0.35,0.35,0.349,0.349,0.349,0.349,0.348,0.348,0.347,0.346,0.346,0.345,0.0,0.0,0.343,0.0,0.0,0.0,0.0,0.0,0.0,0.0,0.0,0.342,0.342,0.0,0.0,0.343,0.344,0.344,0.343,0.343,0.343,0.343,0.343,0.342,0.342,0.342,0.342,0.342,0.342,0.342,0.342,0.341,0.341,0.341,0.34,0.34,0.34,0.33975,0.339,0.339,0.339,0.338,0.339,0.0,0.33975,0.34,0.0,0.0,0.0,0.0,0.0,0.0,0.0,0.0,0.0,0.0,0.338,0.0,0.0,0.0,0.336,0.336,0.336,0.336,0.3365,0.0,0.0,0.336,0.335,0.335,0.335,0.335,0.0,0.0,0.334,0.334,0.334,0.334,0.335,0.334,0.334,0.0,0.0,0.0,0.333,0.333,0.333,0.333,0.332,0.332,0.332,0.0,0.0,0.331,0.33,0.33,0.33025000000000004,0.33,0.33,0.33,0.33,0.33,0.33,0.33,0.33,0.33,0.329,0.329,0.329,0.328,0.328,0.328,0.327,0.327,0.0,0.326,0.325,0.0,0.0,0.0,0.0,0.0,0.0,0.0,0.0,0.0,0.0,0.0,0.0,0.0,0.0,0.0,0.3255,0.326,0.326,0.325,0.0,0.0,0.0,0.326,0.326,0.325,0.325,0.326,0.326,0.325,0.326,0.326,0.326,0.326,0.325,0.324,0.323,0.322,0.321,0.321,0.321,0.321,0.321,0.321,0.321,0.321,0.32,0.32,0.32,0.32,0.32,0.0,0.0,0.0,0.0,0.0,0.0,0.0,0.0,0.0,0.0,0.317,0.317,0.318,0.318,0.318,0.318,0.0,0.0,0.0,0.317,0.31675,0.317,0.317,0.317,0.316,0.316,0.316,0.316,0.316,0.316,0.316,0.316,0.316,0.315,0.315,0.315,0.315,0.315,0.314,0.314,0.314,0.314,0.313,0.313,0.313,0.0,0.0,0.314,0.3135,0.313,0.313,0.313,0.312,0.312,0.31,0.31,0.31,0.31,0.31,0.31,0.31,0.31,0.31,0.309,0.309,0.308,0.308,0.308,0.308,0.308,0.309,0.308,0.308,0.309,0.3085,0.309,0.0,0.0,0.0,0.0,0.305,0.305,0.306,0.305,0.305,0.305,0.305,0.305,0.306,0.306,0.306,0.305,0.305,0.305,0.305,0.305,0.304,0.304,0.304,0.304,0.304,0.304,0.304,0.3035,0.0,0.0,0.0,0.0,0.0,0.302,0.302,0.302,0.302,0.302,0.302,0.3025,0.302,0.302,0.302,0.302,0.3015,0.0,0.0,0.0,0.0,0.0,0.299,0.299,0.299,0.299,0.299,0.299,0.299,0.299,0.299,0.299,0.299,0.299,0.299,0.299,0.2985,0.298,0.298,0.297,0.297,0.297,0.296,0.295,0.0,0.0,0.0,0.0,0.0,0.0,0.0,0.0,0.0,0.0,0.0,0.0,0.0,0.0,0.0,0.0,0.0,0.0,0.0,0.0,0.0,0.0,0.0,0.0,0.0,0.0,0.0,0.0,0.0,0.0,0.0,0.0,0.0,0.0,0.0,0.0,0.0,0.0,0.0,0.0,0.0,0.0,0.0,0.0
0.0,0.0,0.0,0.0,0.0,0.381,0.382,0.381,0.382,0.382,0.382,0.382,0.381,0.381,0.378,0.377,0.376,0.374,0.374,0.374,0.373,0.373,0.373,0.373,0.373,0.373,0.373,0.373,0.374,0.374,0.374,0.373,0.373,0.373,0.373,0.372,0.372,0.371,0.37,0.37,0.37,0.37,0.37,0.37,0.371,0.371,0.372,0.371,0.372,0.373,0.373,0.3725,0.372,0.367,0.366,0.366,0.366,0.366,0.366,0.366,0.366,0.366,0.366,0.366,0.366,0.366,0.366,0.366,0.366,0.366,0.366,0.365,0.365,0.365,0.364,0.364,0.3635,0.363,0.363,0.363,0.362,0.362,0.362,0.362,0.362,0.362,0.362,0.362,0.362,0.3605,0.0,0.0,0.3595,0.36,0.359,0.359,0.358,0.358,0.358,0.358,0.358,0.358,0.358,0.358,0.358,0.358,0.357,0.357,0.357,0.358,0.358,0.358,0.357,0.0,0.3565,0.358,0.357,0.357,0.357,0.356,0.356,0.356,0.355,0.355,0.355,0.355,0.0,0.0,0.0,0.0,0.354,0.3545,0.355,0.354,0.0,0.0,0.0,0.353,0.353,0.351,0.0,0.0,0.349,0.349,0.349,0.348,0.348,0.0,0.0,0.0,0.0,0.0,0.349,0.3495,0.35,0.35,0.35,0.35,0.35,0.35,0.35,0.349,0.349,0.348,0.348,0.0,0.0,0.348,0.348,0.348,0.348,0.348,0.348,0.348,0.348,0.347,0.346,0.346,0.345,0.345,0.344,0.343,0.342,0.342,0.341,0.0,0.0,0.0,0.0,0.0,0.0,0.34,0.34,0.34,0.341,0.0,0.0,0.3415,0.34187500000000004,0.342,0.342,0.342,0.342,0.342,0.341,0.341,0.341,0.34,0.34,0.34025000000000005,0.34,0.34,0.34,0.339,0.339,0.339,0.339,0.339,0.338,0.338,0.338,0.338,0.337,0.337,0.0,0.0,0.338,0.338,0.0,0.0,0.0,0.0,0.0,0.0,0.0,0.0,0.0,0.0,0.0,0.0,0.0,0.0,0.335,0.334,0.334,0.334,0.335,0.335,0.335,0.334,0.334,0.333,0.333,0.333,0.333,0.332,0.332,0.332,0.332,0.332,0.332,0.332,0.3315,0.0,0.0,0.0,0.331,0.331,0.331,0.331,0.331,0.331,0.0,0.0,0.0,0.329,0.329,0.329,0.329,0.329,0.329,0.329,0.329,0.329,0.329,0.329,0.32875,0.329,0.329,0.328,0.327,0.327,0.327,0.326,0.326,0.325,0.324,0.324,0.324,0.324,0.0,0.0,0.0,0.0,0.0,0.0,0.0,0.0,0.326,0.0,0.0,0.0,0.324,0.324,0.324,0.323,0.323,0.323,0.0,0.0,0.0,0.0,0.0,0.323,0.324,0.324,0.324,0.324,0.326,0.3245,0.32475,0.325,0.3245,0.324,0.322,0.32,0.32,0.32,0.319,0.319,0.319,0.319,0.318,0.318,0.318,0.318,0.318,0.318,0.0,0.0,0.0,0.0,0.0,0.0,0.0,0.0,0.0,0.0,0.0,0.0,0.0,0.0,0.317,0.317,0.317,0.0,0.0,0.0,0.317,0.315,0.315,0.315,0.315,0.315,0.315,0.315,0.315,0.315,0.315,0.3145,0.0,0.0,0.0,0.313,0.313,0.313,0.313,0.313,0.313,0.312,0.312,0.312,0.312,0.312,0.0,0.0,0.0,0.0,0.0,0.0,0.31,0.309,0.309,0.309,0.309,0.309,0.309,0.309,0.0,0.0,0.0,0.0,0.308,0.307,0.307,0.307,0.307,0.307,0.307,0.307,0.307,0.0,0.0,0.306,0.3065,0.0,0.0,0.0,0.0,0.304,0.304,0.304,0.0,0.0,0.304,0.304,0.304,0.0,0.0,0.304,0.304,0.304,0.304,0.304,0.304,0.304,0.303,0.303,0.303,0.303,0.303,0.303,0.302,0.0,0.0,0.0,0.0,0.0,0.3,0.3,0.301,0.301,0.0,0.0,0.302,0.302,0.302,0.301,0.301,0.3,0.299,0.0,0.0,0.0,0.297,0.297,0.297,0.297,0.298,0.298,0.298,0.298,0.298,0.299,0.299,0.299,0.299,0.299,0.299,0.298,0.298,0.297,0.297,0.296,0.296,0.295,0.0,0.0,0.0,0.0,0.0,0.0,0.0,0.0,0.0,0.0,0.0,0.0,0.0,0.0,0.0,0.0,0.0,0.0,0.0,0.0,0.0,0.0,0.0,0.0,0.0,0.0,0.0,0.0,0.0,0.0,0.0,0.0,0.0,0.0,0.0,0.0,0.0,0.0,0.0,0.0,0.0,0.0,0.0,0.0,0.0
0.0,0.0,0.0,0.0,0.0,0.0,0.0,0.381,0.381,0.381,0.381,0.38,0.378,0.376,0.374,0.373,0.372,0.372,0.372,0.3715,0.371,0.372,0.372,0.372,0.373,0.373,0.373,0.373,0.373,0.373,0.372,0.372,0.371,0.37,0.37,0.369,0.369,0.369,0.368,0.368,0.3685,0.369,0.369,0.369,0.369,0.3695,0.369,0.36975,0.37,0.37,0.37,0.36775,0.3669375,0.366,0.364,0.364,0.364,0.364,0.364,0.36425,0.365,0.365,0.365,0.365,0.365,0.365,0.366,0.365,0.365,0.365,0.365,0.364,0.363,0.363,0.363,0.362,0.362,0.362,0.361,0.361,0.361,0.36,0.36,0.36,0.359,0.359,0.359,0.359,0.358,0.358,0.0,0.0,0.357,0.356,0.356,0.355,0.355,0.355,0.355,0.355,0.355,0.355,0.355,0.355,0.3555,0.355375,0.355,0.355,0.355,0.355,0.355,0.355,0.355,0.3545,0.354,0.353,0.353,0.353,0.352,0.352,0.352,0.352,0.352,0.352,0.352,0.352,0.0,0.0,0.0,0.0,0.352,0.35175,0.351875,0.352,0.0,0.0,0.0,0.0,0.351,0.3495,0.0,0.0,0.348,0.348,0.346,0.346,0.346,0.0,0.0,0.0,0.0,0.0,0.348,0.348,0.348,0.348,0.348,0.348,0.348,0.348,0.348,0.348,0.347,0.346,0.346,0.346,0.346,0.346,0.346,0.346,0.347,0.347,0.347,0.346,0.346,0.345,0.345,0.345,0.344,0.342,0.342,0.342,0.341,0.34,0.339,0.339,0.339,0.339,0.338,0.0,0.0,0.339,0.339,0.339,0.3395,0.0,0.0,0.34,0.34,0.34,0.34,0.34,0.34,0.34,0.339,0.339,0.339,0.339,0.339,0.339,0.338,0.338,0.338,0.338,0.338,0.338,0.338,0.337,0.337,0.337,0.336,0.336,0.336,0.336,0.3355,0.335,0.335,0.336,0.0,0.0,0.0,0.0,0.0,0.0,0.0,0.0,0.0,0.0,0.0,0.0,0.0,0.0,0.332,0.332,0.3325,0.333,0.333,0.333,0.333,0.332,0.332,0.332,0.332,0.332,0.331,0.331,0.33,0.33,0.33,0.33,0.33,0.32925,0.329,0.0,0.0,0.0,0.329,0.329,0.329,0.329,0.33,0.329,0.329,0.329,0.328,0.327,0.327,0.327,0.327,0.326,0.327,0.327,0.0,0.0,0.0,0.0,0.327,0.327,0.327,0.32675000000000004,0.326,0.326,0.326,0.325,0.324,0.324,0.324,0.323,0.323,0.323,0.0,0.0,0.0,0.0,0.0,0.0,0.323,0.323,0.3235,0.0,0.0,0.322,0.322,0.321,0.321,0.321,0.32,0.321,0.0,0.0,0.32,0.0,0.0,0.321,0.0,0.0,0.0,0.322,0.323,0.323,0.0,0.0,0.0,0.322,0.0,0.0,0.3185,0.318125,0.318,0.317,0.317,0.317,0.316,0.316,0.316,0.316,0.316,0.316,0.0,0.0,0.0,0.0,0.0,0.0,0.0,0.0,0.0,0.0,0.0,0.0,0.0,0.0,0.316,0.316,0.316,0.0,0.0,0.315,0.315,0.315,0.315,0.315,0.314,0.314,0.313,0.313,0.313,0.313,0.313,0.313,0.0,0.0,0.0,0.311,0.311,0.311,0.311,0.311,0.311,0.311,0.311,0.311,0.311,0.311,0.311,0.0,0.0,0.0,0.0,0.0,0.307,0.307,0.307,0.307,0.307,0.307,0.307,0.307,0.0,0.0,0.0,0.0,0.306,0.305,0.305,0.305,0.305,0.305,0.305,0.0,0.0,0.0,0.0,0.304,0.304,0.0,0.0,0.302,0.302,0.302,0.303,0.303,0.0,0.0,0.0,0.0,0.0,0.0,0.0,0.303,0.303,0.303,0.303,0.303,0.303,0.303,0.303,0.302,0.302,0.302,0.302,0.302,0.302,0.0,0.0,0.0,0.0,0.0,0.2985,0.299,0.299,0.0,0.0,0.0,0.3,0.3,0.3,0.299,0.298,0.297,0.297,0.296,0.296,0.296,0.296,0.296,0.296,0.297,0.297,0.297,0.297,0.297,0.297,0.298,0.298,0.298,0.298,0.298,0.298,0.298,0.297,0.297,0.296,0.0,0.0,0.0,0.0,0.0,0.0,0.0,0.0,0.0,0.0,0.0,0.0,0.0,0.0,0.0,0.0,0.0,0.0,0.0,0.0,0.0,0.0,0.0,0.0,0.0,0.0,0.0,0.0,0.0,0.0,0.0,0.0,0.0,0.0,0.0,0.0,0.0,0.0,0.0,0.0,0.0,0.0,0.0,0.0,0.0,0.0,0.0,0.0
0.0,0.0,0.0,0.0,0.0,0.0,0.0,0.0,0.0,0.0,0.0,0.0,0.0,0.372,0.0,0.371,0.37,0.37,0.3705,0.0,0.3695,0.37,0.37,0.37,0.37,0.37,0.37,0.37,0.37,0.37,0.37,0.369,0.368,0.367,0.367,0.367,0.366,0.366,0.366,0.367,0.367,0.367,0.368,0.368,0.368,0.369,0.369,0.369,0.368,0.366,0.3645,0.363,0.362,0.362,0.362,0.362,0.362,0.362,0.362,0.362,0.362,0.362,0.362,0.363,0.363,0.363,0.363,0.363,0.363,0.363,0.362,0.362,0.362,0.361,0.36,0.359,0.359,0.359,0.359,0.358,0.358,0.358,0.3575,0.35762499999999997,0.358,0.357,0.356,0.356,0.356,0.355,0.355,0.355,0.354,0.354,0.354,0.354,0.353,0.353,0.353,0.352,0.352,0.35274999999999995,0.353,0.353,0.353,0.353,0.353,0.353,0.353,0.353,0.352,0.352,0.3525,0.35175,0.3515,0.350875,0.351,0.351,0.351,0.351,0.35050000000000003,0.35,0.35,0.35,0.35,0.35,0.0,0.0,0.0,0.349,0.349,0.349,0.3495,0.35,0.0,0.0,0.0,0.0,0.348,0.348,0.347,0.346,0.345,0.345,0.345,0.344,0.344,0.344,0.344,0.344,0.345,0.345,0.345,0.347,0.347,0.34675,0.347,0.347,0.347,0.346,0.346,0.345,0.345,0.344,0.344,0.344,0.344,0.345,0.345,0.345,0.345,0.345,0.345,0.3445,0.344,0.343,0.342,0.342,0.342,0.341,0.341,0.34,0.339,0.339,0.338,0.338,0.338,0.338,0.338,0.338,0.338,0.338,0.338,0.338,0.338,0.339,0.338,0.338,0.338,0.339,0.339,0.339,0.339,0.338,0.338,0.338,0.338,0.337,0.337,0.337,0.337,0.337,0.337,0.337,0.337,0.336,0.336,0.3355,0.335,0.335,0.335,0.335,0.33475,0.335,0.334,0.334,0.334,0.334,0.0,0.0,0.0,0.0,0.0,0.33,0.0,0.0,0.0,0.0,0.0,0.0,0.0,0.331,0.33,0.33,0.331,0.331,0.331,0.0,0.0,0.0,0.33,0.0,0.3305,0.32987500000000003,0.329,0.329,0.0,0.0,0.0,0.0,0.327,0.326,0.326,0.326,0.326,0.326,0.327,0.327,0.3275,0.328,0.327,0.327,0.327,0.326,0.326,0.326,0.325,0.325,0.325,0.325,0.325,0.325,0.0,0.0,0.0,0.0,0.325,0.32525,0.325,0.326,0.324,0.324,0.324,0.324,0.324,0.323,0.323,0.323,0.323,0.323,0.323,0.323,0.0,0.0,0.0,0.0,0.0,0.321,0.321,0.321,0.32,0.32,0.32,0.32,0.319,0.319,0.319,0.3185,0.318,0.0,0.0,0.0,0.0,0.0,0.0,0.0,0.0,0.0,0.0,0.0,0.0,0.0,0.0,0.3195,0.0,0.0,0.317,0.316,0.31575,0.315,0.315,0.315,0.315,0.315,0.315,0.315,0.314,0.0,0.0,0.0,0.0,0.0,0.0,0.0,0.0,0.0,0.0,0.0,0.0,0.0,0.0,0.0,0.0,0.315,0.315,0.315,0.315,0.315,0.314,0.313,0.313,0.313,0.312,0.312,0.312,0.312,0.311,0.311,0.311,0.0,0.0,0.0,0.0,0.309,0.309,0.309,0.309,0.0,0.0,0.0,0.0,0.308,0.307,0.306,0.306,0.0,0.0,0.0,0.0,0.0,0.307,0.307,0.307,0.307,0.307,0.307,0.307,0.306,0.0,0.0,0.0,0.0,0.304,0.3035,0.303,0.304,0.303,0.304,0.0,0.0,0.0,0.0,0.302,0.302,0.302,0.302,0.302,0.302,0.302,0.30175,0.302,0.302,0.302,0.302,0.0,0.0,0.0,0.0,0.302,0.302,0.302,0.3015,0.302,0.302,0.302,0.302,0.302,0.302,0.302,0.302,0.301,0.3,0.2995,0.0,0.0,0.0,0.0,0.0,0.297,0.297,0.0,0.0,0.298,0.298,0.298,0.298,0.298,0.297,0.297,0.296,0.296,0.295,0.295,0.295,0.295,0.295,0.295,0.295,0.29575,0.296,0.296,0.296,0.0,0.0,0.297,0.298,0.298,0.298,0.298,0.297,0.297,0.297,0.2955,0.0,0.0,0.0,0.0,0.0,0.0,0.0,0.0,0.0,0.0,0.0,0.0,0.0,0.0,0.0,0.0,0.0,0.0,0.0,0.0,0.0,0.0,0.0,0.0,0.0,0.0,0.0,0.0,0.0,0.0,0.0,0.0,0.0,0.0,0.0,0.0,0.0,0.0,0.0,0.0,0.0,0.0,0.0,0.0,0.0,0.0,0.0,0.0
0.0,0.0,0.0,0.0,0.0,0.0,0.0,0.0,0.0,0.0,0.0,0.0,0.0,0.368,0.3685,0.369,0.368,0.368,0.369,0.3685,0.368,0.368,0.368,0.368,0.368,0.368,0.368,0.368,0.368,0.367,0.366,0.366,0.366,0.366,0.366,0.366,0.366,0.366,0.366,0.366,0.366,0.366,0.367,0.367,0.366,0.368,0.368,0.366,0.363,0.362,0.36087499999999995,0.359,0.359,0.359,0.36,0.36,0.361,0.361,0.361,0.361,0.361,0.361,0.361,0.361,0.361,0.361,0.361,0.362,0.361,0.361,0.36,0.359,0.359,0.359,0.358,0.358,0.358,0.357,0.356,0.356,0.356,0.356,0.355,0.355,0.355,0.355,0.354,0.354,0.354,0.35325,0.353,0.352,0.352,0.352,0.352,0.352,0.352,0.352,0.352,0.351,0.351,0.351,0.352,0.352,0.352,0.352,0.351,0.351,0.351,0.351,0.351,0.35,0.35,0.349,0.349,0.348,0.349,0.349,0.349,0.349,0.349,0.348,0.348,0.348,0.348,0.347,0.0,0.0,0.345,0.345,0.346,0.346,0.0,0.0,0.346,0.0,0.0,0.345,0.345,0.345,0.345,0.345,0.344,0.344,0.343,0.343,0.342,0.342,0.343,0.343,0.343,0.344,0.345,0.345,0.345,0.345,0.346,0.345,0.345,0.345,0.345,0.344,0.342,0.342,0.342,0.342,0.342,0.342,0.3425,0.342,0.343,0.343,0.34299999999999997,0.34199999999999997,0.341,0.34075000000000005,0.34,0.34,0.34,0.339,0.339,0.338,0.338,0.338,0.337,0.337,0.337,0.337,0.336,0.337,0.337,0.337,0.337,0.337,0.338,0.338,0.337,0.337,0.337,0.338,0.338,0.338,0.337,0.337,0.336,0.336,0.336,0.335,0.335,0.335,0.335,0.335,0.335,0.335,0.335,0.335,0.335,0.334,0.333,0.333,0.333,0.333,0.333,0.332,0.332,0.332,0.332,0.332,0.33,0.329,0.328,0.328,0.328,0.328,0.328,0.328,0.328,0.328,0.328,0.329,0.329,0.328,0.328,0.328,0.329,0.329,0.329,0.0,0.0,0.0,0.0,0.0,0.329,0.328,0.328,0.0,0.0,0.0,0.0,0.0,0.325,0.325,0.325,0.324,0.324,0.325,0.325,0.3255,0.326,0.0,0.0,0.0,0.324,0.324,0.323,0.323,0.323,0.323,0.323,0.323,0.323,0.324,0.323,0.0,0.0,0.0,0.323,0.324,0.324,0.323,0.324,0.323,0.324,0.323,0.323,0.323,0.323,0.323,0.323,0.323,0.323,0.0,0.0,0.0,0.0,0.0,0.0,0.32,0.32,0.32,0.319,0.319,0.319,0.318,0.318,0.318,0.318,0.31725000000000003,0.0,0.0,0.0,0.0,0.0,0.0,0.0,0.0,0.0,0.0,0.0,0.0,0.0,0.0,0.0,0.317,0.316,0.315,0.315,0.315,0.314,0.314,0.314,0.314,0.313,0.3135,0.313125,0.313,0.312,0.0,0.0,0.0,0.0,0.0,0.0,0.0,0.0,0.0,0.0,0.0,0.0,0.0,0.0,0.0,0.0,0.0,0.0,0.313,0.313,0.313,0.313,0.313,0.312,0.311,0.311,0.311,0.31,0.31,0.309,0.309,0.309,0.0,0.0,0.0,0.307,0.307,0.307,0.307,0.307,0.0,0.0,0.0,0.0,0.305,0.305,0.305,0.0,0.0,0.0,0.0,0.0,0.306,0.306,0.306,0.306,0.306,0.305,0.305,0.305,0.304,0.304,0.303,0.302,0.302,0.302,0.302,0.302,0.302,0.302,0.302,0.0,0.0,0.302,0.3015,0.301,0.301,0.301,0.301,0.301,0.301,0.301,0.301,0.3,0.3,0.3,0.0,0.0,0.299,0.299,0.299,0.299,0.299,0.299,0.299,0.3,0.3,0.3,0.3005,0.301,0.301,0.301,0.3,0.3,0.299,0.297,0.297,0.297,0.296,0.296,0.296,0.296,0.296,0.2965,0.297,0.297,0.0,0.0,0.297,0.0,0.0,0.296,0.2955,0.295,0.295,0.294,0.294,0.294,0.294,0.294,0.295,0.295,0.295,0.0,0.2955,0.0,0.0,0.0,0.297,0.0,0.0,0.0,0.0,0.0,0.0,0.295,0.295,0.0,0.0,0.0,0.0,0.0,0.0,0.0,0.0,0.0,0.0,0.0,0.0,0.0,0.0,0.0,0.0,0.0,0.0,0.0,0.0,0.0,0.0,0.0,0.0,0.0,0.0,0.0,0.0,0.0,0.0,0.0,0.0,0.0,0.0,0.0,0.0,0.0,0.0,0.0,0.0,0.0,0.0,0.0,0.0,0.0,0.0,0.0
0.0,0.0,0.0,0.0,0.0,0.0,0.0,0.0,0.0,0.0,0.0,0.0,0.0,0.0,0.0,0.366,0.366,0.366,0.366,0.366,0.366,0.365,0.365,0.365,0.0,0.0,0.0,0.0,0.365,0.365,0.365,0.364,0.364,0.364,0.364,0.364,0.364,0.364,0.364,0.365,0.365,0.365,0.365,0.365,0.365,0.364,0.362,0.361,0.359,0.358,0.358,0.358,0.358,0.358,0.358,0.3585,0.359,0.359,0.359,0.358,0.3585,0.0,0.0,0.0,0.0,0.0,0.0,0.358,0.358,0.358,0.358,0.358,0.357,0.357,0.355,0.3555,0.355,0.355,0.355,0.355,0.355,0.355,0.354,0.354,0.353,0.353,0.352,0.351,0.351,0.351,0.351,0.351,0.351,0.351,0.351,0.351,0.351,0.351,0.35,0.35,0.35,0.35,0.35,0.35,0.35,0.351,0.35,0.35,0.349,0.349,0.348,0.348,0.348,0.347,0.347,0.347,0.348,0.348,0.348,0.347,0.3465,0.34550000000000003,0.34550000000000003,0.34512499999999996,0.345,0.345,0.344,0.343,0.342,0.342,0.342,0.342,0.0,0.0,0.0,0.0,0.0,0.343,0.343,0.343,0.344,0.344,0.34275,0.342,0.342,0.342,0.3405,0.34125000000000005,0.342,0.342,0.342,0.342,0.343,0.344,0.343,0.344,0.343,0.342,0.342,0.34199999999999997,0.34149999999999997,0.341,0.341,0.341,0.341,0.341,0.342,0.341,0.341,0.341,0.341,0.341,0.341,0.33999999999999997,0.3395,0.339,0.339,0.338,0.338,0.338,0.338,0.337,0.336,0.336,0.336,0.336,0.336,0.335,0.335,0.335,0.335,0.335,0.335,0.336,0.33625000000000005,0.336,0.336,0.335,0.335,0.336,0.3355,0.335,0.335,0.335,0.334,0.335,0.334,0.334,0.334,0.333,0.333,0.333,0.333,0.3325,0.33237500000000003,0.332,0.332,0.332,0.332,0.331,0.331,0.331,0.331,0.33,0.33,0.329,0.329,0.329,0.328,0.327,0.326,0.326,0.326,0.326,0.326,0.326,0.326,0.326,0.326,0.326,0.326,0.326,0.326,0.327,0.327,0.327,0.0,0.0,0.0,0.0,0.0,0.326,0.326,0.326,0.326,0.0,0.0,0.0,0.324,0.324,0.323,0.323,0.323,0.323,0.323,0.32375000000000004,0.324,0.324,0.0,0.0,0.0,0.0,0.323,0.323,0.322,0.323,0.323,0.323,0.323,0.323,0.323,0.322,0.322,0.0,0.0,0.0,0.322,0.322,0.0,0.0,0.0,0.0,0.0,0.322,0.322,0.321,0.321,0.321,0.0,0.0,0.321,0.0,0.0,0.0,0.0,0.0,0.0,0.0,0.0,0.319,0.318,0.318,0.318,0.318,0.317,0.3165,0.316,0.316,0.3155,0.315,0.315,0.315,0.0,0.0,0.0,0.0,0.313,0.3135,0.314,0.312,0.312,0.0,0.0,0.313,0.313,0.313,0.312,0.312,0.312,0.312,0.312,0.312,0.312,0.312,0.311,0.31124999999999997,0.311,0.311,0.31,0.0,0.0,0.0,0.0,0.0,0.0,0.0,0.0,0.0,0.0,0.0,0.0,0.0,0.0,0.0,0.0,0.0,0.0,0.312,0.312,0.0,0.0,0.31,0.309,0.309,0.308,0.307,0.307,0.307,0.307,0.306,0.306,0.306,0.306,0.306,0.306,0.306,0.305,0.305,0.0,0.0,0.304,0.0,0.0,0.0,0.0,0.0,0.0,0.0,0.0,0.305,0.305,0.305,0.305,0.305,0.305,0.305,0.304,0.303,0.302,0.3,0.3,0.3,0.3,0.3,0.3,0.3,0.3,0.3,0.3,0.3,0.299,0.299,0.299,0.299,0.299,0.29975,0.3,0.299,0.29924999999999996,0.299,0.299,0.299,0.298,0.2975,0.297,0.297,0.297,0.297,0.297,0.297,0.297,0.298,0.298,0.298,0.299,0.299,0.299,0.299,0.299,0.299,0.299,0.297,0.297,0.297,0.296,0.295,0.295,0.295,0.295,0.295,0.296,0.296,0.296,0.0,0.0,0.296,0.0,0.0,0.0,0.0,0.294,0.294,0.294,0.294,0.294,0.294,0.294,0.294,0.294,0.294,0.2945,0.295,0.0,0.0,0.0,0.0,0.0,0.0,0.0,0.0,0.0,0.0,0.0,0.0,0.0,0.0,0.0,0.0,0.0,0.0,0.0,0.0,0.0,0.0,0.0,0.0,0.0,0.0,0.0,0.0,0.0,0.0,0.0,0.0,0.0,0.0,0.0,0.0,0.0,0.0,0.0,0.0,0.0,0.0,0.0,0.0,0.0,0.0,0.0,0.0,0.0,0.0,0.0,0.0,0.0,0.0,0.0,0.0,0.0,0.0,0.0
0.0,0.0,0.0,0.0,0.0,0.0,0.0,0.0,0.0,0.0,0.0,0.0,0.0,0.0,0.0,0.0,0.0,0.0,0.365,0.364,0.363,0.363,0.362,0.362,0.0,0.0,0.0,0.0,0.362,0.362,0.362,0.362,0.362,0.36275,0.363,0.363,0.363,0.363,0.363,0.363,0.363,0.364,0.0,0.0,0.0,0.359,0.359,0.358,0.358,0.357,0.357,0.357,0.357,0.357,0.357,0.357,0.357,0.357,0.356,0.356,0.356,0.0,0.0,0.0,0.0,0.0,0.0,0.3555,0.0,0.0,0.355,0.355,0.355,0.355,0.354,0.354,0.35325,0.353,0.353,0.353,0.353,0.352,0.352,0.352,0.352,0.35124999999999995,0.351,0.35,0.35,0.35,0.35,0.35,0.349,0.349,0.349,0.349,0.349,0.349,0.349,0.348,0.348,0.348,0.348,0.348,0.0,0.0,0.348,0.348,0.348,0.348,0.348,0.347,0.347,0.345,0.345,0.345,0.345,0.345,0.345,0.345,0.344,0.343,0.343,0.342,0.342,0.342,0.34175,0.341,0.341,0.341,0.0,0.0,0.0,0.0,0.0,0.0,0.0,0.0,0.0,0.0,0.342,0.34175,0.341,0.341,0.34,0.33975,0.339,0.0,0.34,0.34,0.0,0.0,0.0,0.0,0.0,0.341,0.341,0.34,0.33925,0.339,0.338,0.338,0.34,0.339,0.339,0.34,0.341,0.34,0.34,0.34,0.34,0.339,0.339,0.338,0.338,0.337,0.336,0.336,0.336,0.336,0.336,0.336,0.3355,0.335125,0.335,0.335,0.335,0.335,0.334,0.334,0.334,0.334,0.33425,0.335,0.335,0.335,0.334,0.334,0.334,0.334,0.333,0.0,0.0,0.0,0.332,0.332,0.332,0.332,0.332,0.332,0.332,0.332,0.331,0.33,0.33,0.33,0.329,0.329,0.329,0.329,0.329,0.329,0.329,0.329,0.328,0.328,0.328,0.327,0.326,0.3255,0.325,0.325,0.325,0.325,0.325,0.325,0.326,0.325,0.325,0.325,0.325,0.325,0.325,0.325,0.326,0.326,0.0,0.0,0.0,0.0,0.0,0.324,0.324,0.323,0.323,0.323,0.323,0.323,0.323,0.323,0.323,0.323,0.323,0.323,0.323,0.323,0.323,0.323,0.0,0.0,0.0,0.0,0.322,0.322,0.322,0.322,0.322,0.322,0.322,0.322,0.321,0.321,0.321,0.321,0.3205,0.32,0.32,0.32,0.0,0.0,0.0,0.0,0.0,0.32,0.32,0.3195,0.0,0.0,0.0,0.0,0.0,0.0,0.0,0.319,0.0,0.0,0.0,0.0,0.0,0.0,0.0,0.316,0.316,0.315,0.31525,0.315,0.315,0.315,0.315,0.314,0.313,0.312,0.312,0.312,0.311,0.311,0.311,0.31,0.31,0.0,0.0,0.0,0.0,0.311,0.31075,0.31,0.31025,0.31,0.31,0.31,0.31,0.31,0.31,0.31,0.31,0.31,0.309,0.309,0.0,0.0,0.0,0.0,0.0,0.0,0.0,0.0,0.0,0.0,0.0,0.0,0.0,0.0,0.0,0.0,0.0,0.0,0.0,0.0,0.0,0.0,0.0,0.307,0.307,0.307,0.306,0.306,0.305,0.3055,0.305375,0.305,0.305,0.305,0.304,0.304,0.304,0.304,0.304,0.304,0.304,0.304,0.304,0.0,0.0,0.0,0.0,0.0,0.0,0.305,0.305,0.305,0.304,0.304,0.305,0.305,0.304,0.304,0.3025,0.301,0.3,0.299,0.299,0.299,0.299,0.299,0.299,0.299,0.298,0.2985,0.299,0.298,0.298,0.298,0.298,0.299,0.299,0.299,0.299,0.299,0.298,0.29774999999999996,0.297,0.297,0.297,0.297,0.297,0.296,0.296,0.296,0.296,0.296,0.296,0.0,0.0,0.2965,0.297,0.297,0.2975,0.298,0.298,0.298,0.298,0.297,0.297,0.2965,0.296,0.295,0.295,0.295,0.295,0.295,0.295,0.295,0.295,0.0,0.0,0.0,0.0,0.0,0.0,0.0,0.0,0.294,0.294,0.293,0.293,0.293,0.293,0.293,0.293,0.294,0.294,0.0,0.0,0.0,0.0,0.0,0.0,0.0,0.0,0.0,0.0,0.0,0.0,0.0,0.0,0.0,0.0,0.0,0.0,0.0,0.0,0.0,0.0,0.0,0.0,0.0,0.0,0.0,0.0,0.0,0.0,0.0,0.0,0.0,0.0,0.0,0.0,0.0,0.0,0.0,0.0,0.0,0.0,0.0,0.0,0.0,0.0,0.0,0.0,0.0,0.0,0.0,0.0,0.0,0.0,0.0,0.0,0.0,0.0,0.0,0.0
0.0,0.0,0.0,0.0,0.0,0.0,0.0,0.0,0.0,0.0,0.0,0.0,0.0,0.0,0.0,0.0,0.0,0.0,0.3625,0.362,0.36,0.359,0.359,0.359,0.0,0.0,0.0,0.359,0.359,0.359,0.36,0.36,0.361,0.362,0.362,0.362,0.362,0.362,0.362,0.362,0.362,0.0,0.0,0.0,0.0,0.356,0.355,0.355,0.355,0.355,0.355,0.356,0.356,0.356,0.35524999999999995,0.355,0.355,0.355,0.355,0.354,0.354,0.353,0.353,0.353,0.353,0.353,0.353,0.353,0.0,0.0,0.352,0.352,0.352,0.352,0.352,0.351,0.351,0.351,0.351,0.351,0.351,0.351,0.351,0.35050000000000003,0.35,0.349,0.349,0.348,0.348,0.348,0.348,0.348,0.348,0.348,0.348,0.348,0.348,0.348,0.348,0.347,0.347,0.347,0.347,0.347,0.0,0.0,0.0,0.0,0.346,0.345,0.345,0.345,0.345,0.343,0.343,0.342,0.342,0.342,0.342,0.341,0.341,0.341,0.341,0.34,0.341,0.3405,0.34,0.339,0.339,0.339,0.0,0.0,0.0,0.0,0.339,0.0,0.0,0.0,0.0,0.0,0.3395,0.34,0.339,0.339,0.339,0.338,0.338,0.338,0.338,0.338,0.0,0.0,0.0,0.0,0.0,0.338,0.338,0.33725000000000005,0.336,0.335,0.335,0.335,0.33625000000000005,0.336,0.336,0.337,0.339,0.339,0.339,0.339,0.338,0.338,0.337,0.336,0.336,0.335,0.335,0.335,0.335,0.335,0.335,0.335,0.335,0.334,0.334,0.333,0.333,0.333,0.333,0.333,0.333,0.333,0.333,0.333,0.0,0.0,0.0,0.332,0.333,0.332,0.332,0.0,0.0,0.0,0.3305,0.331,0.331,0.33,0.33,0.33,0.33,0.33,0.329,0.328,0.328,0.327,0.327,0.327,0.3275,0.32725000000000004,0.327,0.327,0.327,0.0,0.327,0.3265,0.326,0.3255,0.324625,0.324,0.324,0.324,0.324,0.324,0.324,0.324,0.324,0.324,0.324,0.324,0.324,0.324,0.323,0.3235,0.323,0.323,0.323,0.0,0.0,0.0,0.323,0.323,0.323,0.322,0.322,0.322,0.321,0.321,0.321,0.321,0.321,0.321,0.321,0.321,0.321,0.321,0.321,0.321,0.321,0.0,0.0,0.321,0.321,0.321,0.321,0.321,0.321,0.321,0.321,0.321,0.321,0.321,0.321,0.32,0.32,0.32,0.319,0.0,0.0,0.0,0.0,0.0,0.0,0.0,0.318,0.318,0.0,0.0,0.0,0.0,0.0,0.0,0.0,0.0,0.0,0.0,0.0,0.0,0.0,0.0,0.0,0.315,0.315,0.314,0.314,0.314,0.313,0.313,0.312,0.312,0.312,0.311,0.31,0.31,0.31,0.31,0.31,0.309,0.309,0.0,0.0,0.0,0.0,0.309,0.309,0.30924999999999997,0.309,0.309,0.309,0.309,0.309,0.309,0.309,0.309,0.308,0.308,0.307,0.307,0.0,0.0,0.0,0.0,0.0,0.0,0.0,0.0,0.0,0.0,0.0,0.0,0.0,0.0,0.0,0.0,0.0,0.0,0.0,0.0,0.0,0.0,0.0,0.305,0.305,0.305,0.304,0.304,0.304,0.304,0.304,0.303,0.303,0.303,0.303,0.303,0.303,0.303,0.303,0.303,0.303,0.303,0.0,0.0,0.0,0.0,0.0,0.0,0.0,0.0,0.0,0.304,0.304,0.304,0.304,0.304,0.3035,0.0,0.0,0.0,0.0,0.299,0.298,0.298,0.298,0.298,0.297,0.297,0.297,0.297,0.297,0.0,0.2975,0.29725,0.297,0.0,0.0,0.0,0.298,0.298,0.29724999999999996,0.297,0.297,0.296,0.295,0.295,0.2955,0.295,0.295,0.295,0.295,0.295,0.295,0.0,0.0,0.295,0.295,0.295,0.0,0.0,0.0,0.297,0.297,0.297,0.297,0.296,0.295,0.295,0.295,0.295,0.295,0.295,0.295,0.295,0.295,0.295,0.0,0.0,0.0,0.0,0.0,0.0,0.0,0.0,0.292,0.292,0.292,0.292,0.292,0.292,0.292,0.292,0.292,0.0,0.0,0.0,0.0,0.0,0.0,0.0,0.0,0.0,0.0,0.0,0.0,0.0,0.0,0.0,0.0,0.0,0.0,0.0,0.0,0.0,0.0,0.0,0.0,0.0,0.0,0.0,0.0,0.0,0.0,0.0,0.0,0.0,0.0,0.0,0.0,0.0,0.0,0.0,0.0,0.0,0.0,0.0,0.0,0.0,0.0,0.0,0.0,0.0,0.0,0.0,0.0,0.0,0.0,0.0,0.0,0.0,0.0,0.0,0.0
0.0,0.0,0.354,0.354,0.354,0.355,0.355,0.355,0.0,0.0,0.0,0.0,0.0,0.0,0.0,0.0,0.0,0.0,0.36,0.359,0.358,0.358,0.358,0.357,0.356,0.356,0.356,0.357,0.357,0.358,0.358,0.358,0.359,0.359,0.359,0.36,0.36,0.36,0.36,0.361,0.361,0.0,0.0,0.0,0.0,0.355,0.355,0.355,0.355,0.355,0.355,0.355,0.355,0.355,0.353,0.353,0.352,0.352,0.351,0.351,0.351,0.35,0.35,0.35,0.35,0.35,0.35,0.349,0.0,0.0,0.35,0.35,0.34974999999999995,0.349,0.349,0.349,0.34950000000000003,0.35,0.35,0.349,0.349,0.349,0.349,0.349,0.348,0.348,0.348,0.347,0.347,0.347,0.3465,0.0,0.0,0.0,0.346,0.346,0.346,0.346,0.3465,0.346,0.3455,0.345,0.345,0.345,0.345,0.345,0.0,0.0,0.344,0.345,0.345,0.343,0.342,0.342,0.341,0.341,0.34,0.339,0.339,0.339,0.339,0.339,0.339,0.339,0.339,0.339,0.339,0.3385,0.338,0.338,0.337,0.0,0.0,0.336,0.336,0.0,0.0,0.0,0.0,0.0,0.337,0.337,0.337,0.337,0.336,0.336,0.335,0.335,0.335,0.3355,0.0,0.0,0.0,0.0,0.0,0.335,0.335,0.335,0.334,0.333,0.333,0.333,0.334,0.334,0.335,0.335,0.335,0.336,0.336,0.338,0.337,0.336,0.335,0.335,0.335,0.333,0.333,0.333,0.333,0.332,0.332,0.332,0.332,0.332,0.332,0.332,0.332,0.332,0.332,0.331,0.331,0.331,0.331,0.332,0.0,0.0,0.0,0.0,0.33,0.329,0.3295,0.0,0.0,0.0,0.329,0.329,0.329,0.329,0.328,0.328,0.328,0.328,0.327,0.326,0.326,0.32575000000000004,0.326,0.326,0.326,0.32581250000000006,0.326,0.326,0.3255,0.32575,0.326,0.325,0.324,0.324,0.323,0.323,0.323,0.324,0.324,0.324,0.324,0.324,0.324,0.324,0.324,0.323,0.323,0.323,0.323,0.323,0.322,0.322,0.322,0.322,0.322,0.322,0.322,0.322,0.322,0.322,0.321,0.321,0.321,0.321,0.321,0.321,0.321,0.32,0.32,0.32,0.32,0.32,0.319,0.319,0.319,0.319,0.319,0.3195,0.32,0.32,0.32,0.32,0.321,0.321,0.321,0.321,0.321,0.0,0.0,0.0,0.3195,0.31875,0.318,0.0,0.0,0.0,0.0,0.0,0.0,0.0,0.315,0.315,0.0,0.0,0.0,0.0,0.0,0.0,0.0,0.0,0.313,0.0,0.0,0.0,0.312,0.3125,0.313,0.313,0.313,0.313,0.312,0.312,0.312,0.312,0.312,0.311,0.311,0.31,0.31,0.31,0.31,0.309,0.309,0.309,0.309,0.0,0.0,0.0,0.0,0.308,0.309,0.309,0.309,0.308,0.308,0.308,0.308,0.308,0.307,0.307,0.307,0.307,0.307,0.0,0.0,0.0,0.0,0.0,0.0,0.0,0.0,0.0,0.0,0.0,0.0,0.0,0.0,0.0,0.0,0.0,0.0,0.0,0.0,0.0,0.0,0.0,0.0,0.3025,0.304,0.303,0.302,0.302,0.302,0.302,0.302,0.302,0.302,0.302,0.302,0.302,0.302,0.302,0.302,0.302,0.302,0.0,0.0,0.0,0.0,0.0,0.0,0.0,0.0,0.0,0.0,0.0,0.0,0.0,0.0,0.303,0.303,0.0,0.0,0.0,0.0,0.297,0.297,0.297,0.297,0.0,0.0,0.2965,0.29612499999999997,0.296,0.2965,0.29674999999999996,0.297,0.296625,0.0,0.0,0.0,0.0,0.2975,0.29674999999999996,0.296,0.2955,0.295,0.295,0.295,0.295,0.295,0.295,0.294,0.294,0.294,0.294,0.294,0.294,0.294,0.294,0.294,0.294,0.0,0.0,0.0,0.0,0.297,0.297,0.296,0.295,0.295,0.295,0.295,0.295,0.295,0.0,0.0,0.0,0.0,0.0,0.0,0.0,0.0,0.0,0.0,0.0,0.0,0.0,0.0,0.0,0.0,0.0,0.0,0.0,0.0,0.0,0.0,0.0,0.0,0.0,0.0,0.0,0.0,0.0,0.0,0.0,0.0,0.0,0.0,0.0,0.0,0.0,0.0,0.0,0.0,0.0,0.0,0.0,0.0,0.0,0.0,0.0,0.0,0.0,0.0,0.0,0.0,0.0,0.0,0.0,0.0,0.0,0.0,0.0,0.0,0.0,0.0,0.0,0.0,0.0,0.0,0.0,0.0,0.0,0.0,0.0,0.0,0.0,0.0,0.0,0.0,0.0,0.0,0.0,0.0,0.0,0.0
0.353,0.353,0.35350000000000004,0.354,0.354,0.3545,0.355,0.355,0.0,0.0,0.0,0.0,0.0,0.0,0.0,0.0,0.0,0.0,0.358,0.357,0.355,0.355,0.355,0.354,0.354,0.354,0.355,0.355,0.355,0.355,0.356,0.0,0.0,0.357,0.358,0.358,0.358,0.358,0.358,0.358,0.357,0.356,0.355,0.355,0.354,0.354,0.354,0.354,0.354,0.354,0.354,0.354,0.353,0.352,0.351,0.351,0.35,0.349,0.349,0.348,0.348,0.348,0.348,0.348,0.347,0.347,0.347,0.347,0.347,0.347,0.348,0.348,0.348,0.348,0.347,0.348,0.348,0.348,0.348,0.0,0.0,0.0,0.347,0.347,0.345,0.345,0.345,0.345,0.345,0.34475,0.345,0.0,0.0,0.0,0.345,0.345,0.345,0.345,0.345,0.345,0.344,0.344,0.343,0.343,0.343,0.343,0.0,0.0,0.342,0.342,0.341,0.3405,0.34,0.339,0.3385,0.338,0.3385,0.337625,0.337,0.338,0.33775000000000005,0.338,0.338,0.338,0.338,0.3375,0.337,0.33675,0.3359375,0.335,0.335,0.334,0.333,0.333,0.333,0.0,0.0,0.0,0.334,0.334,0.335,0.33475,0.335,0.3345,0.33375,0.333,0.333,0.333,0.333,0.333,0.0,0.0,0.0,0.0,0.0,0.333,0.333,0.332,0.332,0.332,0.332,0.332,0.33275,0.333,0.333,0.333,0.334,0.335,0.33525000000000005,0.336,0.336,0.335,0.334,0.333,0.332,0.332,0.332,0.332,0.331,0.331,0.331,0.332,0.331,0.331,0.331,0.33,0.33,0.33,0.33,0.329,0.329,0.329,0.329,0.3295,0.0,0.0,0.0,0.0,0.327,0.327,0.327,0.326,0.326,0.326,0.326,0.327,0.327,0.328,0.3275,0.327,0.3265,0.326,0.325,0.3245,0.324,0.324,0.324,0.324,0.324,0.324,0.324,0.324,0.324,0.3241875,0.324,0.324,0.323,0.323,0.323,0.322,0.322,0.3225,0.323,0.323,0.323,0.323,0.323,0.323,0.322,0.322,0.321,0.321,0.321,0.321,0.321,0.321,0.321,0.321,0.3215,0.322,0.322,0.322,0.322,0.321,0.321,0.321,0.321,0.321,0.321,0.32,0.32,0.32,0.32,0.319,0.319,0.318,0.318,0.318,0.318,0.318,0.318,0.318,0.318,0.318,0.319,0.3195,0.32,0.32,0.0,0.0,0.0,0.0,0.0,0.0,0.319,0.0,0.0,0.0,0.0,0.0,0.0,0.313,0.313,0.312,0.312,0.312,0.311,0.0,0.0,0.0,0.0,0.0,0.0,0.31,0.3105,0.0,0.0,0.0,0.3105,0.311,0.312,0.312,0.312,0.312,0.312,0.31124999999999997,0.311,0.0,0.0,0.31,0.3095,0.0,0.309,0.309,0.309,0.309,0.309,0.308,0.308,0.0,0.0,0.0,0.307,0.307,0.307,0.307,0.307,0.307,0.307,0.307,0.307,0.307,0.307,0.307,0.307,0.306,0.306,0.3055,0.305,0.0,0.0,0.0,0.0,0.0,0.0,0.0,0.0,0.0,0.0,0.0,0.0,0.0,0.0,0.0,0.0,0.0,0.0,0.0,0.0,0.0,0.3,0.3,0.3,0.3,0.3,0.3,0.3,0.3,0.3005,0.300625,0.301,0.3,0.301,0.0,0.0,0.0,0.0,0.0,0.0,0.0,0.0,0.0,0.0,0.0,0.0,0.0,0.0,0.0,0.0,0.0,0.0,0.0,0.0,0.301,0.0,0.0,0.0,0.0,0.297,0.296,0.296,0.296,0.296,0.0,0.0,0.296,0.295,0.2955,0.296,0.2956875,0.296,0.296,0.0,0.0,0.297,0.297,0.297,0.296,0.295,0.29487499999999994,0.295,0.295,0.295,0.295,0.294,0.294,0.294,0.294,0.294,0.294,0.294,0.293,0.293,0.293,0.0,0.0,0.0,0.0,0.0,0.0,0.0,0.0,0.295,0.295,0.295,0.294,0.0,0.0,0.0,0.0,0.0,0.0,0.0,0.0,0.0,0.0,0.0,0.0,0.0,0.0,0.0,0.0,0.0,0.0,0.0,0.0,0.0,0.0,0.0,0.0,0.0,0.0,0.0,0.0,0.0,0.0,0.0,0.0,0.0,0.0,0.0,0.0,0.0,0.0,0.0,0.0,0.0,0.0,0.0,0.0,0.0,0.0,0.0,0.0,0.0,0.0,0.0,0.0,0.0,0.0,0.0,0.0,0.0,0.0,0.0,0.0,0.0,0.0,0.0,0.0,0.0,0.0,0.0,0.0,0.0,0.0,0.0,0.0,0.0,0.0,0.0,0.0,0.0,0.0,0.0,0.0,0.0,0.0,0.0,0.0,0.0
0.352,0.353,0.353,0.354,0.354,0.354,0.3545,0.355,0.355,0.0,0.0,0.0,0.0,0.0,0.0,0.0,0.0,0.0,0.355,0.354,0.354,0.354,0.353,0.352,0.352,0.352,0.353,0.353,0.353,0.0,0.0,0.0,0.0,0.3545,0.355,0.0,0.355,0.355,0.0,0.0,0.0,0.354,0.354,0.353,0.352,0.352,0.0,0.0,0.0,0.0,0.352,0.0,0.0,0.0,0.0,0.0,0.3485,0.348,0.348,0.347,0.347,0.346,0.346,0.346,0.345,0.345,0.345,0.345,0.345,0.345,0.345,0.3455,0.345,0.345,0.345,0.345,0.345,0.345,0.345,0.0,0.0,0.0,0.345,0.344,0.343,0.342,0.342,0.342,0.342,0.342,0.34225000000000005,0.342,0.0,0.0,0.343,0.343,0.343,0.343,0.343,0.343,0.342,0.342,0.342,0.342,0.341,0.341,0.0,0.0,0.339,0.33875000000000005,0.338,0.338,0.338,0.3375,0.33725,0.337,0.337,0.336,0.336,0.336,0.336,0.336,0.336,0.336,0.336,0.335625,0.335,0.335,0.334,0.334,0.333,0.332,0.332,0.331,0.331,0.331,0.332,0.332,0.332,0.332,0.3325,0.332,0.332,0.332,0.332,0.332,0.331,0.331,0.331,0.331,0.0,0.0,0.0,0.0,0.0,0.331,0.331,0.331,0.33,0.331,0.331,0.332,0.332,0.332,0.332,0.3325,0.333,0.334,0.334,0.0,0.0,0.0,0.0,0.328,0.328,0.328,0.329,0.33,0.33,0.33,0.331,0.329,0.32925,0.329,0.329,0.329,0.329,0.329,0.328,0.328,0.327,0.327,0.327,0.327,0.0,0.0,0.0,0.0,0.325,0.325,0.324,0.325,0.325,0.325,0.32525000000000004,0.326,0.326,0.0,0.0,0.3255,0.325,0.324,0.324,0.323,0.323,0.323,0.323,0.323,0.323,0.323,0.323,0.323,0.323,0.323,0.323,0.323,0.321,0.321,0.321,0.321,0.321,0.321125,0.321,0.321,0.321,0.321,0.321,0.321,0.321,0.321,0.32,0.32,0.32,0.32,0.32,0.32,0.32,0.321,0.321,0.321,0.322,0.322,0.321,0.321,0.321,0.321,0.32,0.32,0.32,0.32,0.32,0.319,0.318,0.318,0.318,0.317,0.317,0.3165,0.0,0.0,0.317,0.0,0.0,0.0,0.0,0.0,0.319,0.319,0.0,0.0,0.0,0.0,0.0,0.0,0.0,0.0,0.0,0.313,0.312,0.312,0.312,0.312,0.311,0.311,0.3105,0.31,0.309,0.307,0.0,0.0,0.0,0.307,0.307,0.308,0.308,0.3085,0.309,0.309,0.309,0.309,0.31,0.31,0.31,0.0,0.0,0.31,0.309,0.0,0.0,0.309,0.308,0.308,0.308,0.308,0.308,0.308,0.307,0.307,0.307,0.307,0.307,0.307,0.306,0.307,0.307,0.307,0.307,0.307,0.307,0.307,0.307,0.307,0.306,0.305,0.305,0.305,0.304,0.304,0.304,0.303,0.0,0.0,0.0,0.0,0.0,0.0,0.0,0.0,0.0,0.0,0.0,0.0,0.0,0.0,0.0,0.0,0.0,0.299,0.299,0.299,0.299,0.299,0.299,0.299,0.299,0.299,0.299,0.299,0.299,0.299,0.299,0.299,0.0,0.0,0.0,0.0,0.0,0.0,0.0,0.0,0.0,0.0,0.0,0.0,0.0,0.0,0.0,0.0,0.0,0.0,0.0,0.0,0.0,0.0,0.0,0.0,0.0,0.0,0.0,0.295,0.295,0.295,0.295,0.0,0.0,0.295,0.295,0.295,0.295,0.294,0.0,0.0,0.0,0.0,0.0,0.0,0.0,0.0,0.294,0.294,0.294,0.294,0.294,0.294,0.294,0.294,0.294,0.293,0.293,0.292,0.292,0.292,0.292,0.0,0.0,0.0,0.0,0.0,0.0,0.0,0.0,0.0,0.0,0.0,0.0,0.0,0.0,0.0,0.0,0.0,0.0,0.0,0.0,0.0,0.0,0.0,0.0,0.0,0.0,0.0,0.0,0.0,0.0,0.0,0.0,0.0,0.0,0.0,0.0,0.0,0.0,0.0,0.0,0.0,0.0,0.0,0.0,0.0,0.0,0.0,0.0,0.0,0.0,0.0,0.0,0.0,0.0,0.0,0.0,0.0,0.0,0.0,0.0,0.0,0.0,0.0,0.0,0.0,0.0,0.0,0.0,0.0,0.0,0.0,0.0,0.0,0.0,0.0,0.0,0.0,0.0,0.0,0.0,0.0,0.0,0.0,0.0,0.0,0.0,0.0,0.0,0.0,0.0,0.0,0.0,0.0,0.0,0.0,0.0,0.0,0.0
0.352,0.352,0.353,0.353,0.353,0.354,0.35375,0.0,0.0,0.0,0.0,0.0,0.0,0.0,0.0,0.0,0.0,0.0,0.352,0.352,0.352,0.352,0.351,0.351,0.351,0.351,0.351,0.351,0.351,0.0,0.0,0.0,0.352,0.352,0.352,0.352,0.352,0.352,0.0,0.0,0.0,0.0,0.352,0.351,0.351,0.0,0.0,0.0,0.0,0.0,0.35,0.0,0.0,0.0,0.0,0.0,0.347,0.347,0.346,0.346,0.346,0.3455,0.34512499999999996,0.345,0.345,0.345,0.345,0.344,0.344,0.344,0.344,0.344,0.344,0.344,0.344,0.344,0.344,0.343,0.0,0.0,0.0,0.0,0.3415,0.341,0.341,0.341,0.34,0.339,0.339,0.339,0.34,0.34,0.34,0.341,0.341,0.3415,0.342,0.342,0.341,0.341,0.341,0.341,0.34,0.34,0.339,0.338,0.337,0.337,0.336,0.336,0.336,0.336,0.336,0.336,0.336,0.335,0.335,0.335,0.335,0.335,0.335,0.335,0.335,0.335,0.335,0.334,0.334,0.333,0.333,0.333,0.332,0.332,0.331,0.33,0.33,0.33,0.3305,0.331,0.331,0.331,0.331,0.331,0.331,0.0,0.331,0.33075000000000004,0.33,0.33,0.33,0.33,0.33,0.329,0.329,0.329,0.329,0.329,0.329,0.329,0.329,0.33,0.33,0.331,0.331,0.331,0.332,0.0,0.0,0.333,0.0,0.0,0.0,0.0,0.0,0.326,0.326,0.326,0.326,0.326,0.326,0.326,0.327,0.3275,0.328,0.328,0.327,0.327,0.328,0.328,0.327,0.326,0.326,0.326,0.324,0.325,0.0,0.0,0.0,0.323,0.323,0.323,0.32275,0.323,0.323,0.323,0.324,0.324,0.0,0.0,0.0,0.324,0.324,0.323,0.323,0.323,0.322,0.322,0.323,0.323,0.323,0.323,0.323,0.323,0.323,0.323,0.323,0.321,0.321,0.321,0.321,0.32,0.32,0.32,0.32,0.32,0.0,0.0,0.32,0.32,0.32,0.319,0.319,0.318,0.318,0.318,0.318,0.0,0.0,0.32,0.0,0.0,0.0,0.32,0.321,0.321,0.32,0.32,0.319,0.319,0.319,0.318,0.317,0.316,0.316,0.315,0.3155,0.315,0.315,0.315,0.0,0.0,0.315,0.0,0.0,0.0,0.0,0.0,0.0,0.0,0.0,0.0,0.0,0.0,0.0,0.0,0.0,0.0,0.0,0.0,0.31,0.31,0.311,0.311,0.31,0.30924999999999997,0.309,0.308,0.307,0.307,0.307,0.0,0.0,0.0,0.0,0.307,0.307,0.307,0.307,0.307,0.3075,0.308,0.308,0.308,0.0,0.0,0.0,0.0,0.0,0.307,0.307,0.307,0.307,0.306,0.0,0.0,0.307,0.307,0.307,0.306,0.306,0.306,0.306,0.305,0.305,0.305,0.305,0.305,0.0,0.0,0.0,0.305,0.305,0.304,0.304,0.304,0.304,0.304,0.303,0.303,0.303,0.301,0.0,0.0,0.0,0.0,0.0,0.0,0.0,0.0,0.0,0.0,0.0,0.0,0.0,0.0,0.0,0.0,0.0,0.0,0.298,0.298,0.298,0.298,0.297,0.297,0.297,0.297,0.298,0.298,0.298,0.298,0.298,0.298,0.298,0.298,0.298,0.0,0.0,0.0,0.0,0.0,0.0,0.0,0.0,0.0,0.0,0.0,0.0,0.0,0.0,0.0,0.0,0.0,0.0,0.0,0.0,0.0,0.0,0.0,0.0,0.0,0.295,0.295,0.295,0.294,0.2935,0.293,0.0,0.0,0.0,0.0,0.0,0.0,0.0,0.0,0.0,0.0,0.0,0.0,0.293,0.294,0.294,0.294,0.293,0.293,0.293,0.293,0.293,0.293,0.292,0.292,0.292,0.292,0.292,0.0,0.0,0.0,0.0,0.0,0.0,0.0,0.0,0.0,0.0,0.0,0.0,0.0,0.0,0.0,0.0,0.0,0.0,0.0,0.0,0.0,0.0,0.0,0.0,0.0,0.0,0.0,0.0,0.0,0.0,0.0,0.0,0.0,0.0,0.0,0.0,0.0,0.0,0.0,0.0,0.0,0.0,0.0,0.0,0.0,0.0,0.0,0.0,0.0,0.0,0.0,0.0,0.0,0.0,0.0,0.0,0.0,0.0,0.0,0.0,0.0,0.0,0.0,0.0,0.0,0.0,0.0,0.0,0.0,0.0,0.0,0.0,0.0,0.0,0.0,0.0,0.0,0.0,0.0,0.0,0.0,0.0,0.0,0.0,0.0,0.0,0.0,0.0,0.0,0.0,0.0,0.0,0.0,0.0,0.0,0.0,0.0,0.0
0.352,0.352,0.352,0.353,0.353,0.353,0.353,0.0,0.0,3.792,3.792,3.792,3.78,0.0,0.0,0.0,0.0,0.0,0.35,0.351,0.351,0.351,0.35,0.35,0.35,0.35,0.35,0.35,0.35,0.35,0.35,0.349,0.349,0.349,0.349,0.349,0.3485,0.0,0.0,0.0,0.0,0.0,0.349,0.349,0.0,0.0,0.0,0.0,0.0,0.0,0.0,0.348,0.348,0.346,0.346,0.346,0.345,0.345,0.345,0.345,0.345,0.345,0.344,0.344,0.343,0.343,0.342,0.342,0.342,0.342,0.342,0.342,0.34199999999999997,0.0,0.0,0.0,0.341,0.34,0.0,0.0,0.0,0.339,0.338,0.0,0.338,0.338,0.3375,0.337125,0.337,0.337,0.33775000000000005,0.338,0.339,0.339,0.34,0.34,0.34,0.34,0.339,0.339,0.339,0.339,0.339,0.338,0.337,0.336,0.336,0.335,0.33425000000000005,0.334,0.334,0.334,0.333,0.333,0.333,0.332,0.333,0.333,0.333,0.332,0.332,0.0,0.0,0.0,0.0,0.0,0.0,0.332,0.332,0.332,0.331,0.33,0.33,0.329,0.33,0.33,0.329,0.329,0.33,0.33,0.33,0.33,0.33,0.33,0.33,0.33,0.329,0.329,0.329,0.329,0.329,0.3285,0.328,0.3285,0.329,0.329,0.328,0.328,0.328,0.329,0.329,0.329,0.33,0.0,0.0,0.0,0.0,0.331,0.0,0.0,0.0,0.324,0.324,0.324,0.324,0.324,0.324,0.324,0.3235,0.323375,0.323,0.326,0.326,0.326,0.326,0.326,0.327,0.327,0.326,0.326,0.324,0.324,0.323,0.323,0.323,0.322,0.321,0.32125,0.321,0.321,0.321,0.321,0.321,0.321,0.321,0.321,0.0,0.0,0.0,0.0,0.321,0.321,0.321,0.321,0.321,0.321,0.32175000000000004,0.322,0.322,0.322,0.322,0.322,0.322,0.322,0.321,0.321,0.32,0.32,0.32,0.319,0.318,0.318,0.318,0.0,0.0,0.0,0.318,0.318,0.318,0.318,0.318,0.318,0.318,0.318,0.317,0.0,0.0,0.0,0.0,0.0,0.0,0.0,0.318,0.318,0.318,0.318,0.318,0.318,0.3165,0.315,0.0,0.0,0.314,0.314,0.314,0.314,0.313,0.313,0.313,0.313,0.313,0.0,0.0,0.0,0.0,0.0,0.0,0.0,0.0,0.0,0.0,0.0,0.0,0.0,0.0,0.0,0.0,0.0,0.0,0.309,0.31,0.31,0.309,0.307,0.307,0.307,0.307,0.306,0.0,0.0,0.0,0.0,0.0,0.307,0.307,0.307,0.30674999999999997,0.307,0.0,0.3065,0.307,0.0,0.0,0.0,0.0,0.0,0.0,0.305,0.305,0.305,0.305,0.0,0.0,0.0,0.305,0.305,0.305,0.305,0.305,0.305,0.305,0.304,0.304,0.304,0.0,0.0,0.0,0.0,0.0,0.3025,0.302,0.302,0.302,0.302,0.302,0.302,0.0,0.3015,0.3,0.3,0.0,0.0,0.0,0.0,0.0,0.0,0.0,0.0,0.0,0.0,0.0,0.0,0.0,0.0,0.0,0.0,0.0,0.0,0.297,0.297,0.0,0.297,0.2965,0.297,0.297,0.297,0.297,0.297,0.29724999999999996,0.297,0.297,0.0,0.0,0.297,0.297,0.0,0.0,0.0,0.0,0.0,0.0,0.0,0.0,0.0,0.0,0.0,0.0,0.0,0.0,0.0,0.0,0.0,0.0,0.0,0.0,0.0,0.0,0.0,0.0,0.0,0.0,0.294,0.294,0.293,0.292,0.292,0.0,0.0,0.0,0.0,0.0,0.0,0.0,0.0,0.0,0.0,0.0,0.0,0.0,0.0,0.293,0.293,0.0,0.0,0.293,0.293,0.292,0.292,0.292,0.292,0.0,0.0,0.0,0.0,0.0,0.0,0.0,0.0,0.0,0.0,0.0,0.0,0.0,0.0,0.0,0.0,0.0,0.0,0.0,0.0,0.0,0.0,0.0,0.0,0.0,0.0,0.0,0.0,0.0,0.0,0.0,0.0,0.0,0.0,0.0,0.0,0.0,0.0,0.0,0.0,0.0,0.0,0.0,0.0,0.0,0.0,0.0,0.0,0.0,0.0,0.0,0.0,0.0,0.0,0.0,0.0,0.0,0.0,0.0,0.0,0.0,0.0,0.0,0.0,0.0,0.0,0.0,0.0,0.0,0.0,0.0,0.0,0.0,0.0,0.0,0.0,0.0,0.0,0.0,0.0,0.0,0.0,0.0,0.0,0.0,0.0,0.0,0.0,0.0,0.0,0.0,0.0,0.0,0.0,0.0,0.0,0.0,0.0,0.0,0.0,0.0
0.352,0.352,0.352,0.352,0.352,0.352,2.091,2.9475,3.804,3.804,3.804,3.792,3.792,3.78,3.792,0.0,0.0,0.349,0.348,0.349,0.348,0.348,0.0,0.0,0.348,0.348,0.348,0.348,0.348,0.348,0.347,0.347,0.346,0.345,0.345,0.345,0.345,0.0,0.0,0.0,0.0,0.0,0.347,0.0,0.0,0.0,0.0,0.0,0.0,0.0,0.0,0.0,0.345,0.345,0.345,0.345,0.345,0.344,0.344,0.343,0.343,0.342,0.342,0.342,0.342,0.342,0.341,0.341,0.341,0.341,0.341,0.34,0.34,0.0,0.0,0.0,0.337,0.3365,0.336,0.0,0.0,0.0,0.335,0.335,0.335,0.335,0.335,0.335,0.335,0.33575000000000005,0.336,0.336,0.337,0.338,0.339,0.339,0.0,0.0,0.337,0.338,0.3375,0.337,0.336,0.336,0.335,0.335,0.334,0.332,0.332,0.332,0.332,0.332,0.332,0.331,0.331,0.33,0.331,0.33,0.331,0.331,0.331,0.0,0.0,0.0,0.0,0.0,0.0,0.3305,0.33,0.33,0.33,0.329,0.329,0.329,0.329,0.329,0.329,0.329,0.329,0.329,0.329,0.329,0.329,0.329,0.329,0.329,0.329,0.329,0.329,0.328,0.0,0.0,0.0,0.0,0.0,0.327,0.326,0.326,0.327,0.327,0.32725000000000004,0.328,0.0,0.0,0.0,0.0,0.327,0.3255,0.324,0.322,0.322,0.322,0.322,0.322,0.322,0.322,0.322,0.322,0.321,0.321,0.321,0.322,0.0,0.0,0.0,0.0,0.0,0.323,0.3235,0.324,0.323,0.323,0.32175,0.321,0.321,0.32,0.32,0.32,0.32,0.32,0.0,0.0,0.3195,0.32,0.319,0.0,0.0,0.0,0.0,0.0,0.0,0.32,0.32,0.321,0.321,0.321,0.321,0.321,0.321,0.3215,0.322,0.322,0.322,0.321,0.321,0.321,0.32,0.32,0.319,0.318,0.317,0.316,0.3165,0.0,0.0,0.0,0.316,0.317,0.0,0.0,0.317,0.3165,0.316375,0.316,0.316,0.0,0.0,0.0,0.0,0.0,0.0,0.0,0.3135,0.313875,0.316,0.317,0.317,0.0,0.31375,0.313,0.0,0.0,0.312,0.313,0.312,0.312,0.312,0.312,0.312,0.312,0.311,0.312,0.0,0.0,0.0,0.0,0.0,0.0,0.0,0.0,0.0,0.0,0.0,0.0,0.0,0.0,0.0,0.0,0.0,0.0,0.0,0.0,0.0,0.0,0.3055,0.305,0.305,0.305,0.0,0.0,0.0,0.0,0.0,0.305,0.0,0.0,0.306,0.305,0.305,0.305,0.306,0.0,0.0,0.0,0.0,0.304,0.304,0.304,0.304,0.304,0.304,0.0,0.0,0.303,0.303,0.304,0.304,0.0,0.0,0.0,0.0,0.303,0.303,0.302,0.0,0.0,0.0,0.0,0.0,0.3,0.3,0.3,0.3,0.3,0.3,0.3,0.3,0.3,0.299,0.299,0.0,0.0,0.0,0.0,0.0,0.0,0.0,0.0,0.0,0.0,0.0,0.0,0.0,0.0,0.0,0.0,0.0,0.295,0.295,0.295,0.2955,0.296,0.295,0.295,0.0,0.296,0.297,0.297,0.297,0.0,0.0,0.0,0.0,0.0,0.0,0.0,0.0,0.0,0.0,0.0,0.0,0.0,0.0,0.0,0.0,0.0,0.0,0.0,0.0,0.0,0.0,0.0,0.0,0.0,0.0,0.0,0.0,0.0,0.0,0.0,0.0,0.0,0.0,0.0,0.0,0.0,0.0,0.0,0.0,0.0,0.0,0.0,0.0,0.0,0.0,0.0,0.0,0.0,0.0,0.0,0.0,0.0,0.0,0.0,0.0,0.0,0.0,0.0,0.0,0.0,0.0,0.0,0.0,0.0,0.0,0.0,0.0,0.0,0.0,0.0,0.0,0.0,0.0,0.0,0.0,0.0,0.0,0.0,0.0,0.0,0.0,0.0,0.0,0.0,0.0,0.0,0.0,0.0,0.0,0.0,0.0,0.0,0.0,0.0,0.0,0.0,0.0,0.0,0.0,0.0,0.0,0.0,0.0,0.0,0.0,0.0,0.0,0.0,0.0,0.0,0.0,0.0,0.0,0.0,0.0,0.0,0.0,0.0,0.0,0.0,0.0,0.0,0.0,0.0,0.0,0.0,0.0,0.0,0.0,0.0,0.0,0.0,0.0,0.0,0.0,0.0,0.0,0.0,0.0,0.0,0.0,0.0,0.0,0.0,0.0,0.0,0.0,0.0,0.0,0.0,0.0,0.0,0.0,0.0,0.0,0.0,0.0,0.0,0.0,0.0,0.0
0.0,0.352,0.352,0.352,2.097,3.842,3.829,3.817,3.804,3.804,3.804,3.798,3.792,3.7859999999999996,3.792,2.07,0.348,0.348,0.348,0.348,0.348,0.348,0.0,0.0,0.348,0.347,0.347,0.346,0.345,0.345,0.344,0.344,0.344,0.343,0.343,0.342,0.0,0.0,0.0,0.0,0.0,0.0,0.0,0.0,0.0,0.0,0.0,0.0,0.0,0.0,0.0,0.0,0.0,0.0,0.344,0.344,0.343,0.342,0.342,0.342,0.341,0.341,0.341,0.34,0.34,0.339,0.339,0.339,0.339,0.338,0.338,0.338,0.338,0.338,0.0,0.0,0.334,0.33387500000000003,0.333,0.333,0.332,0.0,0.0,0.0,0.333,0.333,0.333,0.333,0.334,0.335,0.335,0.335,0.335,0.335,0.335,0.335,0.0,0.0,0.335,0.0,0.33475,0.334,0.0,0.0,0.3335,0.332,0.332,0.331,0.331,0.33,0.33,0.33,0.33,0.33,0.329,0.329,0.329,0.329,0.329,0.329,0.329,0.329,0.329,0.0,0.0,0.0,0.0,0.329,0.329,0.329,0.328,0.328,0.32725,0.327,0.327,0.326,0.326,0.326,0.326,0.326,0.326,0.327,0.327,0.327,0.327,0.328,0.328,0.327,0.327,0.0,0.0,0.0,0.0,0.0,0.0,0.324,0.324,0.324,0.324,0.324,0.325,0.0,0.0,0.0,0.0,0.0,0.0,0.0,0.0,0.321,0.321,0.321,0.321,0.321,0.321,0.32,0.32,0.32,0.32,0.32,0.32,0.321,0.0,0.0,0.0,0.0,0.0,0.321,0.321,0.321,0.321,0.32,0.32,0.32,0.32,0.319,0.318,0.318,0.318,0.0,0.0,0.0,0.318,0.318,0.317,0.0,0.0,0.0,0.0,0.0,0.0,0.0,0.319,0.319,0.0,0.0,0.0,0.321,0.321,0.321,0.321,0.321,0.321,0.321,0.0,0.0,0.32,0.319,0.31775,0.317,0.316,0.315,0.315,0.315,0.315,0.315,0.31475,0.315,0.0,0.0,0.315,0.315,0.315,0.314,0.314,0.0,0.0,0.0,0.0,0.0,0.311,0.31,0.309,0.308,0.308,0.308,0.312,0.3115,0.311,0.31,0.3105,0.311,0.312,0.312,0.31,0.31,0.3105,0.311,0.311,0.31,0.31,0.0,0.0,0.0,0.0,0.0,0.0,0.0,0.0,0.0,0.0,0.0,0.0,0.306,0.306,0.307,0.0,0.0,0.306,0.0,0.0,0.0,0.0,0.0,0.304,0.304,0.304,0.304,0.304,0.304,0.304,0.3035,0.303,0.0,0.0,0.0,0.304,0.304,0.304,0.304,0.304,0.303,0.303,0.303,0.303,0.303,0.303,0.303,0.303,0.303,0.303,0.0,0.0,0.302,0.302,0.302,0.0,0.0,0.0,0.0,0.0,0.301,0.3,0.2995,0.0,0.0,0.0,0.0,0.298,0.299,0.299,0.299,0.0,0.2985,0.298,0.298,0.299,0.299,0.0,0.0,0.294,0.0,0.0,0.0,0.0,0.0,0.0,0.0,0.0,0.0,0.0,0.0,0.0,0.0,0.0,0.0,0.0,0.294,0.294,0.294,0.295,0.295,0.295,0.2945,0.29474999999999996,0.295,0.2955,0.296,0.296,0.0,0.0,0.0,0.0,0.0,0.0,0.0,0.0,0.0,0.0,0.0,0.0,0.0,0.0,0.0,0.0,0.0,0.0,0.0,0.0,0.0,0.0,0.0,0.0,0.0,0.0,0.0,0.0,0.0,0.0,0.0,0.0,0.0,0.0,0.0,0.0,0.0,0.0,0.0,0.0,0.0,0.0,0.0,0.0,0.0,0.0,0.0,0.0,0.0,0.0,0.0,0.0,0.0,0.0,0.0,0.0,0.0,0.0,0.0,0.0,0.0,0.0,0.0,0.0,0.0,0.0,0.0,0.0,0.0,0.0,0.0,0.0,0.0,0.0,0.0,0.0,0.0,0.0,0.0,0.0,0.0,0.0,0.0,0.0,0.0,0.0,0.0,0.0,0.0,0.0,0.0,0.0,0.0,0.0,0.0,0.0,0.0,0.0,0.0,0.0,0.0,0.0,0.0,0.0,0.0,0.0,0.0,0.0,0.0,0.0,0.0,0.0,0.0,0.0,0.0,0.0,0.0,0.0,0.0,0.0,0.0,0.0,0.0,0.0,0.0,0.0,0.0,0.0,0.0,0.0,0.0,0.0,0.0,0.0,0.0,0.0,0.0,0.0,0.0,0.0,0.0,0.0,0.0,0.0,0.0,0.0,0.0,0.0,0.0,0.0,0.0,0.0,0.0,0.0,0.0,0.0,0.0,0.0,0.0,0.0,0.0,0.0
