3.661,3.661,3.661,3.672,3.661,3.661,3.661,3.661,3.672,3.661,3.661,3.661,3.661,3.672,3.696,3.696,3.707,3.707,3.731,3.731,3.731,3.743,3.743,3.755,3.755,3.78,3.792,3.804,3.817,3.842,3.855,3.868,3.88,3.906,3.92,3.92,3.946,3.946,3.946,3.946,3.973,3.946,3.946,3.933,3.933,3.92,3.92,3.893,3.893,3.88,3.868,3.868,3.868,3.855,3.855,3.855,3.855,3.855,3.855,3.855,3.868,3.868,3.88,3.88,3.88,3.893,3.893,3.906,3.92,3.933,3.946,3.9628750000000004,3.973,3.987,4.014,4.028,4.042,4.056,4.07,4.085,4.085,4.114,4.114,4.114,4.114,4.114,4.114,4.114,4.114,4.114,4.128,4.158,4.158,4.173,4.173,4.188,4.203,4.203,4.218,4.218,4.218,4.218,4.218,4.218,4.218,4.218,4.218,4.218,4.218,4.233,4.233,4.233,4.233,4.233,4.218,4.218,4.218,4.218,4.218,4.218,4.218,4.218,4.218,4.218,4.218,4.218,4.218,4.218,4.233,4.233,4.249,4.249,4.249,4.249,4.249,4.249,4.249,4.249,4.249,4.249,4.249,4.264,4.264,4.264,4.264,4.264,4.264,4.28,4.28,4.28,4.28,4.28,4.28,4.28,4.28,4.28,4.28,4.28,4.296,4.296,4.296,4.312,4.312,4.312,4.312,4.312,4.328,4.312,4.328,4.328,4.328,4.328,4.328,4.328,4.328,4.328,4.328,4.328,4.328,4.328,4.328,4.328,4.328,4.344,4.344,4.344,4.344,4.344,4.344,4.344,4.344,4.344,4.328,4.328,4.328,4.328,4.328,4.328,4.328,4.328,4.328,4.328,4.328,4.328,4.328,4.328,4.328,4.328,4.328,4.344,4.344,4.344,4.36,4.376,4.393,4.41,4.426,4.46,4.46,4.477,4.512,4.53,4.512,4.512,4.477,4.46,4.426,4.41,4.393,4.376,4.376,4.376,4.376,4.376,4.393,4.393,4.41,4.41,4.426,4.426,4.426,4.426,4.41,4.41,4.393,4.36,4.344,4.328,4.312,4.296,4.28,4.264,4.264,4.249,4.249,4.249,4.264,4.264,4.28,4.296,4.312,4.328,4.36,4.41,4.46,4.512,4.565,4.583,4.601,4.638,4.638,4.638,4.638,4.638,4.601,4.583,4.583,4.565,4.53,4.53,4.53,4.565,4.565,4.583,4.601,4.601,4.629,4.657,4.68025,4.694,4.694,4.732,4.732,4.752,4.752,4.752,4.752,4.752,4.752,4.752,4.752,4.752,4.752,4.771,4.752,4.752,4.752,4.732,4.732,4.732,4.732,4.713,4.713,4.713,4.713,4.694,4.694,4.694,4.694,4.694,4.694,4.713,4.713,4.713,4.713,4.713,4.694,4.694,4.694,4.694,4.694,4.694,4.694,4.713,4.732,4.752,4.752,4.771,4.771,4.771,4.791,4.791,4.791,4.791,4.791,4.771,4.771,4.752,4.752,4.732,4.713,4.713,4.694,4.694,4.694,4.713,4.713,4.713,4.713,4.732,4.732,4.732,4.732,4.732,4.732,4.752,4.752,4.771,4.771,4.771,4.771,4.791,4.791,4.791,4.791,4.81,4.791,4.791,4.791,4.791,4.791,4.791,4.791,4.771,4.771,4.771,4.771,4.771,4.771,4.752,4.752,4.752,4.752,4.752,4.752,4.752,4.752,4.752,4.732,4.732,4.732,4.732,4.713,4.713,4.732,4.732,4.732,4.732,4.732,4.732,4.732,4.732,4.752,4.752,4.752,4.752,4.752,4.732,4.732,4.732,4.732,4.732,4.732,4.732,4.752,4.732,4.732,4.732,4.732,4.713,4.713,4.713,4.713,4.713,4.694,4.694,4.694,4.694,4.657,4.657,4.657,4.657,4.657,4.657,4.657,4.657,4.638,4.601,4.601,4.583,4.583,4.53,4.512,4.512,4.477,4.477,4.46,4.426,4.41,4.41,4.393,4.393,4.376,4.376,4.36,4.328,4.264,3.854,3.444,3.261,3.243,3.243,3.225,3.216,3.216,3.216,3.216,3.216,3.216,3.216,3.225,3.234,3.243,3.261,3.27,3.298,0.0,0.0,0.0,0.0,0.0,0.0,3.2115,3.189,3.189,3.181,3.172,3.163,3.155,3.155,3.146,3.129,3.121,3.104,3.096,3.08,3.072,3.055,3.055,3.055,3.072,3.072,3.072,3.08,3.08,3.08,3.08,3.096,3.104,3.113,3.138,3.163,3.189,3.234,3.336,3.37375,3.424,3.485,3.6064999999999996,3.707,3.804,3.855,3.906,3.973,4.007750000000001,4.056,4.07,4.085,4.128,4.128,4.173,4.188
3.707,3.696,3.672,3.696,3.672,3.672,3.672,3.672,3.672,3.661,3.661,3.661,3.672,3.672,3.672,3.696,3.696,3.707,3.731,3.731,3.731,3.743,3.755,3.755,3.755,3.78,3.804,3.804,3.829,3.842,3.855,3.868,3.88,3.906,3.92,3.933,3.946,3.946,3.946,3.946,3.946,3.933,3.933,3.933,3.92,3.906,3.906,3.893,3.88,3.88,3.868,3.868,3.855,3.855,3.855,3.855,3.855,3.855,3.868,3.868,3.868,3.88,3.88,3.893,3.893,3.906,3.906,3.92,3.92,3.933,3.946,3.973,3.987,4.000500000000001,4.014,4.028,4.042,4.056,4.085,4.085,4.114,4.114,4.128,4.158,4.158,4.158,4.128,4.128,4.158,4.158,4.158,4.173,4.188,4.188,4.203,4.218,4.218,4.218,4.233,4.233,4.233,4.233,4.233,4.233,4.233,4.233,4.233,4.233,4.233,4.233,4.233,4.233,4.233,4.249,4.249,4.249,4.249,4.249,4.249,4.249,4.249,4.249,4.249,4.249,4.249,4.249,4.249,4.249,4.249,4.249,4.249,4.249,4.249,4.249,4.249,4.249,4.249,4.249,4.249,4.264,4.264,4.264,4.264,4.264,4.264,4.264,4.28,4.28,4.28,4.28,4.28,4.28,4.28,4.28,4.296,4.296,4.296,4.296,4.312,4.312,4.312,4.312,4.312,4.328,4.328,4.328,4.328,4.328,4.328,4.328,4.328,4.328,4.328,4.328,4.328,4.328,4.328,4.328,4.328,4.328,4.344,4.344,4.344,4.344,4.36,4.36,4.36,4.376,4.376,4.36,4.36,4.36,4.344,4.344,4.328,4.328,4.328,4.328,4.328,4.328,4.328,4.328,4.328,4.328,4.328,4.328,4.328,4.344,4.344,4.36,4.36,4.36,4.376,4.393,4.41,4.426,4.46,4.46,4.477,4.512,4.53,4.53,4.53,4.512,4.477,4.477,4.46,4.426,4.41,4.393,4.376,4.376,4.376,4.393,4.393,4.41,4.426,4.46,4.477,4.477,4.477,4.477,4.46,4.46,4.426,4.41,4.376,4.36,4.328,4.312,4.312,4.28,4.264,4.264,4.264,4.264,4.264,4.264,4.28,4.312,4.328,4.36,4.41,4.46,4.53,4.565,4.601,4.657,4.694,4.694,4.694,4.694,4.657,4.657,4.638,4.601,4.583,4.565,4.565,4.565,4.565,4.565,4.583,4.601,4.6195,4.638,4.657,4.657,4.713,4.732,4.752,4.752,4.771,4.771,4.791,4.791,4.771,4.771,4.771,4.771,4.771,4.771,4.791,4.791,4.791,4.771,4.771,4.771,4.752,4.752,4.752,4.752,4.752,4.732,4.732,4.732,4.732,4.732,4.752,4.732,4.732,4.752,4.752,4.752,4.752,4.752,4.752,4.752,4.732,4.732,4.732,4.732,4.752,4.752,4.771,4.791,4.791,4.81,4.81,4.81,4.81,4.81,4.81,4.81,4.791,4.791,4.771,4.771,4.752,4.752,4.732,4.732,4.713,4.713,4.713,4.713,4.713,4.732,4.732,4.732,4.732,4.752,4.752,4.752,4.752,4.752,4.752,4.752,4.771,4.771,4.771,4.791,4.791,4.791,4.81,4.791,4.791,4.791,4.791,4.791,4.791,4.791,4.791,4.791,4.791,4.791,4.791,4.791,4.791,4.791,4.791,4.771,4.771,4.771,4.771,4.771,4.771,4.771,4.771,4.771,4.771,4.752,4.752,4.752,4.752,4.752,4.752,4.752,4.752,4.752,4.752,4.752,4.752,4.752,4.752,4.752,4.752,4.732,4.732,4.732,4.732,4.732,4.732,4.732,4.732,4.732,4.732,4.732,4.732,4.732,4.713,4.694,4.694,4.694,4.694,4.694,4.694,4.657,4.657,4.657,4.657,4.657,4.657,4.638,4.638,4.638,4.601,4.601,4.601,4.583,4.583,4.565,4.53,4.512,4.477,4.477,4.46,4.426,4.41,4.41,4.393,4.376,4.36,4.36,4.36,4.344,4.28,4.006,0.0,0.0,0.0,0.0,3.234,3.225,3.225,3.216,3.216,3.216,3.216,3.225,3.225,3.234,3.261,3.288,3.317,3.326,0.0,0.0,0.0,0.0,0.0,0.0,3.225,3.198,3.189,3.181,3.172,3.163,3.163,3.155,3.146,3.138,3.129,3.113,3.104,3.104,3.096,3.08,3.08,3.08,3.096,3.096,3.096,3.096,3.096,3.104,3.104,3.113,3.138,3.155,3.181,3.225,3.317,3.35475,3.414,3.465,3.5835,3.666375,3.78,3.829,3.88,3.933,4.014,4.02825,4.056,4.085,4.114,4.114,4.158,4.158,4.188,4.203
3.743,3.707,3.696,3.696,3.696,3.672,3.696,3.672,3.672,3.672,3.661,3.661,3.661,3.672,3.672,3.696,3.696,3.707,3.707,3.731,3.731,3.743,3.743,3.755,3.755,3.78,3.792,3.804,3.829,3.842,3.868,3.868,3.88,3.906,3.92,3.92,3.933,3.933,3.933,3.933,3.933,3.92,3.92,3.906,3.906,3.893,3.88,3.88,3.868,3.868,3.868,3.855,3.855,3.855,3.855,3.855,3.855,3.868,3.868,3.868,3.868,3.88,3.893,3.893,3.906,3.92,3.92,3.933,3.933,3.946,3.946,3.973,3.987,4.003875000000001,4.014,4.028,4.0489999999999995,4.07,4.085,4.114,4.128,4.128,4.158,4.158,4.173,4.173,4.173,4.173,4.173,4.173,4.188,4.203,4.203,4.203,4.218,4.233,4.233,4.249,4.249,4.249,4.249,4.249,4.249,4.249,4.249,4.249,4.249,4.249,4.249,4.249,4.249,4.249,4.249,4.249,4.249,4.249,4.249,4.249,4.249,4.249,4.249,4.249,4.249,4.249,4.249,4.249,4.249,4.249,4.264,4.264,4.264,4.264,4.249,4.249,4.264,4.264,4.264,4.264,4.264,4.264,4.264,4.264,4.264,4.264,4.264,4.28,4.28,4.28,4.28,4.28,4.28,4.296,4.296,4.296,4.296,4.312,4.312,4.312,4.312,4.312,4.328,4.328,4.328,4.328,4.328,4.328,4.328,4.328,4.328,4.344,4.328,4.328,4.328,4.328,4.328,4.328,4.328,4.328,4.328,4.344,4.344,4.36,4.36,4.376,4.376,4.393,4.393,4.393,4.393,4.393,4.393,4.393,4.376,4.376,4.36,4.344,4.344,4.344,4.344,4.344,4.328,4.344,4.344,4.344,4.344,4.344,4.344,4.36,4.376,4.376,4.376,4.393,4.393,4.41,4.426,4.46,4.46,4.477,4.512,4.53,4.53,4.565,4.53,4.53,4.512,4.477,4.477,4.426,4.426,4.393,4.393,4.393,4.393,4.41,4.41,4.426,4.46,4.477,4.512,4.512,4.53,4.53,4.512,4.512,4.477,4.46,4.426,4.393,4.376,4.344,4.328,4.312,4.296,4.28,4.28,4.28,4.28,4.28,4.312,4.328,4.36,4.41,4.477,4.53,4.601,4.638,4.694,4.713,4.732,4.732,4.732,4.713,4.713,4.694,4.657,4.638,4.601,4.583,4.565,4.565,4.565,4.583,4.583,4.601,4.638,4.657,4.694,4.713,4.752,4.771,4.771,4.791,4.81,4.81,4.81,4.81,4.81,4.81,4.791,4.791,4.81,4.81,4.81,4.81,4.81,4.791,4.791,4.791,4.771,4.771,4.791,4.791,4.791,4.791,4.791,4.791,4.791,4.791,4.791,4.791,4.791,4.791,4.791,4.791,4.791,4.791,4.791,4.791,4.791,4.791,4.791,4.791,4.791,4.791,4.81,4.81,4.81,4.81,4.81,4.81,4.81,4.81,4.81,4.81,4.81,4.81,4.791,4.771,4.771,4.771,4.752,4.752,4.752,4.732,4.732,4.732,4.732,4.752,4.752,4.752,4.752,4.752,4.752,4.752,4.752,4.752,4.771,4.771,4.771,4.791,4.791,4.791,4.81,4.81,4.81,4.81,4.81,4.81,4.81,4.81,4.81,4.81,4.81,4.81,4.81,4.81,4.81,4.81,4.81,4.81,4.81,4.81,4.81,4.81,4.81,4.81,4.81,4.81,4.81,4.81,4.81,4.81,4.81,4.81,4.791,4.791,4.791,4.791,4.771,4.771,4.771,4.771,4.771,4.771,4.752,4.752,4.752,4.752,4.752,4.752,4.752,4.732,4.752,4.732,4.732,4.732,4.732,4.732,4.713,4.713,4.713,4.713,4.694,4.694,4.657,4.657,4.657,4.657,4.657,4.657,4.657,4.657,4.638,4.657,4.657,4.638,4.638,4.638,4.601,4.583,4.583,4.565,4.565,4.53,4.512,4.477,4.46,4.426,4.41,4.393,4.393,4.376,4.36,4.36,4.344,4.328,4.264,4.158,0.0,0.0,0.0,0.0,0.0,0.0,0.0,3.234,0.0,0.0,0.0,0.0,0.0,0.0,0.0,0.0,0.0,3.355,0.0,0.0,0.0,0.0,0.0,3.261,3.234,3.198,3.189,3.189,3.181,3.172,3.163,3.155,3.146,3.146,3.138,3.129,3.121,3.113,3.104,3.104,3.104,3.104,3.104,3.104,3.113,3.113,3.113,3.113,3.129,3.146,3.163,3.189,3.261,3.321,3.384,3.454,0.0,3.6345,3.743,3.817,3.868,3.92,3.987,4.014,4.04575,4.07,4.085,4.114,4.128,4.128,4.158,4.173,4.188,4.203
3.767,3.743,3.731,3.731,3.707,3.707,3.696,3.696,3.672,3.672,3.672,3.672,3.672,3.672,3.672,3.696,3.696,3.696,3.707,3.731,3.731,3.743,3.755,3.755,3.767,3.78,3.804,3.817,3.829,3.855,3.855,3.868,3.88,3.893,3.906,3.92,3.92,3.92,3.92,3.92,3.906,3.906,3.893,3.893,3.893,3.88,3.88,3.868,3.868,3.868,3.855,3.855,3.855,3.855,3.855,3.855,3.855,3.855,3.868,3.868,3.88,3.893,3.906,3.92,3.92,3.933,3.933,3.946,3.946,3.946,3.973,3.973,3.987,4.014,4.028,4.028,4.056,4.085,4.085,4.128,4.158,4.158,4.173,4.173,4.188,4.188,4.188,4.188,4.188,4.203,4.203,4.218,4.218,4.233,4.233,4.249,4.249,4.249,4.249,4.249,4.249,4.249,4.249,4.249,4.249,4.249,4.249,4.249,4.249,4.249,4.264,4.264,4.264,4.264,4.264,4.264,4.264,4.264,4.264,4.264,4.264,4.264,4.264,4.264,4.264,4.264,4.264,4.264,4.264,4.264,4.264,4.264,4.264,4.264,4.264,4.264,4.264,4.264,4.264,4.264,4.264,4.264,4.28,4.28,4.28,4.28,4.28,4.28,4.296,4.296,4.296,4.296,4.312,4.312,4.312,4.312,4.312,4.328,4.328,4.328,4.328,4.328,4.344,4.344,4.344,4.344,4.344,4.344,4.344,4.344,4.344,4.344,4.344,4.328,4.328,4.328,4.328,4.344,4.344,4.344,4.36,4.36,4.376,4.393,4.393,4.41,4.41,4.41,4.426,4.426,4.426,4.426,4.41,4.393,4.376,4.376,4.376,4.376,4.36,4.36,4.36,4.36,4.36,4.36,4.36,4.36,4.36,4.376,4.393,4.393,4.393,4.41,4.41,4.426,4.46,4.477,4.477,4.512,4.512,4.53,4.53,4.565,4.565,4.53,4.512,4.477,4.477,4.46,4.426,4.41,4.393,4.393,4.393,4.41,4.41,4.426,4.46,4.512,4.512,4.53,4.565,4.565,4.565,4.53,4.53,4.512,4.477,4.46,4.41,4.393,4.36,4.328,4.328,4.312,4.296,4.312,4.312,4.312,4.328,4.376,4.426,4.477,4.565,4.638,4.657,4.713,4.732,4.752,4.771,4.771,4.752,4.752,4.732,4.713,4.694,4.638,4.638,4.601,4.583,4.583,4.583,4.583,4.583,4.601,4.638,4.657,4.713,4.732,4.752,4.791,4.81,4.81,4.81,4.83,4.83,4.81,4.81,4.81,4.81,4.81,4.81,4.81,4.81,4.81,4.81,4.81,4.81,4.81,4.81,4.81,4.81,4.81,4.81,4.81,4.81,4.81,4.81,4.81,4.81,4.81,4.81,4.81,4.81,4.81,4.81,4.81,4.81,4.81,4.81,4.81,4.81,4.81,4.81,4.81,4.81,4.83,4.83,4.83,4.83,4.83,4.83,4.81,4.81,4.81,4.81,4.81,4.81,4.791,4.791,4.791,4.771,4.771,4.771,4.771,4.752,4.752,4.752,4.752,4.771,4.771,4.771,4.771,4.771,4.771,4.771,4.771,4.771,4.791,4.791,4.791,4.791,4.81,4.81,4.81,4.81,4.81,4.81,4.81,4.81,4.81,4.81,4.81,4.81,4.81,4.81,4.81,4.81,4.81,4.81,4.81,4.83,4.83,4.83,4.83,4.83,4.83,4.83,4.83,4.83,4.83,4.83,4.83,4.81,4.81,4.81,4.81,4.81,4.81,4.81,4.791,4.791,4.791,4.791,4.791,4.771,4.771,4.771,4.771,4.752,4.752,4.752,4.752,4.732,4.732,4.732,4.732,4.732,4.732,4.732,4.713,4.713,4.713,4.694,4.694,4.694,4.657,4.657,4.657,4.657,4.657,4.657,4.657,4.657,4.657,4.657,4.638,4.638,4.638,4.601,4.601,4.601,4.583,4.583,4.565,4.53,4.512,4.477,4.46,4.426,4.393,4.393,4.376,4.376,4.36,4.328,4.296,4.249,0.0,0.0,0.0,0.0,0.0,0.0,0.0,0.0,0.0,0.0,0.0,0.0,0.0,0.0,0.0,0.0,0.0,0.0,3.384,0.0,0.0,0.0,3.317,3.298,3.27,3.243,3.198,3.189,3.181,3.181,3.172,3.163,3.155,3.155,3.146,3.146,3.138,3.129,3.129,3.121,3.121,3.113,3.121,3.121,3.121,3.121,3.121,3.121,3.138,3.155,3.181,3.216,3.298,3.356,3.414,3.485,0.0,0.0,3.804,3.842,3.893,3.973,3.99775,4.028,4.07,4.085,4.114,4.114,4.128,4.158,4.158,4.158,4.173,4.188,4.203
3.804,3.78,3.767,3.755,3.743,3.731,3.707,3.707,3.696,3.696,3.672,3.672,3.696,3.696,3.696,3.696,3.696,3.696,3.707,3.731,3.731,3.743,3.755,3.767,3.767,3.792,3.804,3.817,3.829,3.855,3.855,3.868,3.88,3.893,3.906,3.906,3.906,3.906,3.906,3.893,3.893,3.88,3.88,3.868,3.868,3.868,3.868,3.868,3.868,3.868,3.855,3.855,3.855,3.855,3.855,3.855,3.855,3.855,3.868,3.868,3.893,3.906,3.92,3.933,3.946,3.946,3.973,3.987,3.987,3.987,4.014,4.028,4.028,4.028,4.056,4.07,4.085,4.114,4.114,4.158,4.173,4.173,4.188,4.188,4.203,4.203,4.203,4.218,4.218,4.218,4.218,4.233,4.233,4.249,4.249,4.249,4.249,4.249,4.264,4.264,4.264,4.264,4.264,4.264,4.264,4.264,4.264,4.264,4.264,4.264,4.264,4.264,4.264,4.264,4.264,4.28,4.28,4.28,4.28,4.28,4.28,4.28,4.28,4.28,4.28,4.264,4.264,4.264,4.264,4.264,4.264,4.264,4.264,4.264,4.264,4.264,4.264,4.264,4.264,4.28,4.28,4.28,4.28,4.28,4.28,4.28,4.296,4.296,4.296,4.296,4.312,4.312,4.312,4.312,4.328,4.328,4.328,4.328,4.328,4.344,4.344,4.344,4.344,4.344,4.36,4.36,4.36,4.36,4.36,4.344,4.344,4.344,4.344,4.328,4.328,4.328,4.344,4.344,4.344,4.344,4.36,4.376,4.376,4.41,4.41,4.426,4.426,4.46,4.46,4.46,4.46,4.46,4.46,4.426,4.426,4.41,4.41,4.41,4.393,4.393,4.393,4.393,4.393,4.393,4.393,4.376,4.393,4.393,4.41,4.426,4.426,4.426,4.426,4.46,4.477,4.477,4.512,4.512,4.53,4.53,4.565,4.565,4.565,4.53,4.53,4.512,4.477,4.46,4.426,4.41,4.41,4.393,4.41,4.41,4.426,4.426,4.46,4.512,4.53,4.565,4.583,4.583,4.583,4.583,4.583,4.565,4.53,4.512,4.477,4.46,4.41,4.41,4.376,4.344,4.344,4.344,4.36,4.376,4.41,4.46,4.53,4.583,4.657,4.713,4.732,4.752,4.771,4.791,4.791,4.791,4.771,4.752,4.732,4.713,4.694,4.657,4.638,4.601,4.583,4.583,4.583,4.583,4.583,4.601,4.638,4.657,4.713,4.752,4.771,4.81,4.81,4.83,4.83,4.83,4.83,4.83,4.83,4.83,4.83,4.83,4.83,4.83,4.81,4.81,4.81,4.81,4.81,4.81,4.81,4.81,4.83,4.83,4.83,4.83,4.83,4.83,4.83,4.83,4.83,4.83,4.83,4.83,4.851,4.851,4.83,4.83,4.83,4.83,4.83,4.83,4.83,4.83,4.83,4.83,4.83,4.83,4.83,4.83,4.83,4.83,4.83,4.83,4.83,4.81,4.81,4.81,4.81,4.81,4.81,4.81,4.791,4.791,4.791,4.791,4.791,4.771,4.771,4.791,4.771,4.771,4.771,4.771,4.771,4.771,4.771,4.771,4.771,4.791,4.791,4.81,4.81,4.81,4.81,4.81,4.81,4.81,4.81,4.81,4.81,4.83,4.83,4.83,4.83,4.83,4.83,4.83,4.83,4.83,4.83,4.851,4.851,4.851,4.851,4.851,4.851,4.851,4.851,4.851,4.851,4.851,4.851,4.851,4.83,4.83,4.83,4.83,4.83,4.83,4.81,4.81,4.81,4.81,4.81,4.81,4.791,4.791,4.791,4.771,4.771,4.771,4.771,4.771,4.752,4.752,4.752,4.752,4.752,4.752,4.732,4.732,4.713,4.713,4.713,4.694,4.694,4.694,4.657,4.657,4.657,4.657,4.657,4.657,4.657,4.657,4.657,4.638,4.638,4.638,4.638,4.638,4.638,4.601,4.583,4.583,4.565,4.53,4.477,4.46,4.426,4.41,4.393,4.376,4.376,4.36,4.328,4.28,4.203,0.0,0.0,0.0,0.0,0.0,0.0,0.0,0.0,0.0,0.0,0.0,0.0,0.0,0.0,0.0,0.0,0.0,0.0,3.394,3.384,3.36,3.336,3.317,3.298,3.27,3.243,3.198,3.189,3.189,3.181,3.172,3.163,3.163,3.155,3.155,3.146,3.146,3.138,3.138,3.129,3.129,3.129,3.129,3.129,3.129,3.129,3.129,3.146,3.155,3.181,3.243,3.355,0.0,0.0,0.0,3.651,3.7465,3.842,3.88,3.933,3.9775,4.014,4.07,4.114,4.128,4.128,4.158,4.158,4.158,4.173,4.173,4.173,4.173,4.188,4.203
3.868,3.855,3.817,3.804,3.792,3.755,3.743,3.743,3.731,3.707,3.696,3.696,3.696,3.696,3.696,3.696,3.696,3.696,3.696,3.731,3.731,3.743,3.755,3.767,3.78,3.804,3.804,3.817,3.829,3.842,3.855,3.868,3.868,3.88,3.893,3.893,3.906,3.893,3.88,3.88,3.88,3.88,3.868,3.868,3.868,3.868,3.868,3.868,3.868,3.868,3.855,3.855,3.855,3.855,3.855,3.855,3.855,3.868,3.868,3.88,3.906,3.92,3.933,3.973,3.987,3.987,4.014,4.028,4.028,4.028,4.056,4.056,4.056,4.07,4.085,4.085,4.085,4.128,4.128,4.158,4.188,4.188,4.203,4.203,4.218,4.218,4.218,4.233,4.233,4.233,4.249,4.249,4.249,4.249,4.249,4.264,4.264,4.264,4.264,4.264,4.264,4.264,4.264,4.264,4.264,4.28,4.28,4.28,4.264,4.28,4.28,4.28,4.28,4.28,4.28,4.28,4.28,4.28,4.28,4.28,4.28,4.28,4.28,4.28,4.28,4.28,4.28,4.28,4.28,4.28,4.28,4.28,4.28,4.28,4.28,4.28,4.28,4.28,4.28,4.28,4.28,4.28,4.28,4.296,4.296,4.312,4.312,4.312,4.312,4.312,4.312,4.312,4.312,4.328,4.328,4.328,4.328,4.328,4.344,4.344,4.344,4.344,4.344,4.36,4.36,4.36,4.36,4.36,4.36,4.36,4.36,4.36,4.344,4.328,4.328,4.328,4.344,4.344,4.344,4.36,4.376,4.376,4.393,4.41,4.426,4.426,4.46,4.477,4.477,4.512,4.512,4.512,4.512,4.512,4.477,4.477,4.46,4.46,4.46,4.426,4.426,4.426,4.426,4.41,4.41,4.41,4.41,4.426,4.46,4.46,4.477,4.477,4.477,4.512,4.512,4.53,4.53,4.565,4.565,4.565,4.583,4.583,4.565,4.565,4.53,4.512,4.477,4.46,4.426,4.41,4.41,4.41,4.41,4.41,4.426,4.426,4.477,4.512,4.53,4.565,4.583,4.601,4.601,4.601,4.601,4.601,4.583,4.583,4.565,4.53,4.512,4.512,4.46,4.426,4.46,4.46,4.477,4.512,4.53,4.601,4.638,4.694,4.732,4.771,4.791,4.791,4.81,4.81,4.81,4.81,4.791,4.771,4.732,4.713,4.694,4.657,4.638,4.601,4.601,4.583,4.583,4.601,4.601,4.638,4.657,4.694,4.732,4.752,4.791,4.81,4.81,4.83,4.83,4.851,4.851,4.851,4.851,4.851,4.83,4.83,4.83,4.83,4.83,4.83,4.83,4.83,4.83,4.83,4.83,4.83,4.83,4.851,4.851,4.851,4.851,4.851,4.851,4.851,4.851,4.851,4.851,4.851,4.851,4.851,4.851,4.851,4.851,4.851,4.851,4.851,4.83,4.83,4.83,4.851,4.851,4.851,4.851,4.851,4.83,4.83,4.83,4.83,4.83,4.83,4.83,4.83,4.83,4.81,4.81,4.81,4.81,4.81,4.81,4.791,4.791,4.791,4.791,4.791,4.791,4.791,4.791,4.791,4.791,4.791,4.791,4.791,4.791,4.791,4.81,4.81,4.81,4.81,4.81,4.81,4.83,4.83,4.83,4.83,4.83,4.83,4.83,4.83,4.83,4.83,4.851,4.851,4.851,4.851,4.851,4.851,4.871,4.871,4.871,4.891,4.891,4.891,4.891,4.871,4.871,4.871,4.871,4.851,4.851,4.851,4.851,4.83,4.83,4.83,4.83,4.81,4.81,4.81,4.81,4.81,4.81,4.791,4.791,4.791,4.791,4.771,4.771,4.771,4.771,4.771,4.771,4.771,4.771,4.752,4.732,4.732,4.732,4.732,4.732,4.713,4.713,4.694,4.713,4.694,4.694,4.694,4.694,4.694,4.694,4.694,4.657,4.657,4.657,4.657,4.638,4.638,4.638,4.601,4.601,4.583,4.565,4.53,4.512,4.46,4.426,4.41,4.393,4.376,4.376,4.36,4.312,4.249,0.0,0.0,0.0,0.0,0.0,3.326,3.317,0.0,0.0,0.0,0.0,0.0,0.0,0.0,0.0,0.0,0.0,0.0,3.384,3.384,3.365,3.355,3.336,3.326,3.298,3.27,3.243,3.207,3.198,3.189,3.181,3.181,3.163,3.163,3.155,3.155,3.155,3.146,3.146,3.146,3.138,3.138,3.138,3.138,3.138,3.138,3.146,3.155,3.163,3.189,3.261,3.3255000000000003,3.394,0.0,0.0,0.0,3.817,3.868,3.946,3.9775,4.014,4.07,4.114,4.158,4.173,4.173,4.188,4.173,4.188,4.173,4.188,4.188,4.188,4.188,4.188,4.203
3.946,3.92,3.88,3.855,3.817,3.804,3.792,3.78,3.767,3.755,3.743,3.731,3.707,3.707,3.707,3.707,3.707,3.707,3.707,3.731,3.743,3.743,3.755,3.767,3.78,3.804,3.804,3.817,3.829,3.842,3.868,3.868,3.868,3.88,3.88,3.88,3.88,3.88,3.868,3.868,3.868,3.868,3.855,3.855,3.855,3.855,3.868,3.868,3.868,3.88,3.88,3.88,3.868,3.868,3.868,3.868,3.88,3.88,3.893,3.92,3.933,3.946,3.987,4.014,4.028,4.056,4.056,4.07,4.085,4.07,4.085,4.085,4.085,4.085,4.114,4.114,4.128,4.128,4.173,4.173,4.188,4.203,4.218,4.218,4.233,4.233,4.233,4.249,4.249,4.249,4.249,4.249,4.264,4.264,4.264,4.264,4.28,4.28,4.28,4.28,4.28,4.28,4.28,4.28,4.28,4.28,4.28,4.28,4.28,4.28,4.28,4.296,4.296,4.296,4.296,4.312,4.312,4.312,4.312,4.312,4.312,4.312,4.312,4.296,4.296,4.296,4.296,4.296,4.296,4.296,4.296,4.296,4.296,4.296,4.296,4.296,4.296,4.296,4.296,4.296,4.296,4.312,4.312,4.312,4.312,4.312,4.312,4.312,4.312,4.328,4.328,4.328,4.328,4.328,4.328,4.328,4.328,4.344,4.344,4.344,4.36,4.36,4.36,4.36,4.36,4.36,4.36,4.36,4.36,4.36,4.36,4.344,4.344,4.344,4.328,4.328,4.344,4.344,4.36,4.36,4.376,4.393,4.41,4.426,4.46,4.46,4.512,4.512,4.53,4.565,4.565,4.565,4.565,4.565,4.565,4.53,4.53,4.512,4.512,4.512,4.477,4.477,4.477,4.46,4.46,4.46,4.46,4.477,4.477,4.512,4.512,4.53,4.53,4.53,4.565,4.565,4.565,4.583,4.583,4.583,4.583,4.583,4.583,4.565,4.53,4.512,4.512,4.477,4.46,4.426,4.41,4.41,4.41,4.426,4.46,4.477,4.477,4.53,4.565,4.601,4.601,4.638,4.657,4.657,4.657,4.657,4.657,4.657,4.638,4.638,4.583,4.583,4.583,4.565,4.583,4.583,4.601,4.657,4.694,4.732,4.771,4.791,4.81,4.81,4.81,4.81,4.81,4.81,4.81,4.81,4.81,4.771,4.752,4.732,4.713,4.657,4.638,4.638,4.638,4.638,4.638,4.638,4.657,4.657,4.694,4.713,4.752,4.791,4.81,4.83,4.83,4.851,4.851,4.851,4.871,4.851,4.851,4.851,4.851,4.851,4.851,4.851,4.851,4.851,4.851,4.851,4.851,4.851,4.851,4.851,4.851,4.851,4.851,4.851,4.871,4.871,4.871,4.871,4.871,4.871,4.871,4.871,4.871,4.871,4.871,4.851,4.851,4.851,4.851,4.851,4.851,4.851,4.851,4.851,4.851,4.851,4.851,4.851,4.851,4.851,4.83,4.83,4.83,4.83,4.83,4.83,4.83,4.83,4.81,4.81,4.81,4.81,4.81,4.81,4.81,4.81,4.81,4.81,4.791,4.791,4.791,4.791,4.791,4.791,4.791,4.791,4.791,4.791,4.81,4.81,4.81,4.81,4.81,4.81,4.83,4.83,4.83,4.83,4.83,4.83,4.83,4.83,4.83,4.83,4.851,4.851,4.851,4.871,4.871,4.891,4.891,4.891,4.891,4.891,4.912,4.912,4.912,4.891,4.891,4.891,4.891,4.871,4.871,4.871,4.851,4.851,4.851,4.851,4.83,4.83,4.83,4.83,4.81,4.81,4.81,4.81,4.81,4.81,4.81,4.791,4.791,4.791,4.791,4.771,4.771,4.771,4.771,4.771,4.752,4.771,4.752,4.752,4.752,4.752,4.732,4.732,4.732,4.732,4.732,4.732,4.732,4.713,4.713,4.713,4.694,4.694,4.694,4.657,4.657,4.638,4.638,4.601,4.601,4.583,4.565,4.53,4.512,4.477,4.426,4.41,4.393,4.376,4.376,4.344,4.28,4.173,0.0,0.0,3.434,3.355,3.336,3.326,3.336,3.336,3.336,0.0,0.0,0.0,0.0,0.0,0.0,0.0,0.0,0.0,3.384,3.365,3.355,3.355,3.336,3.317,3.298,3.27,3.261,3.225,3.198,3.189,3.189,3.181,3.172,3.163,3.163,3.155,3.155,3.146,3.146,3.146,3.146,3.146,3.146,3.146,3.146,3.146,3.163,3.181,3.207,3.288,3.346,3.404,0.0,0.0,0.0,3.842,3.92,3.94725,3.987,4.07,4.085,4.158,4.188,4.188,4.203,4.203,4.218,4.203,4.203,4.218,4.203,4.203,4.203,4.203,4.188,4.188
4.07,4.014,3.973,3.933,3.906,3.868,3.829,3.817,3.804,3.804,3.78,3.755,3.743,3.743,3.731,3.731,3.731,3.707,3.707,3.731,3.743,3.743,3.755,3.767,3.78,3.804,3.804,3.817,3.829,3.842,3.855,3.868,3.868,3.868,3.868,3.868,3.868,3.868,3.868,3.855,3.855,3.855,3.855,3.855,3.855,3.855,3.868,3.868,3.88,3.88,3.893,3.893,3.906,3.906,3.906,3.906,3.906,3.92,3.92,3.946,3.987,4.014,4.028,4.056,4.07,4.085,4.085,4.114,4.128,4.114,4.128,4.128,4.128,4.128,4.128,4.158,4.158,4.173,4.188,4.203,4.203,4.218,4.233,4.233,4.249,4.249,4.249,4.249,4.249,4.249,4.264,4.264,4.264,4.264,4.28,4.28,4.28,4.28,4.296,4.296,4.296,4.296,4.296,4.296,4.296,4.296,4.296,4.296,4.296,4.296,4.312,4.312,4.312,4.312,4.312,4.312,4.312,4.312,4.312,4.312,4.312,4.312,4.312,4.312,4.312,4.312,4.312,4.312,4.312,4.312,4.312,4.312,4.312,4.312,4.312,4.312,4.312,4.312,4.312,4.312,4.312,4.312,4.328,4.328,4.328,4.328,4.328,4.328,4.328,4.328,4.328,4.328,4.328,4.344,4.344,4.344,4.344,4.344,4.36,4.36,4.36,4.36,4.36,4.36,4.36,4.36,4.36,4.36,4.36,4.344,4.344,4.344,4.344,4.344,4.344,4.344,4.344,4.344,4.36,4.36,4.376,4.393,4.41,4.426,4.46,4.477,4.512,4.53,4.565,4.583,4.583,4.601,4.601,4.583,4.583,4.583,4.583,4.583,4.583,4.565,4.565,4.565,4.565,4.53,4.512,4.512,4.512,4.512,4.53,4.53,4.5475,4.565,4.565,4.583,4.583,4.583,4.601,4.601,4.601,4.601,4.601,4.601,4.601,4.583,4.565,4.53,4.53,4.512,4.477,4.46,4.426,4.426,4.426,4.46,4.477,4.512,4.53,4.565,4.583,4.601,4.638,4.657,4.694,4.694,4.694,4.713,4.713,4.732,4.713,4.752,4.771,4.752,4.771,4.771,4.81,4.81,4.81,4.83,4.851,4.851,4.851,4.851,4.871,4.851,4.851,4.851,4.83,4.83,4.81,4.81,4.81,4.791,4.771,4.752,4.732,4.713,4.694,4.657,4.657,4.657,4.657,4.694,4.713,4.713,4.732,4.771,4.791,4.81,4.83,4.851,4.851,4.871,4.891,4.891,4.891,4.891,4.891,4.871,4.871,4.871,4.851,4.851,4.851,4.851,4.851,4.851,4.851,4.851,4.851,4.851,4.871,4.871,4.871,4.891,4.891,4.891,4.891,4.891,4.891,4.891,4.891,4.891,4.891,4.891,4.891,4.891,4.871,4.871,4.851,4.851,4.851,4.851,4.851,4.851,4.851,4.851,4.851,4.851,4.851,4.851,4.851,4.851,4.851,4.851,4.83,4.83,4.83,4.83,4.83,4.83,4.83,4.83,4.83,4.83,4.81,4.81,4.81,4.81,4.81,4.81,4.81,4.81,4.791,4.791,4.791,4.791,4.791,4.791,4.81,4.81,4.81,4.81,4.81,4.83,4.83,4.83,4.83,4.83,4.83,4.83,4.83,4.83,4.851,4.851,4.851,4.851,4.871,4.871,4.891,4.891,4.912,4.912,4.912,4.912,4.912,4.933,4.933,4.912,4.912,4.912,4.891,4.891,4.891,4.871,4.871,4.851,4.851,4.851,4.851,4.83,4.83,4.83,4.83,4.81,4.81,4.81,4.81,4.81,4.81,4.81,4.81,4.81,4.791,4.791,4.791,4.791,4.791,4.791,4.771,4.791,4.771,4.771,4.771,4.771,4.752,4.752,4.752,4.752,4.771,4.752,4.752,4.732,4.732,4.732,4.713,4.694,4.694,4.657,4.638,4.638,4.601,4.601,4.583,4.583,4.565,4.53,4.512,4.46,4.426,4.41,4.376,4.376,4.36,4.328,4.249,0.0,0.0,3.454,3.404,3.336,3.326,3.326,3.336,3.336,3.336,3.355,0.0,0.0,0.0,0.0,0.0,0.0,3.384,3.365,3.365,3.365,3.355,3.336,3.326,3.317,3.298,3.288,3.261,3.234,3.198,3.189,3.189,3.181,3.172,3.163,3.163,3.155,3.155,3.155,3.146,3.146,3.146,3.146,3.146,3.146,3.155,3.163,3.181,3.216,3.288,3.341,0.0,0.0,0.0,0.0,3.855,3.906,3.9669999999999996,4.014,4.07,4.128,4.173,4.188,4.218,4.218,4.233,4.233,4.233,4.233,4.233,4.233,4.233,4.218,4.203,4.203,4.188,4.188
4.173,4.128,4.085,4.056,4.014,3.946,3.906,3.868,3.855,3.842,3.817,3.804,3.78,3.767,3.755,3.743,3.731,3.731,3.707,3.731,3.743,3.743,3.755,3.767,3.78,3.792,3.804,3.817,3.817,3.842,3.855,3.855,3.855,3.868,3.868,3.868,3.868,3.855,3.855,3.855,3.855,3.855,3.842,3.855,3.855,3.855,3.868,3.88,3.893,3.906,3.92,3.92,3.92,3.92,3.92,3.92,3.933,3.933,3.946,3.987,4.014,4.056,4.085,4.114,4.128,4.128,4.158,4.158,4.173,4.158,4.173,4.173,4.173,4.173,4.173,4.173,4.188,4.188,4.203,4.218,4.233,4.233,4.249,4.249,4.249,4.249,4.264,4.264,4.264,4.264,4.264,4.28,4.28,4.28,4.28,4.28,4.296,4.296,4.312,4.312,4.312,4.312,4.312,4.312,4.312,4.312,4.312,4.312,4.312,4.312,4.312,4.312,4.312,4.312,4.328,4.328,4.328,4.328,4.328,4.328,4.328,4.328,4.328,4.328,4.328,4.328,4.328,4.328,4.328,4.328,4.328,4.328,4.328,4.328,4.328,4.328,4.328,4.328,4.328,4.328,4.328,4.344,4.344,4.344,4.344,4.344,4.344,4.36,4.36,4.344,4.36,4.36,4.36,4.36,4.36,4.36,4.36,4.36,4.36,4.36,4.36,4.36,4.36,4.36,4.36,4.36,4.36,4.36,4.344,4.344,4.344,4.344,4.344,4.344,4.344,4.344,4.344,4.36,4.36,4.36,4.393,4.393,4.41,4.46,4.46,4.512,4.53,4.565,4.583,4.601,4.638,4.638,4.657,4.657,4.657,4.657,4.657,4.657,4.638,4.601,4.601,4.583,4.583,4.583,4.565,4.565,4.565,4.565,4.565,4.565,4.583,4.583,4.601,4.601,4.601,4.61975,4.638,4.638,4.638,4.657,4.657,4.657,4.638,4.638,4.583,4.583,4.53,4.53,4.53,4.53,4.512,4.512,4.512,4.512,4.53,4.565,4.583,4.583,4.601,4.638,4.657,4.694,4.713,4.713,4.732,4.752,4.752,4.771,4.791,4.791,4.81,4.81,4.81,4.81,4.83,4.851,4.851,4.871,4.891,4.891,4.891,4.891,4.891,4.891,4.871,4.851,4.851,4.851,4.851,4.83,4.83,4.81,4.81,4.81,4.791,4.791,4.771,4.771,4.771,4.771,4.791,4.791,4.791,4.81,4.81,4.83,4.851,4.851,4.871,4.851,4.871,4.891,4.912,4.912,4.891,4.912,4.891,4.891,4.891,4.891,4.891,4.891,4.871,4.871,4.871,4.871,4.871,4.871,4.871,4.871,4.871,4.891,4.891,4.891,4.891,4.912,4.912,4.912,4.912,4.912,4.912,4.912,4.912,4.912,4.891,4.891,4.891,4.891,4.891,4.871,4.851,4.851,4.851,4.851,4.851,4.851,4.851,4.851,4.851,4.851,4.851,4.851,4.851,4.851,4.851,4.851,4.851,4.851,4.851,4.851,4.851,4.851,4.83,4.83,4.83,4.83,4.83,4.81,4.81,4.81,4.81,4.81,4.81,4.81,4.81,4.81,4.81,4.81,4.81,4.81,4.81,4.81,4.83,4.83,4.83,4.83,4.83,4.83,4.83,4.83,4.83,4.851,4.851,4.851,4.851,4.871,4.891,4.891,4.891,4.912,4.912,4.933,4.933,4.933,4.954,4.954,4.954,4.933,4.933,4.912,4.912,4.891,4.891,4.891,4.851,4.851,4.851,4.851,4.851,4.83,4.83,4.83,4.83,4.83,4.81,4.81,4.81,4.81,4.81,4.81,4.81,4.81,4.81,4.81,4.81,4.81,4.81,4.791,4.791,4.791,4.791,4.791,4.791,4.791,4.791,4.791,4.771,4.771,4.771,4.771,4.771,4.752,4.752,4.752,4.713,4.713,4.694,4.657,4.638,4.601,4.601,4.601,4.583,4.565,4.53,4.512,4.477,4.46,4.41,4.393,4.376,4.36,4.36,4.296,4.173,0.0,0.0,3.434,3.365,3.355,3.336,3.336,3.355,3.365,3.365,3.365,3.365,3.365,3.384,3.384,3.384,3.384,3.365,3.365,3.365,3.355,3.355,3.336,3.326,3.326,3.298,3.288,3.261,3.234,3.198,3.189,3.189,3.181,3.172,3.163,3.163,3.163,3.155,3.155,3.155,3.146,3.146,3.146,3.146,3.155,3.163,3.189,3.225,3.298,3.3409999999999997,3.394,0.0,0.0,0.0,3.868,3.933,3.97025,4.028,4.085,4.158,4.173,4.188,4.218,4.233,4.233,4.249,4.249,4.249,4.249,4.249,4.249,4.233,4.218,4.218,4.203,4.188,4.173
4.218,4.203,4.188,4.158,4.158,4.07,4.028,3.973,3.933,3.88,3.855,3.829,3.804,3.804,3.78,3.767,3.743,3.731,3.707,3.731,3.731,3.743,3.743,3.755,3.767,3.792,3.804,3.804,3.817,3.829,3.842,3.855,3.855,3.855,3.855,3.855,3.855,3.855,3.842,3.842,3.829,3.829,3.829,3.829,3.842,3.855,3.868,3.893,3.906,3.92,3.946,3.946,3.946,3.933,3.946,3.933,3.946,3.973,3.987,4.014,4.056,4.085,4.128,4.158,4.173,4.188,4.203,4.203,4.203,4.203,4.203,4.203,4.203,4.203,4.203,4.203,4.218,4.218,4.233,4.249,4.249,4.249,4.249,4.264,4.264,4.264,4.264,4.264,4.264,4.28,4.28,4.28,4.28,4.28,4.296,4.296,4.296,4.312,4.312,4.312,4.312,4.312,4.312,4.312,4.312,4.312,4.312,4.312,4.312,4.312,4.312,4.328,4.328,4.328,4.328,4.328,4.328,4.328,4.328,4.328,4.344,4.344,4.344,4.344,4.344,4.344,4.328,4.328,4.328,4.328,4.344,4.344,4.344,4.344,4.344,4.344,4.344,4.36,4.36,4.36,4.376,4.376,4.376,4.376,4.376,4.376,4.376,4.393,4.376,4.376,4.376,4.376,4.376,4.376,4.376,4.376,4.376,4.376,4.376,4.376,4.376,4.36,4.36,4.36,4.36,4.36,4.36,4.344,4.344,4.344,4.344,4.344,4.344,4.344,4.344,4.344,4.344,4.36,4.36,4.376,4.393,4.41,4.426,4.46,4.477,4.512,4.565,4.583,4.601,4.638,4.657,4.694,4.694,4.694,4.713,4.713,4.694,4.713,4.694,4.694,4.657,4.657,4.657,4.638,4.638,4.601,4.601,4.583,4.601,4.601,4.601,4.638,4.638,4.638,4.638,4.657,4.694,4.694,4.694,4.694,4.694,4.694,4.694,4.657,4.657,4.638,4.601,4.601,4.583,4.565,4.565,4.565,4.565,4.565,4.583,4.583,4.601,4.601,4.638,4.657,4.694,4.713,4.732,4.732,4.752,4.771,4.791,4.81,4.81,4.81,4.81,4.83,4.83,4.851,4.851,4.871,4.891,4.891,4.912,4.912,4.912,4.912,4.912,4.891,4.891,4.891,4.871,4.871,4.851,4.851,4.851,4.83,4.83,4.83,4.81,4.81,4.81,4.81,4.81,4.81,4.81,4.83,4.83,4.83,4.851,4.851,4.871,4.891,4.891,4.912,4.933,4.954,4.954,4.954,4.954,4.954,4.933,4.933,4.912,4.912,4.912,4.891,4.891,4.891,4.891,4.891,4.891,4.891,4.891,4.891,4.891,4.891,4.891,4.912,4.912,4.912,4.912,4.912,4.912,4.912,4.912,4.912,4.912,4.912,4.912,4.912,4.891,4.891,4.891,4.891,4.871,4.871,4.871,4.871,4.871,4.851,4.851,4.851,4.851,4.851,4.851,4.851,4.851,4.851,4.851,4.851,4.851,4.871,4.871,4.871,4.871,4.851,4.851,4.851,4.851,4.851,4.83,4.83,4.83,4.83,4.83,4.81,4.81,4.81,4.81,4.81,4.81,4.81,4.81,4.81,4.81,4.81,4.83,4.83,4.83,4.83,4.83,4.83,4.83,4.83,4.83,4.851,4.851,4.851,4.871,4.871,4.891,4.891,4.912,4.912,4.933,4.954,4.954,4.954,4.975,4.975,4.954,4.954,4.933,4.912,4.912,4.891,4.891,4.871,4.871,4.851,4.851,4.851,4.851,4.83,4.83,4.83,4.83,4.83,4.83,4.83,4.83,4.83,4.83,4.83,4.83,4.81,4.81,4.81,4.81,4.81,4.81,4.81,4.791,4.791,4.791,4.791,4.791,4.791,4.791,4.791,4.791,4.791,4.791,4.791,4.791,4.771,4.752,4.752,4.732,4.713,4.657,4.601,4.601,4.601,4.583,4.583,4.565,4.565,4.53,4.512,4.46,4.426,4.41,4.376,4.376,4.344,4.344,4.264,4.07,3.7675,3.465,3.404,3.365,3.365,3.355,3.355,3.365,3.365,3.365,3.384,3.384,3.384,3.384,3.384,3.365,3.365,3.365,3.355,3.365,3.355,3.336,3.336,3.326,3.317,3.298,3.27,3.261,3.234,3.198,3.189,3.189,3.181,3.172,3.163,3.163,3.163,3.163,3.155,3.155,3.155,3.155,3.155,3.155,3.163,3.181,3.207,3.288,3.3312500000000003,3.384,0.0,0.0,3.731,3.855,3.933,3.96675,4.014,4.07,4.128,4.173,4.188,4.203,4.233,4.249,4.249,4.249,4.264,4.264,4.264,4.249,4.249,4.249,4.233,4.218,4.203,4.173,4.173
4.249,4.249,4.233,4.218,4.203,4.173,4.114,4.07,4.028,4.014,3.88,3.855,3.829,3.804,3.804,3.78,3.755,3.731,3.707,3.707,3.731,3.731,3.731,3.755,3.755,3.78,3.792,3.804,3.817,3.829,3.829,3.842,3.842,3.855,3.855,3.855,3.842,3.842,3.829,3.829,3.829,3.829,3.829,3.829,3.855,3.868,3.893,3.92,3.933,3.973,3.987,4.014,3.987,3.973,3.973,3.973,3.973,4.014,4.056,4.07,4.114,4.158,4.173,4.203,4.218,4.233,4.233,4.233,4.233,4.233,4.233,4.233,4.233,4.233,4.233,4.233,4.249,4.249,4.249,4.249,4.249,4.264,4.264,4.264,4.264,4.264,4.264,4.28,4.28,4.28,4.28,4.296,4.296,4.296,4.312,4.312,4.312,4.312,4.312,4.328,4.328,4.328,4.328,4.328,4.328,4.328,4.328,4.312,4.312,4.328,4.328,4.328,4.328,4.328,4.328,4.328,4.344,4.344,4.344,4.36,4.36,4.36,4.36,4.344,4.344,4.344,4.344,4.36,4.344,4.36,4.36,4.36,4.36,4.376,4.376,4.393,4.393,4.393,4.393,4.41,4.41,4.41,4.41,4.41,4.426,4.41,4.426,4.426,4.41,4.41,4.41,4.393,4.393,4.393,4.376,4.376,4.376,4.376,4.376,4.376,4.36,4.36,4.36,4.36,4.344,4.36,4.344,4.344,4.344,4.344,4.344,4.344,4.344,4.344,4.344,4.344,4.36,4.36,4.376,4.393,4.393,4.41,4.46,4.46,4.512,4.53,4.565,4.601,4.638,4.657,4.694,4.713,4.732,4.732,4.732,4.752,4.732,4.752,4.732,4.732,4.732,4.713,4.713,4.694,4.657,4.657,4.657,4.694,4.694,4.657,4.657,4.694,4.694,4.694,4.694,4.713,4.713,4.713,4.713,4.713,4.713,4.713,4.713,4.694,4.694,4.657,4.638,4.638,4.601,4.601,4.583,4.583,4.601,4.601,4.638,4.657,4.657,4.657,4.694,4.694,4.713,4.732,4.752,4.771,4.791,4.81,4.81,4.81,4.83,4.83,4.83,4.851,4.851,4.871,4.891,4.912,4.912,4.933,4.933,4.933,4.933,4.912,4.912,4.912,4.891,4.891,4.891,4.891,4.871,4.871,4.871,4.851,4.851,4.851,4.851,4.83,4.83,4.83,4.83,4.851,4.851,4.851,4.851,4.871,4.891,4.891,4.912,4.912,4.933,4.954,4.975,4.975,4.996,4.996,4.996,4.975,4.975,4.954,4.954,4.933,4.912,4.912,4.912,4.912,4.912,4.891,4.891,4.891,4.912,4.891,4.912,4.912,4.912,4.912,4.912,4.933,4.933,4.933,4.933,4.933,4.933,4.933,4.933,4.912,4.912,4.912,4.891,4.891,4.891,4.891,4.871,4.871,4.871,4.851,4.851,4.851,4.851,4.851,4.851,4.851,4.851,4.871,4.851,4.871,4.871,4.871,4.891,4.891,4.891,4.891,4.891,4.891,4.891,4.871,4.851,4.851,4.851,4.851,4.83,4.83,4.83,4.83,4.81,4.81,4.81,4.81,4.81,4.81,4.81,4.81,4.81,4.81,4.81,4.81,4.83,4.83,4.83,4.83,4.83,4.83,4.83,4.851,4.851,4.851,4.851,4.891,4.891,4.891,4.912,4.933,4.933,4.954,4.975,4.975,4.975,4.975,4.975,4.954,4.954,4.912,4.912,4.891,4.891,4.871,4.851,4.851,4.851,4.83,4.83,4.83,4.83,4.83,4.83,4.83,4.83,4.83,4.83,4.83,4.83,4.83,4.81,4.81,4.81,4.81,4.81,4.791,4.791,4.791,4.791,4.791,4.791,4.791,4.791,4.791,4.791,4.791,4.791,4.791,4.791,4.791,4.791,4.771,4.771,4.732,4.732,4.694,4.657,4.583,4.583,4.583,4.565,4.565,4.53,4.53,4.512,4.477,4.46,4.426,4.393,4.376,4.36,4.344,4.328,4.233,0.0,0.0,3.444,3.394,3.365,3.365,3.365,3.365,3.384,3.384,3.384,3.384,3.394,3.384,3.394,3.384,3.365,3.365,3.365,3.355,3.355,3.355,3.336,3.326,3.326,3.317,3.288,3.27,3.243,3.234,3.207,3.189,3.189,3.181,3.181,3.172,3.163,3.163,3.163,3.163,3.155,3.155,3.155,3.155,3.163,3.181,3.198,3.243,3.299,3.355,3.444,3.5465,3.649,3.804,3.893,3.94,3.987,4.07,4.114,4.158,4.188,4.203,4.218,4.249,4.249,4.264,4.264,4.264,4.264,4.264,4.264,4.264,4.249,4.233,4.218,4.188,4.173,4.128
4.249,4.249,4.249,4.249,4.233,4.203,4.188,4.158,4.128,4.085,4.028,3.868,3.842,3.817,3.804,3.78,3.755,3.731,3.707,3.696,3.707,3.707,3.731,3.743,3.743,3.767,3.78,3.792,3.804,3.817,3.829,3.829,3.829,3.842,3.842,3.842,3.842,3.829,3.829,3.829,3.829,3.817,3.817,3.829,3.855,3.868,3.906,3.946,3.973,4.014,4.056,4.056,4.056,4.028,4.014,3.987,4.014,4.056,4.07,4.114,4.173,4.188,4.233,4.249,4.249,4.264,4.264,4.264,4.264,4.264,4.264,4.249,4.249,4.249,4.249,4.264,4.264,4.264,4.264,4.264,4.264,4.264,4.264,4.28,4.28,4.28,4.28,4.28,4.28,4.296,4.296,4.312,4.312,4.312,4.312,4.312,4.328,4.328,4.328,4.328,4.328,4.328,4.328,4.328,4.328,4.328,4.328,4.328,4.328,4.312,4.328,4.328,4.328,4.328,4.328,4.328,4.344,4.344,4.344,4.344,4.36,4.36,4.36,4.36,4.36,4.36,4.36,4.36,4.376,4.376,4.376,4.393,4.393,4.393,4.41,4.426,4.426,4.46,4.46,4.46,4.46,4.477,4.477,4.477,4.477,4.477,4.46,4.477,4.46,4.46,4.46,4.426,4.41,4.41,4.393,4.393,4.393,4.376,4.376,4.376,4.376,4.36,4.36,4.36,4.36,4.344,4.344,4.344,4.344,4.344,4.344,4.344,4.344,4.344,4.36,4.36,4.376,4.376,4.393,4.41,4.41,4.46,4.477,4.512,4.53,4.565,4.583,4.638,4.657,4.694,4.713,4.732,4.752,4.752,4.771,4.771,4.771,4.771,4.791,4.791,4.791,4.791,4.791,4.752,4.732,4.732,4.732,4.713,4.713,4.694,4.694,4.713,4.713,4.713,4.713,4.732,4.732,4.713,4.732,4.732,4.732,4.732,4.732,4.732,4.713,4.694,4.694,4.657,4.657,4.657,4.657,4.657,4.657,4.694,4.694,4.713,4.713,4.713,4.732,4.752,4.752,4.771,4.791,4.81,4.81,4.83,4.83,4.83,4.851,4.851,4.851,4.871,4.891,4.891,4.912,4.912,4.933,4.954,4.954,4.954,4.954,4.954,4.933,4.912,4.912,4.912,4.912,4.891,4.891,4.891,4.891,4.891,4.891,4.891,4.891,4.871,4.871,4.871,4.891,4.891,4.891,4.891,4.912,4.912,4.933,4.933,4.954,4.975,4.996,4.996,5.018,5.018,5.04,5.018,5.018,5.018,4.996,4.996,4.975,4.954,4.954,4.933,4.933,4.912,4.912,4.912,4.912,4.912,4.912,4.912,4.933,4.954,4.954,4.954,4.975,4.975,4.975,4.954,4.954,4.954,4.954,4.933,4.933,4.912,4.912,4.912,4.912,4.891,4.891,4.871,4.871,4.871,4.871,4.871,4.851,4.851,4.851,4.851,4.851,4.851,4.871,4.871,4.871,4.871,4.891,4.891,4.891,4.891,4.891,4.891,4.891,4.891,4.891,4.891,4.891,4.871,4.851,4.851,4.851,4.83,4.83,4.83,4.81,4.81,4.81,4.81,4.81,4.81,4.81,4.81,4.81,4.81,4.81,4.81,4.81,4.81,4.83,4.83,4.83,4.83,4.83,4.83,4.851,4.851,4.851,4.871,4.891,4.891,4.912,4.933,4.933,4.954,4.975,4.975,4.996,4.996,4.996,4.975,4.954,4.912,4.912,4.891,4.891,4.871,4.851,4.851,4.83,4.83,4.83,4.83,4.83,4.83,4.83,4.81,4.83,4.83,4.81,4.83,4.81,4.81,4.81,4.81,4.81,4.791,4.791,4.791,4.791,4.771,4.771,4.771,4.771,4.771,4.771,4.771,4.771,4.771,4.791,4.791,4.791,4.771,4.771,4.752,4.732,4.732,4.694,4.657,4.638,4.565,4.565,4.53,4.53,4.512,4.512,4.512,4.477,4.46,4.426,4.41,4.376,4.36,4.344,4.328,4.28,4.114,0.0,0.0,3.414,3.384,3.365,3.365,3.365,3.384,3.384,3.384,3.394,3.394,3.394,3.394,3.394,3.384,3.384,3.365,3.365,3.365,3.355,3.355,3.336,3.336,3.326,3.317,3.288,3.27,3.243,3.234,3.207,3.189,3.189,3.181,3.181,3.172,3.163,3.163,3.163,3.163,3.163,3.163,3.163,3.163,3.163,3.189,3.225,3.317,3.34625,3.414,3.475,3.56,3.743,3.829,3.933,3.979,4.056,4.114,4.128,4.158,4.188,4.218,4.233,4.249,4.264,4.264,4.28,4.28,4.28,4.264,4.264,4.264,4.249,4.233,4.203,4.188,4.158,4.085
4.249,4.249,4.249,4.249,4.249,4.233,4.203,4.188,4.173,4.128,4.056,3.88,3.855,3.829,3.804,3.78,3.743,3.731,3.696,3.696,3.696,3.696,3.707,3.743,3.743,3.755,3.767,3.78,3.804,3.804,3.817,3.829,3.829,3.829,3.829,3.829,3.829,3.829,3.829,3.829,3.817,3.829,3.817,3.829,3.855,3.88,3.92,3.946,4.014,4.056,4.085,4.114,4.07,4.07,4.056,4.056,4.07,4.085,4.128,4.158,4.203,4.233,4.249,4.264,4.28,4.28,4.28,4.28,4.28,4.28,4.264,4.264,4.264,4.264,4.264,4.264,4.264,4.264,4.264,4.264,4.28,4.28,4.28,4.28,4.28,4.28,4.28,4.296,4.296,4.312,4.312,4.312,4.312,4.328,4.328,4.328,4.328,4.328,4.328,4.328,4.328,4.328,4.328,4.328,4.328,4.328,4.328,4.328,4.312,4.312,4.312,4.328,4.328,4.328,4.328,4.328,4.328,4.344,4.344,4.36,4.36,4.36,4.36,4.36,4.36,4.36,4.376,4.376,4.376,4.376,4.393,4.393,4.41,4.426,4.426,4.46,4.477,4.477,4.512,4.512,4.53,4.53,4.53,4.53,4.53,4.53,4.53,4.53,4.512,4.477,4.477,4.477,4.46,4.46,4.426,4.41,4.41,4.393,4.393,4.393,4.376,4.36,4.36,4.36,4.36,4.344,4.344,4.344,4.344,4.344,4.36,4.36,4.36,4.36,4.376,4.376,4.393,4.41,4.426,4.46,4.46,4.477,4.512,4.512,4.565,4.583,4.601,4.657,4.657,4.713,4.732,4.732,4.771,4.791,4.791,4.81,4.81,4.81,4.81,4.81,4.81,4.81,4.791,4.771,4.752,4.752,4.752,4.732,4.732,4.713,4.713,4.713,4.732,4.732,4.732,4.732,4.732,4.752,4.752,4.752,4.752,4.771,4.771,4.771,4.752,4.732,4.713,4.713,4.732,4.713,4.713,4.713,4.732,4.732,4.752,4.752,4.771,4.771,4.771,4.791,4.81,4.81,4.81,4.83,4.83,4.851,4.851,4.851,4.871,4.871,4.891,4.891,4.912,4.912,4.933,4.954,4.975,4.975,4.975,4.996,4.975,4.954,4.954,4.933,4.933,4.912,4.912,4.912,4.912,4.912,4.912,4.912,4.912,4.912,4.912,4.912,4.912,4.912,4.912,4.933,4.933,4.954,4.975,4.975,4.996,4.996,5.018,5.018,5.04,5.04,5.084,5.084,5.084,5.084,5.084,5.04,5.04,5.018,4.996,4.996,4.975,4.975,4.954,4.933,4.933,4.933,4.933,4.933,4.933,4.93825,4.954,4.975,4.975,4.975,4.996,4.996,4.996,4.996,4.996,4.975,4.975,4.954,4.954,4.933,4.912,4.912,4.891,4.891,4.891,4.891,4.871,4.871,4.871,4.871,4.871,4.851,4.851,4.851,4.851,4.871,4.871,4.871,4.871,4.891,4.891,4.891,4.891,4.891,4.891,4.912,4.912,4.912,4.891,4.891,4.891,4.891,4.871,4.871,4.851,4.851,4.83,4.83,4.83,4.81,4.81,4.81,4.81,4.81,4.81,4.81,4.81,4.81,4.81,4.81,4.81,4.81,4.81,4.83,4.83,4.83,4.83,4.83,4.851,4.851,4.851,4.871,4.891,4.891,4.912,4.912,4.954,4.954,4.975,4.996,4.996,4.996,4.996,4.975,4.954,4.933,4.912,4.891,4.891,4.871,4.851,4.851,4.83,4.83,4.83,4.83,4.81,4.81,4.81,4.81,4.81,4.81,4.81,4.81,4.81,4.81,4.81,4.791,4.791,4.771,4.771,4.752,4.752,4.752,4.752,4.752,4.752,4.752,4.752,4.771,4.752,4.752,4.771,4.771,4.771,4.752,4.752,4.732,4.713,4.694,4.657,4.638,4.565,4.53,4.53,4.512,4.512,4.477,4.477,4.477,4.46,4.426,4.41,4.393,4.36,4.328,4.328,4.28,3.946,3.9284999999999997,0.0,0.0,3.394,3.365,3.365,3.365,3.384,3.384,3.384,3.394,3.394,3.394,3.404,3.394,3.394,3.384,3.384,3.384,3.365,3.365,3.355,3.355,3.336,3.326,3.326,3.317,3.288,3.27,3.243,3.234,3.198,3.189,3.189,3.181,3.181,3.181,3.172,3.172,3.163,3.163,3.163,3.163,3.163,3.172,3.172,3.189,3.243,3.299,3.355,3.444,3.496,3.649,3.792,3.855,3.9210000000000003,3.987,4.07,4.114,4.158,4.188,4.203,4.233,4.249,4.249,4.264,4.28,4.28,4.28,4.28,4.28,4.264,4.264,4.249,4.233,4.203,4.173,4.128,4.07
4.249,4.249,4.249,4.249,4.249,4.249,4.218,4.203,4.188,4.158,4.07,3.906,3.868,3.829,3.804,3.78,3.743,3.731,3.696,3.696,3.696,3.672,3.696,3.731,3.731,3.743,3.755,3.767,3.792,3.804,3.817,3.817,3.817,3.829,3.829,3.829,3.829,3.829,3.829,3.817,3.829,3.829,3.829,3.829,3.855,3.88,3.933,3.973,4.014,4.056,4.07,4.114,4.085,4.085,4.085,4.085,4.114,4.128,4.173,4.188,4.218,4.249,4.264,4.28,4.28,4.28,4.28,4.28,4.28,4.28,4.28,4.28,4.28,4.28,4.28,4.28,4.28,4.28,4.28,4.28,4.28,4.28,4.28,4.28,4.296,4.296,4.296,4.312,4.312,4.312,4.328,4.328,4.328,4.328,4.328,4.328,4.328,4.328,4.328,4.328,4.328,4.328,4.328,4.328,4.328,4.328,4.312,4.312,4.312,4.312,4.312,4.328,4.328,4.328,4.328,4.328,4.328,4.344,4.344,4.36,4.36,4.36,4.36,4.36,4.36,4.376,4.376,4.376,4.376,4.393,4.393,4.41,4.426,4.46,4.477,4.512,4.53,4.53,4.565,4.565,4.583,4.583,4.583,4.583,4.583,4.583,4.583,4.583,4.583,4.565,4.53,4.512,4.512,4.477,4.477,4.46,4.426,4.426,4.41,4.41,4.393,4.376,4.376,4.36,4.36,4.36,4.36,4.344,4.36,4.36,4.36,4.376,4.376,4.393,4.393,4.41,4.426,4.46,4.477,4.477,4.512,4.53,4.53,4.565,4.583,4.601,4.694,4.713,4.732,4.752,4.771,4.791,4.791,4.791,4.81,4.81,4.81,4.81,4.81,4.81,4.81,4.81,4.81,4.791,4.771,4.771,4.771,4.752,4.732,4.732,4.732,4.732,4.752,4.732,4.732,4.752,4.752,4.771,4.791,4.791,4.791,4.81,4.81,4.81,4.791,4.771,4.771,4.771,4.752,4.752,4.752,4.771,4.791,4.791,4.81,4.81,4.81,4.81,4.81,4.83,4.83,4.851,4.851,4.851,4.851,4.891,4.891,4.891,4.912,4.912,4.912,4.912,4.933,4.933,4.954,4.954,4.975,4.996,4.996,4.996,4.996,4.996,4.975,4.954,4.954,4.954,4.933,4.933,4.954,4.954,4.954,4.954,4.954,4.954,4.954,4.954,4.954,4.975,4.975,4.996,4.996,5.018,5.04,5.04,5.04,5.084,5.084,5.106,5.106,5.151,5.151,5.151,5.151,5.151,5.106,5.106,5.084,5.084,5.04,5.018,4.996,4.996,4.975,4.975,4.975,4.954,4.954,4.954,4.954,4.954,4.975,4.996,4.996,5.00725,5.018,5.018,5.018,5.018,4.996,4.996,4.975,4.975,4.954,4.933,4.912,4.912,4.912,4.912,4.891,4.891,4.891,4.871,4.871,4.871,4.871,4.871,4.871,4.871,4.871,4.871,4.871,4.871,4.871,4.891,4.891,4.891,4.891,4.912,4.912,4.912,4.912,4.912,4.912,4.912,4.912,4.891,4.891,4.891,4.871,4.851,4.851,4.851,4.83,4.81,4.81,4.81,4.81,4.81,4.81,4.791,4.81,4.81,4.81,4.81,4.81,4.81,4.81,4.81,4.83,4.83,4.83,4.83,4.851,4.851,4.851,4.871,4.871,4.891,4.912,4.912,4.933,4.933,4.954,4.975,4.975,4.996,4.975,4.954,4.954,4.912,4.912,4.891,4.891,4.871,4.851,4.83,4.83,4.83,4.81,4.81,4.81,4.81,4.81,4.81,4.81,4.791,4.81,4.791,4.81,4.791,4.771,4.771,4.752,4.752,4.732,4.713,4.713,4.713,4.713,4.713,4.732,4.732,4.732,4.752,4.752,4.752,4.752,4.752,4.752,4.752,4.732,4.713,4.694,4.694,4.638,4.601,4.565,4.53,4.512,4.512,4.477,4.46,4.46,4.46,4.426,4.41,4.393,4.376,4.36,4.312,4.296,4.249,3.868,3.743,3.5934999999999997,3.444,3.394,3.365,3.365,3.365,3.384,3.384,3.394,3.394,3.404,3.404,3.404,3.404,3.394,3.384,3.384,3.384,3.365,3.365,3.355,3.336,3.336,3.326,3.326,3.317,3.288,3.27,3.243,3.225,3.198,3.189,3.189,3.181,3.181,3.181,3.172,3.172,3.172,3.163,3.163,3.163,3.172,3.172,3.181,3.207,3.27,3.332,3.394,3.465,3.538,3.696,3.817,3.88,3.9539999999999997,4.028,4.114,4.128,4.173,4.203,4.218,4.249,4.249,4.264,4.264,4.28,4.28,4.28,4.28,4.28,4.264,4.264,4.249,4.233,4.203,4.173,4.085,4.056
4.218,4.218,4.218,4.218,4.218,4.203,4.218,4.203,4.188,4.173,4.085,4.014,3.868,3.842,3.817,3.792,3.755,3.731,3.707,3.696,3.696,3.672,3.672,3.696,3.707,3.731,3.743,3.755,3.767,3.792,3.804,3.817,3.817,3.829,3.829,3.829,3.829,3.829,3.829,3.829,3.829,3.829,3.829,3.842,3.868,3.88,3.906,3.946,3.987,4.014,4.056,4.07,4.07,4.07,4.085,4.085,4.114,4.158,4.188,4.218,4.249,4.264,4.28,4.28,4.296,4.296,4.296,4.296,4.296,4.28,4.28,4.28,4.28,4.28,4.28,4.28,4.28,4.28,4.28,4.28,4.28,4.296,4.296,4.296,4.312,4.312,4.312,4.312,4.328,4.328,4.328,4.328,4.328,4.344,4.344,4.344,4.344,4.344,4.344,4.344,4.344,4.328,4.328,4.328,4.328,4.328,4.328,4.328,4.312,4.312,4.312,4.312,4.328,4.328,4.328,4.328,4.328,4.328,4.344,4.344,4.36,4.36,4.36,4.36,4.36,4.36,4.376,4.376,4.376,4.393,4.41,4.426,4.46,4.477,4.512,4.53,4.565,4.583,4.601,4.601,4.638,4.638,4.638,4.638,4.638,4.638,4.638,4.601,4.601,4.601,4.583,4.565,4.53,4.53,4.512,4.477,4.46,4.46,4.46,4.426,4.41,4.393,4.393,4.393,4.393,4.393,4.393,4.393,4.393,4.393,4.41,4.426,4.426,4.426,4.46,4.477,4.512,4.512,4.53,4.53,4.638,4.638,4.657,4.694,4.694,4.713,4.732,4.752,4.771,4.771,4.791,4.791,4.81,4.81,4.81,4.81,4.81,4.83,4.83,4.83,4.83,4.83,4.81,4.81,4.81,4.791,4.791,4.771,4.771,4.771,4.752,4.752,4.752,4.752,4.752,4.752,4.771,4.791,4.81,4.81,4.81,4.81,4.83,4.83,4.81,4.81,4.791,4.791,4.791,4.791,4.81,4.81,4.81,4.83,4.83,4.83,4.83,4.83,4.851,4.851,4.851,4.871,4.891,4.891,4.891,4.912,4.912,4.933,4.933,4.933,4.954,4.954,4.975,4.975,4.996,4.996,5.018,5.018,5.018,5.018,5.018,5.018,4.996,4.975,4.975,4.975,4.954,4.954,4.975,4.975,4.975,4.996,4.996,4.996,4.996,5.018,5.018,5.018,5.04,5.084,5.084,5.106,5.106,5.151,5.151,5.151,5.174,5.174,5.174,5.174,5.22,5.22,5.174,5.174,5.151,5.151,5.106,5.106,5.084,5.084,5.04,5.018,5.018,5.018,4.996,4.996,4.996,4.996,4.996,4.996,4.996,5.018,5.018,5.04,5.04,5.04,5.04,5.018,5.018,5.018,4.996,4.975,4.954,4.954,4.933,4.912,4.912,4.912,4.891,4.891,4.891,4.891,4.891,4.891,4.891,4.891,4.871,4.871,4.891,4.891,4.891,4.891,4.891,4.891,4.891,4.912,4.912,4.912,4.912,4.912,4.912,4.912,4.912,4.912,4.912,4.912,4.891,4.891,4.871,4.871,4.851,4.851,4.83,4.81,4.81,4.81,4.81,4.791,4.791,4.791,4.791,4.791,4.791,4.81,4.81,4.81,4.81,4.81,4.83,4.83,4.83,4.83,4.851,4.851,4.851,4.871,4.871,4.891,4.891,4.912,4.912,4.912,4.933,4.954,4.954,4.975,4.954,4.954,4.933,4.912,4.912,4.891,4.871,4.851,4.851,4.83,4.83,4.83,4.81,4.81,4.81,4.791,4.791,4.791,4.791,4.791,4.771,4.771,4.771,4.771,4.771,4.752,4.732,4.732,4.713,4.713,4.713,4.694,4.694,4.713,4.713,4.713,4.732,4.732,4.732,4.732,4.713,4.713,4.732,4.713,4.713,4.694,4.694,4.638,4.638,4.601,4.53,4.512,4.512,4.477,4.46,4.46,4.426,4.426,4.41,4.393,4.376,4.36,4.328,4.312,4.28,4.218,3.829,0.0,3.5497499999999995,3.424,3.365,3.365,3.365,3.384,3.384,3.394,3.404,3.404,3.404,3.404,3.404,3.404,3.394,3.394,3.384,3.384,3.365,3.365,3.365,3.355,3.336,3.336,3.326,3.317,3.288,3.27,3.243,3.225,3.198,3.189,3.189,3.181,3.181,3.181,3.181,3.181,3.172,3.172,3.172,3.172,3.181,3.181,3.189,3.225,3.317,3.34975,3.424,3.485,3.56,3.731,3.829,3.906,3.981,4.056,4.128,4.158,4.188,4.218,4.249,4.249,4.264,4.264,4.28,4.28,4.28,4.28,4.28,4.28,4.28,4.264,4.249,4.249,4.218,4.173,4.085,4.056
4.203,4.203,4.203,4.203,4.203,4.188,4.188,4.173,4.173,4.128,4.07,3.987,3.868,3.842,3.817,3.804,3.755,3.731,3.707,3.696,3.696,3.672,3.672,3.672,3.696,3.707,3.731,3.743,3.767,3.78,3.804,3.804,3.817,3.817,3.829,3.829,3.829,3.829,3.829,3.829,3.829,3.829,3.829,3.842,3.868,3.88,3.906,3.933,3.946,3.973,3.987,4.014,3.987,4.014,4.014,4.028,4.07,4.114,4.173,4.203,4.249,4.264,4.28,4.28,4.296,4.296,4.296,4.296,4.296,4.28,4.28,4.28,4.28,4.28,4.28,4.28,4.296,4.296,4.296,4.296,4.296,4.312,4.312,4.312,4.312,4.312,4.328,4.328,4.328,4.344,4.344,4.36,4.36,4.36,4.36,4.36,4.376,4.36,4.36,4.36,4.344,4.344,4.328,4.328,4.328,4.328,4.328,4.328,4.328,4.328,4.328,4.328,4.328,4.328,4.328,4.328,4.328,4.344,4.344,4.36,4.36,4.36,4.36,4.36,4.36,4.36,4.36,4.36,4.376,4.393,4.41,4.426,4.46,4.477,4.53,4.565,4.583,4.601,4.638,4.657,4.657,4.694,4.694,4.694,4.657,4.694,4.694,4.657,4.657,4.657,4.638,4.601,4.583,4.583,4.565,4.53,4.512,4.512,4.477,4.477,4.46,4.426,4.426,4.426,4.426,4.426,4.426,4.426,4.426,4.46,4.477,4.477,4.512,4.512,4.601,4.601,4.638,4.657,4.694,4.694,4.713,4.713,4.713,4.732,4.752,4.752,4.771,4.771,4.791,4.81,4.81,4.81,4.81,4.83,4.83,4.83,4.83,4.83,4.83,4.83,4.83,4.83,4.83,4.81,4.81,4.81,4.81,4.791,4.791,4.791,4.771,4.771,4.771,4.771,4.791,4.791,4.81,4.81,4.81,4.83,4.83,4.83,4.83,4.83,4.83,4.83,4.83,4.81,4.81,4.81,4.83,4.83,4.83,4.851,4.851,4.851,4.871,4.871,4.891,4.891,4.891,4.912,4.912,4.912,4.933,4.954,4.954,4.975,4.996,4.996,4.996,4.996,5.018,5.018,5.04,5.04,5.04,5.04,5.04,5.04,5.04,5.04,5.018,4.996,4.996,4.996,4.996,4.996,4.996,4.996,5.018,5.018,5.04,5.04,5.04,5.04,5.084,5.084,5.106,5.151,5.151,5.174,5.22,5.22,5.22,5.22,5.244,5.244,5.244,5.244,5.244,5.244,5.244,5.22,5.22,5.22,5.174,5.151,5.151,5.106,5.106,5.084,5.084,5.04,5.04,5.04,5.04,5.018,5.04,5.04,5.04,5.04,5.084,5.084,5.084,5.084,5.084,5.04,5.04,5.018,4.996,4.996,4.975,4.933,4.933,4.912,4.912,4.912,4.891,4.891,4.891,4.891,4.891,4.891,4.891,4.891,4.891,4.891,4.891,4.891,4.912,4.912,4.891,4.912,4.912,4.912,4.912,4.912,4.933,4.933,4.933,4.933,4.933,4.933,4.912,4.912,4.912,4.891,4.891,4.871,4.851,4.851,4.83,4.81,4.81,4.81,4.81,4.791,4.791,4.791,4.791,4.791,4.81,4.81,4.81,4.81,4.81,4.81,4.83,4.83,4.83,4.83,4.851,4.851,4.851,4.851,4.871,4.871,4.891,4.891,4.912,4.912,4.912,4.933,4.933,4.954,4.933,4.933,4.912,4.912,4.891,4.891,4.871,4.851,4.851,4.83,4.81,4.81,4.81,4.791,4.791,4.771,4.771,4.771,4.771,4.752,4.752,4.752,4.752,4.752,4.752,4.752,4.752,4.732,4.732,4.713,4.713,4.713,4.713,4.694,4.713,4.713,4.713,4.732,4.713,4.713,4.713,4.713,4.713,4.713,4.694,4.657,4.638,4.638,4.601,4.583,4.53,4.512,4.477,4.477,4.46,4.426,4.426,4.41,4.41,4.393,4.376,4.344,4.328,4.312,4.28,3.933,3.817,3.6615,3.506,3.424,3.384,3.384,3.365,3.384,3.384,3.394,3.414,3.414,3.414,3.414,3.414,3.414,3.404,3.404,3.394,3.394,3.384,3.384,3.365,3.365,3.355,3.336,3.336,3.317,3.288,3.27,3.243,3.225,3.198,3.189,3.189,3.181,3.181,3.181,3.181,3.181,3.181,3.181,3.181,3.181,3.181,3.181,3.189,3.225,3.2755,3.326,3.444,3.496,3.593,3.755,3.829,3.92,4.0024999999999995,4.085,4.173,4.203,4.218,4.249,4.249,4.264,4.28,4.28,4.28,4.296,4.296,4.296,4.296,4.28,4.28,4.264,4.264,4.249,4.218,4.173,4.128,4.07
4.218,4.218,4.218,4.218,4.203,4.188,4.173,4.158,4.128,4.085,4.028,3.906,3.868,3.842,3.829,3.804,3.767,3.743,3.707,3.696,3.696,3.672,3.661,3.672,3.672,3.696,3.707,3.731,3.755,3.78,3.792,3.804,3.817,3.829,3.829,3.829,3.829,3.829,3.829,3.829,3.829,3.842,3.842,3.855,3.868,3.88,3.893,3.906,3.906,3.92,3.933,3.946,3.933,3.933,3.933,3.973,4.028,4.085,4.158,4.203,4.233,4.264,4.264,4.28,4.28,4.28,4.296,4.296,4.296,4.28,4.28,4.28,4.28,4.296,4.296,4.296,4.312,4.312,4.312,4.312,4.312,4.312,4.328,4.328,4.328,4.328,4.344,4.344,4.36,4.36,4.376,4.376,4.376,4.376,4.376,4.393,4.393,4.376,4.376,4.376,4.36,4.344,4.344,4.344,4.328,4.328,4.328,4.328,4.328,4.328,4.328,4.328,4.328,4.328,4.328,4.328,4.328,4.328,4.344,4.344,4.344,4.344,4.344,4.344,4.344,4.344,4.36,4.36,4.36,4.376,4.393,4.41,4.46,4.477,4.53,4.565,4.601,4.638,4.657,4.694,4.694,4.713,4.713,4.713,4.713,4.713,4.713,4.713,4.694,4.694,4.657,4.657,4.638,4.601,4.583,4.583,4.565,4.565,4.53,4.53,4.512,4.512,4.477,4.477,4.477,4.512,4.512,4.512,4.512,4.601,4.601,4.638,4.638,4.657,4.694,4.713,4.713,4.732,4.752,4.752,4.771,4.771,4.771,4.791,4.791,4.81,4.81,4.81,4.81,4.81,4.81,4.83,4.83,4.83,4.83,4.83,4.851,4.851,4.851,4.851,4.851,4.83,4.83,4.83,4.83,4.81,4.81,4.81,4.81,4.81,4.81,4.81,4.81,4.81,4.81,4.81,4.83,4.83,4.83,4.83,4.851,4.851,4.851,4.851,4.851,4.851,4.851,4.83,4.83,4.83,4.851,4.851,4.851,4.871,4.891,4.891,4.891,4.891,4.912,4.912,4.933,4.954,4.954,4.975,4.996,5.018,5.018,5.04,5.04,5.084,5.084,5.084,5.084,5.106,5.106,5.106,5.106,5.106,5.106,5.106,5.106,5.084,5.04,5.04,5.018,5.018,5.018,5.018,5.018,5.04,5.084,5.084,5.106,5.106,5.106,5.106,5.151,5.151,5.174,5.22,5.22,5.244,5.268,5.268,5.268,5.268,5.268,5.316,5.316,5.316,5.268,5.268,5.268,5.244,5.244,5.244,5.22,5.22,5.174,5.174,5.151,5.151,5.106,5.106,5.106,5.106,5.084,5.084,5.084,5.084,5.084,5.106,5.106,5.106,5.106,5.106,5.106,5.04,5.04,5.018,4.996,4.975,4.975,4.954,4.933,4.912,4.912,4.912,4.912,4.891,4.891,4.891,4.891,4.891,4.891,4.912,4.912,4.912,4.912,4.912,4.912,4.912,4.912,4.933,4.933,4.954,4.954,4.933,4.933,4.954,4.954,4.933,4.933,4.933,4.933,4.912,4.912,4.912,4.891,4.891,4.871,4.851,4.851,4.83,4.81,4.81,4.81,4.81,4.81,4.81,4.81,4.81,4.81,4.81,4.81,4.81,4.83,4.83,4.83,4.83,4.83,4.851,4.851,4.851,4.851,4.851,4.871,4.871,4.891,4.891,4.912,4.912,4.912,4.912,4.912,4.912,4.912,4.933,4.912,4.912,4.891,4.891,4.871,4.851,4.83,4.83,4.81,4.81,4.791,4.791,4.771,4.771,4.752,4.752,4.752,4.752,4.752,4.752,4.752,4.752,4.752,4.752,4.752,4.732,4.732,4.732,4.732,4.713,4.713,4.713,4.713,4.713,4.732,4.732,4.713,4.694,4.694,4.694,4.694,4.694,4.657,4.657,4.638,4.601,4.583,4.53,4.512,4.477,4.477,4.46,4.46,4.426,4.41,4.41,4.41,4.393,4.376,4.36,4.328,4.312,4.296,3.987,3.829,3.693375,3.528,3.434,3.404,3.384,3.384,3.384,3.384,3.404,3.414,3.414,3.414,3.414,3.414,3.414,3.404,3.404,3.394,3.394,3.394,3.384,3.384,3.365,3.355,3.355,3.336,3.317,3.288,3.27,3.243,3.225,3.207,3.189,3.189,3.181,3.181,3.181,3.181,3.181,3.181,3.181,3.181,3.181,3.181,3.189,3.198,3.243,3.299,3.355,3.444,3.496,3.615,3.767,3.855,3.933,4.005625,4.114,4.203,4.233,4.249,4.249,4.264,4.28,4.28,4.296,4.296,4.312,4.312,4.312,4.296,4.296,4.28,4.28,4.264,4.249,4.233,4.203,4.158,4.07
4.233,4.249,4.233,4.233,4.233,4.203,4.188,4.158,4.128,4.07,4.014,3.893,3.868,3.842,3.817,3.804,3.767,3.743,3.731,3.696,3.696,3.672,3.661,3.661,3.672,3.672,3.696,3.707,3.743,3.767,3.78,3.804,3.817,3.817,3.829,3.842,3.842,3.842,3.842,3.842,3.842,3.842,3.842,3.855,3.855,3.868,3.893,3.906,3.92,3.92,3.933,3.946,3.973,3.946,3.987,4.028,4.07,4.128,4.203,4.249,4.264,4.28,4.28,4.296,4.312,4.296,4.296,4.296,4.296,4.28,4.296,4.296,4.296,4.296,4.312,4.312,4.312,4.328,4.328,4.328,4.328,4.328,4.328,4.344,4.344,4.36,4.376,4.376,4.393,4.393,4.393,4.41,4.393,4.41,4.41,4.41,4.393,4.393,4.393,4.376,4.376,4.36,4.36,4.36,4.344,4.344,4.344,4.344,4.344,4.344,4.344,4.344,4.328,4.328,4.328,4.328,4.328,4.328,4.328,4.328,4.344,4.344,4.344,4.328,4.328,4.344,4.344,4.344,4.344,4.376,4.393,4.41,4.46,4.512,4.53,4.583,4.638,4.657,4.694,4.713,4.732,4.732,4.732,4.732,4.732,4.732,4.732,4.732,4.732,4.713,4.694,4.694,4.694,4.657,4.638,4.601,4.601,4.601,4.583,4.583,4.565,4.53,4.53,4.583,4.601,4.601,4.638,4.638,4.638,4.657,4.657,4.694,4.713,4.732,4.732,4.752,4.771,4.791,4.791,4.81,4.81,4.81,4.81,4.81,4.81,4.83,4.83,4.83,4.83,4.83,4.83,4.83,4.83,4.851,4.851,4.851,4.851,4.851,4.851,4.851,4.851,4.851,4.851,4.83,4.83,4.83,4.83,4.83,4.83,4.83,4.83,4.83,4.81,4.83,4.83,4.83,4.83,4.851,4.851,4.851,4.851,4.851,4.851,4.851,4.851,4.851,4.851,4.851,4.851,4.851,4.851,4.871,4.891,4.891,4.912,4.912,4.912,4.933,4.954,4.975,4.975,4.996,5.018,5.04,5.06775,5.084,5.084,5.106,5.151,5.151,5.151,5.174,5.174,5.174,5.174,5.174,5.174,5.174,5.174,5.151,5.151,5.106,5.106,5.084,5.084,5.084,5.04,5.04,5.084,5.084,5.106,5.151,5.151,5.174,5.174,5.22,5.22,5.244,5.244,5.268,5.268,5.316,5.34,5.34,5.34,5.34,5.34,5.34,5.34,5.34,5.34,5.316,5.316,5.316,5.268,5.268,5.268,5.244,5.244,5.244,5.22,5.22,5.174,5.151,5.151,5.151,5.106,5.106,5.106,5.106,5.151,5.151,5.151,5.151,5.151,5.106,5.106,5.106,5.04,5.018,4.996,4.996,4.975,4.954,4.933,4.912,4.912,4.912,4.912,4.891,4.891,4.891,4.912,4.912,4.912,4.912,4.912,4.912,4.933,4.933,4.933,4.933,4.954,4.954,4.954,4.975,4.975,4.975,4.975,4.954,4.975,4.954,4.954,4.933,4.933,4.912,4.912,4.912,4.891,4.891,4.871,4.851,4.851,4.851,4.83,4.83,4.81,4.81,4.81,4.81,4.81,4.81,4.81,4.81,4.81,4.83,4.83,4.83,4.83,4.83,4.851,4.851,4.851,4.851,4.851,4.851,4.871,4.871,4.871,4.891,4.891,4.891,4.891,4.891,4.912,4.912,4.891,4.891,4.891,4.891,4.871,4.851,4.851,4.851,4.83,4.83,4.81,4.81,4.791,4.791,4.752,4.752,4.752,4.732,4.752,4.752,4.752,4.771,4.771,4.771,4.771,4.771,4.771,4.752,4.752,4.752,4.752,4.752,4.752,4.732,4.732,4.732,4.732,4.732,4.713,4.713,4.694,4.657,4.657,4.657,4.657,4.638,4.601,4.601,4.583,4.583,4.53,4.512,4.477,4.477,4.477,4.46,4.426,4.426,4.41,4.41,4.393,4.376,4.36,4.328,4.312,4.233,3.855,3.755,3.615,3.496,3.444,3.424,3.414,3.414,3.404,3.414,3.414,3.414,3.414,3.414,3.414,3.414,3.414,3.404,3.404,3.404,3.394,3.394,3.384,3.365,3.365,3.355,3.336,3.317,3.288,3.27,3.243,3.225,3.207,3.189,3.189,3.189,3.181,3.181,3.181,3.181,3.181,3.181,3.181,3.181,3.189,3.189,3.207,3.234,3.2945,3.355,3.444,3.496,3.627,3.78,3.855,3.9139999999999997,3.973,4.128,4.233,4.249,4.264,4.264,4.28,4.296,4.296,4.312,4.312,4.312,4.312,4.312,4.312,4.312,4.296,4.28,4.28,4.264,4.249,4.233,4.188,4.158
4.249,4.249,4.249,4.249,4.249,4.233,4.218,4.188,4.158,4.085,4.028,3.893,3.868,3.842,3.817,3.804,3.767,3.755,3.731,3.707,3.696,3.672,3.661,3.661,3.661,3.672,3.696,3.707,3.743,3.755,3.78,3.804,3.804,3.817,3.829,3.842,3.842,3.842,3.855,3.855,3.855,3.855,3.855,3.855,3.855,3.868,3.88,3.906,3.906,3.933,3.946,4.014,4.056,4.07,4.085,4.158,4.173,4.233,4.249,4.264,4.28,4.312,4.312,4.312,4.312,4.312,4.312,4.312,4.312,4.312,4.312,4.312,4.312,4.312,4.328,4.328,4.328,4.328,4.328,4.344,4.344,4.344,4.36,4.36,4.376,4.393,4.393,4.41,4.41,4.41,4.426,4.426,4.426,4.426,4.41,4.41,4.41,4.41,4.41,4.41,4.393,4.393,4.376,4.376,4.36,4.36,4.36,4.36,4.376,4.376,4.36,4.36,4.36,4.36,4.344,4.344,4.344,4.328,4.328,4.328,4.328,4.328,4.328,4.328,4.328,4.328,4.328,4.328,4.344,4.36,4.376,4.393,4.426,4.477,4.53,4.583,4.601,4.657,4.694,4.713,4.732,4.752,4.752,4.752,4.752,4.752,4.752,4.752,4.752,4.732,4.732,4.713,4.713,4.713,4.694,4.657,4.638,4.638,4.657,4.657,4.657,4.638,4.638,4.638,4.657,4.657,4.657,4.694,4.694,4.713,4.732,4.732,4.752,4.771,4.791,4.791,4.81,4.81,4.83,4.83,4.83,4.83,4.83,4.83,4.851,4.851,4.851,4.851,4.851,4.851,4.851,4.851,4.851,4.851,4.851,4.871,4.871,4.871,4.871,4.871,4.871,4.871,4.851,4.851,4.851,4.851,4.851,4.851,4.851,4.851,4.851,4.851,4.83,4.851,4.851,4.851,4.851,4.851,4.851,4.871,4.871,4.871,4.871,4.851,4.851,4.851,4.851,4.851,4.871,4.891,4.891,4.891,4.891,4.912,4.912,4.933,4.933,4.954,4.975,4.996,5.018,5.04,5.084,5.106,5.151,5.151,5.174,5.22,5.244,5.244,5.244,5.244,5.244,5.244,5.244,5.244,5.244,5.22,5.22,5.22,5.174,5.174,5.151,5.106,5.106,5.106,5.106,5.106,5.106,5.151,5.151,5.174,5.22,5.22,5.244,5.244,5.268,5.268,5.316,5.34,5.34,5.389,5.389,5.389,5.389,5.389,5.415,5.415,5.389,5.389,5.389,5.34,5.34,5.34,5.34,5.316,5.316,5.316,5.268,5.268,5.268,5.244,5.22,5.22,5.22,5.174,5.174,5.151,5.151,5.151,5.151,5.151,5.151,5.151,5.151,5.106,5.106,5.084,5.04,5.018,5.018,4.996,4.975,4.954,4.933,4.912,4.912,4.912,4.912,4.912,4.912,4.912,4.912,4.912,4.912,4.933,4.933,4.954,4.954,4.954,4.975,4.975,4.975,4.975,4.975,4.975,4.975,4.975,4.975,4.975,4.975,4.975,4.954,4.954,4.954,4.933,4.912,4.912,4.912,4.891,4.891,4.871,4.851,4.851,4.83,4.83,4.83,4.83,4.83,4.83,4.83,4.83,4.83,4.83,4.83,4.83,4.83,4.83,4.851,4.851,4.851,4.851,4.851,4.851,4.851,4.851,4.851,4.851,4.851,4.851,4.871,4.871,4.871,4.871,4.871,4.891,4.871,4.871,4.851,4.851,4.851,4.83,4.83,4.81,4.81,4.81,4.791,4.771,4.771,4.752,4.752,4.752,4.732,4.732,4.732,4.752,4.771,4.771,4.771,4.791,4.791,4.791,4.791,4.791,4.791,4.771,4.771,4.752,4.752,4.752,4.752,4.752,4.732,4.732,4.713,4.694,4.694,4.694,4.657,4.657,4.638,4.638,4.638,4.638,4.601,4.583,4.565,4.53,4.512,4.512,4.477,4.46,4.46,4.46,4.426,4.426,4.41,4.41,4.376,4.36,4.328,4.2725,0.0,0.0,3.767,3.661,3.582,3.538,3.506,3.496,3.475,3.475,3.465,3.465,3.454,3.444,3.424,3.414,3.414,3.414,3.404,3.404,3.404,3.404,3.394,3.384,3.365,3.355,3.336,3.317,3.298,3.27,3.243,3.225,3.207,3.189,3.189,3.189,3.181,3.181,3.181,3.181,3.189,3.189,3.189,3.189,3.189,3.198,3.207,3.234,3.2945,3.355,3.444,3.506,3.649,3.792,3.868,3.9275,3.987,4.173,4.249,4.264,4.264,4.28,4.296,4.312,4.312,4.312,4.328,4.328,4.328,4.328,4.312,4.312,4.312,4.312,4.296,4.28,4.264,4.249,4.218,4.188
4.264,4.264,4.264,4.264,4.249,4.249,4.249,4.218,4.173,4.114,4.028,3.906,3.868,3.855,3.829,3.804,3.78,3.755,3.743,3.731,3.707,3.672,3.661,3.661,3.661,3.672,3.672,3.707,3.731,3.755,3.767,3.792,3.817,3.817,3.829,3.855,3.855,3.855,3.855,3.868,3.868,3.868,3.868,3.855,3.855,3.868,3.893,3.906,3.92,3.946,3.973,4.028,4.07,4.128,4.173,4.188,4.233,4.249,4.264,4.28,4.296,4.312,4.312,4.328,4.312,4.312,4.312,4.312,4.312,4.312,4.312,4.328,4.328,4.328,4.344,4.344,4.36,4.36,4.36,4.376,4.376,4.376,4.393,4.41,4.41,4.426,4.426,4.426,4.46,4.46,4.46,4.46,4.46,4.46,4.426,4.426,4.426,4.426,4.426,4.41,4.41,4.41,4.41,4.393,4.393,4.376,4.393,4.393,4.393,4.393,4.393,4.393,4.376,4.376,4.36,4.344,4.344,4.328,4.328,4.328,4.328,4.328,4.328,4.328,4.328,4.328,4.328,4.328,4.328,4.36,4.376,4.393,4.426,4.477,4.53,4.583,4.638,4.657,4.694,4.732,4.752,4.752,4.752,4.752,4.771,4.771,4.771,4.771,4.771,4.752,4.752,4.752,4.732,4.732,4.732,4.713,4.694,4.694,4.694,4.694,4.657,4.657,4.657,4.657,4.694,4.694,4.713,4.713,4.732,4.752,4.752,4.771,4.791,4.81,4.81,4.83,4.83,4.83,4.83,4.83,4.851,4.851,4.851,4.851,4.851,4.851,4.851,4.871,4.871,4.871,4.871,4.891,4.891,4.891,4.891,4.891,4.891,4.891,4.891,4.891,4.891,4.891,4.871,4.871,4.871,4.851,4.851,4.851,4.851,4.851,4.851,4.851,4.851,4.851,4.851,4.871,4.851,4.871,4.871,4.871,4.891,4.891,4.871,4.871,4.871,4.871,4.871,4.871,4.891,4.891,4.891,4.912,4.912,4.933,4.954,4.954,4.975,4.996,5.018,5.04,5.084,5.106,5.151,5.174,5.22,5.244,5.244,5.268,5.316,5.316,5.316,5.316,5.316,5.316,5.316,5.316,5.268,5.268,5.244,5.244,5.22,5.22,5.174,5.151,5.151,5.151,5.151,5.151,5.151,5.151,5.174,5.22,5.244,5.244,5.268,5.316,5.316,5.34,5.34,5.389,5.389,5.415,5.415,5.415,5.415,5.415,5.415,5.415,5.415,5.415,5.389,5.389,5.389,5.389,5.389,5.34,5.34,5.34,5.34,5.316,5.316,5.268,5.268,5.244,5.22,5.22,5.174,5.151,5.151,5.151,5.151,5.151,5.151,5.151,5.151,5.106,5.106,5.106,5.04,5.018,4.996,4.996,4.975,4.954,4.933,4.912,4.912,4.912,4.912,4.912,4.912,4.912,4.912,4.933,4.933,4.954,4.954,4.975,4.975,4.975,4.996,4.996,4.996,4.996,4.996,4.996,4.996,4.996,4.996,4.975,4.975,4.975,4.975,4.975,4.954,4.933,4.933,4.933,4.912,4.912,4.891,4.891,4.871,4.871,4.851,4.851,4.851,4.83,4.83,4.83,4.83,4.83,4.83,4.83,4.83,4.83,4.83,4.851,4.851,4.851,4.851,4.851,4.851,4.851,4.851,4.851,4.851,4.851,4.851,4.851,4.851,4.851,4.851,4.851,4.851,4.83,4.83,4.83,4.83,4.83,4.81,4.81,4.81,4.791,4.791,4.771,4.752,4.752,4.752,4.752,4.732,4.732,4.732,4.732,4.752,4.752,4.771,4.791,4.791,4.81,4.81,4.81,4.81,4.81,4.81,4.81,4.81,4.81,4.791,4.791,4.771,4.771,4.752,4.752,4.732,4.694,4.694,4.657,4.657,4.657,4.657,4.657,4.657,4.638,4.638,4.601,4.583,4.53,4.53,4.53,4.512,4.477,4.477,4.46,4.46,4.46,4.426,4.426,4.41,4.393,4.376,4.312,0.0,0.0,3.868,3.829,3.792,3.767,3.731,3.731,3.707,3.696,3.707,3.696,3.672,3.649,3.627,3.528,3.506,3.485,3.475,3.454,3.444,3.434,3.414,3.394,3.384,3.355,3.336,3.326,3.298,3.27,3.261,3.234,3.207,3.189,3.189,3.189,3.181,3.181,3.181,3.181,3.181,3.189,3.189,3.189,3.198,3.207,3.216,3.234,3.2945,3.355,3.444,3.506,3.649,3.792,3.868,3.941,4.014,4.188,4.264,4.264,4.28,4.312,4.312,4.312,4.328,4.328,4.328,4.328,4.328,4.328,4.328,4.328,4.328,4.328,4.312,4.296,4.28,4.264,4.249,4.218
4.296,4.296,4.28,4.28,4.28,4.264,4.264,4.233,4.203,4.158,4.07,4.014,3.88,3.855,3.829,3.817,3.792,3.767,3.755,3.731,3.707,3.696,3.672,3.661,3.661,3.661,3.672,3.696,3.731,3.743,3.767,3.792,3.804,3.829,3.842,3.855,3.868,3.868,3.868,3.88,3.88,3.893,3.893,3.868,3.868,3.88,3.92,3.933,3.946,3.987,4.028,4.07,4.128,4.173,4.218,4.233,4.249,4.264,4.28,4.28,4.296,4.312,4.312,4.312,4.312,4.312,4.312,4.312,4.328,4.328,4.328,4.344,4.344,4.36,4.376,4.393,4.41,4.41,4.41,4.41,4.426,4.426,4.46,4.46,4.477,4.477,4.512,4.512,4.512,4.512,4.512,4.512,4.477,4.477,4.46,4.46,4.46,4.426,4.426,4.41,4.41,4.41,4.426,4.41,4.41,4.41,4.41,4.426,4.426,4.426,4.426,4.41,4.41,4.393,4.376,4.36,4.344,4.328,4.328,4.328,4.328,4.328,4.312,4.312,4.312,4.328,4.328,4.328,4.328,4.36,4.376,4.41,4.46,4.512,4.565,4.583,4.638,4.694,4.713,4.732,4.752,4.752,4.752,4.752,4.771,4.771,4.771,4.771,4.771,4.771,4.771,4.771,4.752,4.752,4.732,4.732,4.713,4.713,4.713,4.694,4.694,4.694,4.694,4.694,4.713,4.713,4.732,4.752,4.752,4.771,4.791,4.81,4.81,4.81,4.83,4.83,4.83,4.83,4.851,4.851,4.851,4.851,4.871,4.891,4.891,4.891,4.891,4.891,4.891,4.912,4.912,4.912,4.912,4.912,4.912,4.912,4.912,4.912,4.912,4.891,4.891,4.891,4.891,4.891,4.891,4.891,4.891,4.891,4.891,4.891,4.891,4.891,4.891,4.891,4.891,4.891,4.891,4.891,4.891,4.891,4.891,4.891,4.891,4.891,4.891,4.891,4.891,4.891,4.891,4.912,4.912,4.912,4.933,4.954,4.975,4.996,5.018,5.04,5.084,5.106,5.151,5.174,5.22,5.244,5.268,5.316,5.316,5.34,5.389,5.389,5.389,5.389,5.389,5.389,5.389,5.34,5.34,5.316,5.316,5.268,5.268,5.244,5.22,5.22,5.174,5.174,5.174,5.174,5.174,5.22,5.22,5.244,5.268,5.268,5.316,5.34,5.34,5.389,5.389,5.415,5.415,5.415,5.415,5.415,5.44,5.44,5.44,5.44,5.44,5.415,5.415,5.415,5.415,5.415,5.389,5.389,5.389,5.389,5.389,5.34,5.34,5.316,5.268,5.244,5.244,5.22,5.174,5.174,5.151,5.151,5.151,5.151,5.151,5.151,5.106,5.106,5.106,5.04,5.04,5.018,4.996,4.996,4.975,4.954,4.933,4.933,4.912,4.912,4.912,4.912,4.912,4.912,4.933,4.954,4.975,4.975,4.975,4.996,5.018,5.018,5.018,5.018,5.018,5.018,5.018,5.018,5.018,5.018,4.996,4.996,4.996,4.996,4.975,4.975,4.954,4.954,4.933,4.933,4.912,4.912,4.912,4.891,4.891,4.891,4.891,4.891,4.871,4.851,4.851,4.851,4.851,4.851,4.851,4.851,4.851,4.851,4.851,4.851,4.851,4.851,4.851,4.851,4.83,4.83,4.83,4.83,4.83,4.83,4.83,4.83,4.83,4.83,4.83,4.83,4.83,4.83,4.83,4.83,4.81,4.81,4.791,4.791,4.791,4.771,4.771,4.752,4.752,4.732,4.732,4.732,4.732,4.732,4.732,4.752,4.752,4.771,4.791,4.791,4.81,4.81,4.81,4.83,4.83,4.83,4.81,4.83,4.83,4.81,4.81,4.81,4.81,4.791,4.791,4.752,4.732,4.713,4.713,4.713,4.657,4.657,4.657,4.657,4.657,4.638,4.638,4.601,4.583,4.583,4.565,4.53,4.53,4.512,4.512,4.512,4.477,4.477,4.477,4.46,4.46,4.46,4.426,4.344,4.28,4.249,4.128,4.031,3.9899999999999998,3.9475,3.8935,3.88075,3.868,0.0,0.0,0.0,3.855,3.842,3.829,3.817,3.792,3.731,3.582,3.528,3.485,3.465,3.444,3.404,3.384,3.365,3.336,3.326,3.298,3.27,3.243,3.225,3.207,3.189,3.189,3.181,3.181,3.181,3.181,3.189,3.189,3.189,3.189,3.198,3.207,3.216,3.225,3.243,3.299,3.355,3.444,3.506,3.649,3.78,3.868,3.941,4.014,4.188,4.264,4.28,4.312,4.312,4.328,4.328,4.328,4.328,4.344,4.344,4.344,4.36,4.344,4.344,4.328,4.328,4.312,4.312,4.28,4.264,4.249,4.233
4.328,4.312,4.312,4.312,4.312,4.296,4.28,4.264,4.233,4.188,4.114,4.056,3.906,3.868,3.842,3.817,3.804,3.78,3.767,3.743,3.731,3.696,3.672,3.661,3.661,3.661,3.672,3.696,3.707,3.743,3.755,3.78,3.804,3.817,3.842,3.855,3.868,3.88,3.893,3.906,3.92,3.92,3.906,3.893,3.893,3.92,3.946,3.987,4.014,4.056,4.085,4.158,4.188,4.218,4.249,4.249,4.28,4.28,4.296,4.312,4.312,4.312,4.328,4.328,4.328,4.328,4.328,4.328,4.328,4.344,4.36,4.376,4.393,4.41,4.426,4.426,4.46,4.477,4.477,4.477,4.512,4.512,4.512,4.53,4.53,4.565,4.565,4.565,4.565,4.565,4.53,4.53,4.512,4.477,4.477,4.46,4.46,4.426,4.426,4.426,4.426,4.426,4.46,4.46,4.46,4.46,4.477,4.477,4.477,4.477,4.46,4.46,4.426,4.41,4.393,4.376,4.36,4.344,4.328,4.328,4.328,4.328,4.328,4.328,4.328,4.328,4.328,4.344,4.344,4.36,4.393,4.41,4.46,4.512,4.565,4.601,4.638,4.694,4.713,4.732,4.752,4.752,4.752,4.771,4.771,4.771,4.791,4.791,4.791,4.791,4.771,4.771,4.771,4.771,4.752,4.752,4.713,4.713,4.713,4.713,4.713,4.713,4.713,4.713,4.732,4.752,4.752,4.771,4.771,4.791,4.81,4.81,4.83,4.83,4.83,4.83,4.851,4.851,4.851,4.871,4.871,4.891,4.891,4.891,4.912,4.912,4.912,4.933,4.933,4.933,4.933,4.933,4.933,4.933,4.933,4.933,4.933,4.933,4.912,4.912,4.912,4.912,4.912,4.912,4.912,4.912,4.912,4.912,4.912,4.912,4.912,4.912,4.912,4.912,4.891,4.891,4.891,4.891,4.891,4.891,4.891,4.891,4.891,4.891,4.891,4.891,4.891,4.891,4.891,4.912,4.912,4.933,4.975,4.975,4.996,5.04,5.084,5.106,5.151,5.174,5.22,5.244,5.268,5.316,5.34,5.389,5.415,5.415,5.415,5.44,5.44,5.44,5.44,5.44,5.44,5.415,5.415,5.389,5.34,5.34,5.316,5.268,5.268,5.244,5.244,5.22,5.22,5.22,5.22,5.244,5.268,5.268,5.316,5.316,5.34,5.34,5.389,5.389,5.415,5.415,5.415,5.44,5.44,5.44,5.44,5.44,5.44,5.44,5.44,5.44,5.44,5.44,5.415,5.415,5.415,5.415,5.415,5.415,5.389,5.389,5.34,5.316,5.268,5.268,5.244,5.22,5.174,5.151,5.151,5.106,5.106,5.106,5.106,5.106,5.106,5.084,5.084,5.084,5.018,5.018,4.996,4.975,4.975,4.954,4.933,4.933,4.912,4.912,4.912,4.912,4.933,4.933,4.954,4.975,4.996,4.996,5.018,5.04,5.04,5.04,5.04,5.04,5.04,5.04,5.04,5.04,5.018,5.018,5.018,4.996,4.996,4.996,4.975,4.975,4.954,4.954,4.933,4.933,4.912,4.912,4.912,4.912,4.912,4.912,4.912,4.891,4.891,4.891,4.891,4.891,4.871,4.871,4.871,4.871,4.871,4.851,4.851,4.851,4.851,4.851,4.851,4.851,4.83,4.83,4.83,4.83,4.83,4.83,4.83,4.83,4.83,4.83,4.83,4.81,4.81,4.81,4.81,4.81,4.81,4.771,4.771,4.752,4.752,4.732,4.732,4.732,4.732,4.713,4.713,4.713,4.713,4.732,4.732,4.752,4.771,4.791,4.81,4.81,4.83,4.83,4.83,4.851,4.851,4.83,4.83,4.851,4.851,4.83,4.83,4.83,4.81,4.81,4.791,4.771,4.752,4.713,4.713,4.713,4.694,4.694,4.657,4.657,4.657,4.638,4.638,4.601,4.601,4.583,4.565,4.565,4.53,4.53,4.53,4.53,4.53,4.512,4.512,4.512,4.512,4.512,4.477,4.41,4.328,4.312,4.264,4.233,4.188,4.128,4.056,4.064875,4.066,0.0,0.0,0.0,4.0675,0.0,0.0,0.0,0.0,0.0,3.829,3.78,3.582,3.506,3.465,3.434,3.394,3.384,3.355,3.326,3.298,3.27,3.243,3.225,3.198,3.189,3.181,3.181,3.181,3.181,3.189,3.189,3.198,3.198,3.207,3.216,3.225,3.225,3.234,3.261,3.308,3.355,3.444,3.506,3.649,3.792,3.868,3.941,4.014,4.203,4.28,4.296,4.312,4.328,4.328,4.344,4.36,4.36,4.36,4.376,4.36,4.376,4.376,4.344,4.344,4.344,4.328,4.328,4.312,4.28,4.264,4.249
4.344,4.344,4.344,4.344,4.328,4.328,4.312,4.28,4.264,4.218,4.173,4.085,3.987,3.88,3.855,3.829,3.804,3.792,3.767,3.755,3.731,3.696,3.672,3.661,3.661,3.661,3.672,3.696,3.707,3.731,3.755,3.78,3.804,3.817,3.842,3.855,3.868,3.88,3.906,3.933,3.946,3.933,3.946,3.92,3.933,3.973,4.014,4.028,4.07,4.085,4.158,4.203,4.249,4.264,4.264,4.28,4.312,4.328,4.328,4.328,4.328,4.328,4.344,4.344,4.36,4.344,4.36,4.376,4.376,4.41,4.426,4.46,4.46,4.477,4.512,4.53,4.565,4.565,4.565,4.565,4.565,4.583,4.583,4.583,4.601,4.601,4.601,4.601,4.601,4.583,4.583,4.565,4.53,4.512,4.477,4.46,4.46,4.46,4.46,4.46,4.46,4.46,4.477,4.477,4.477,4.512,4.512,4.53,4.53,4.53,4.53,4.477,4.477,4.426,4.41,4.376,4.36,4.344,4.328,4.328,4.312,4.312,4.312,4.328,4.328,4.328,4.344,4.36,4.376,4.393,4.41,4.46,4.477,4.53,4.583,4.638,4.657,4.694,4.713,4.732,4.752,4.752,4.771,4.771,4.771,4.791,4.791,4.791,4.791,4.791,4.771,4.771,4.771,4.771,4.771,4.752,4.752,4.732,4.732,4.713,4.713,4.713,4.732,4.732,4.732,4.752,4.752,4.771,4.791,4.81,4.81,4.81,4.83,4.83,4.83,4.851,4.851,4.851,4.871,4.871,4.891,4.891,4.912,4.912,4.933,4.954,4.954,4.975,4.975,4.975,4.975,4.975,4.975,4.975,4.975,4.954,4.954,4.954,4.933,4.933,4.933,4.933,4.912,4.912,4.912,4.912,4.912,4.933,4.933,4.933,4.933,4.933,4.933,4.912,4.912,4.912,4.912,4.891,4.891,4.891,4.891,4.891,4.891,4.891,4.891,4.891,4.891,4.891,4.912,4.912,4.933,4.975,4.975,5.018,5.04,5.084,5.106,5.151,5.174,5.22,5.268,5.316,5.34,5.34,5.389,5.415,5.415,5.44,5.44,5.465,5.465,5.465,5.465,5.465,5.465,5.44,5.44,5.415,5.415,5.389,5.389,5.316,5.316,5.268,5.268,5.268,5.268,5.268,5.268,5.268,5.316,5.316,5.34,5.34,5.389,5.389,5.415,5.415,5.415,5.415,5.415,5.415,5.415,5.415,5.44,5.44,5.44,5.44,5.44,5.44,5.44,5.44,5.44,5.44,5.44,5.415,5.415,5.415,5.415,5.389,5.34,5.34,5.268,5.244,5.22,5.22,5.174,5.151,5.106,5.106,5.106,5.106,5.106,5.106,5.106,5.084,5.084,5.04,5.018,4.996,4.996,4.975,4.954,4.954,4.933,4.933,4.933,4.912,4.912,4.912,4.933,4.954,4.954,4.996,4.996,5.018,5.04,5.04,5.084,5.106,5.106,5.084,5.084,5.084,5.084,5.084,5.04,5.018,5.018,4.996,4.996,4.996,4.975,4.975,4.954,4.933,4.933,4.933,4.933,4.912,4.912,4.912,4.912,4.912,4.912,4.912,4.912,4.912,4.912,4.891,4.891,4.891,4.891,4.891,4.891,4.871,4.871,4.851,4.851,4.851,4.851,4.83,4.83,4.83,4.83,4.81,4.81,4.81,4.81,4.81,4.81,4.81,4.81,4.81,4.81,4.81,4.81,4.81,4.791,4.771,4.752,4.752,4.732,4.732,4.713,4.732,4.732,4.713,4.713,4.732,4.732,4.732,4.752,4.771,4.791,4.81,4.81,4.83,4.83,4.851,4.851,4.871,4.871,4.871,4.871,4.871,4.871,4.851,4.851,4.83,4.83,4.81,4.81,4.791,4.752,4.713,4.694,4.694,4.694,4.657,4.638,4.657,4.657,4.638,4.638,4.601,4.601,4.583,4.583,4.565,4.565,4.565,4.565,4.565,4.565,4.565,4.53,4.53,4.565,4.53,4.53,4.477,4.41,4.36,4.328,4.312,4.312,4.28,4.264,4.249,4.264,4.264,4.264,4.264,4.28,0.0,0.0,0.0,0.0,0.0,4.016,3.9325,3.76275,3.593,3.496,3.454,3.424,3.394,3.355,3.317,3.298,3.27,3.243,3.225,3.198,3.189,3.181,3.181,3.181,3.189,3.189,3.198,3.207,3.216,3.225,3.225,3.234,3.243,3.243,3.261,3.308,3.355,3.444,3.506,3.649,3.78,3.868,3.941,4.014,4.203,4.28,4.312,4.328,4.328,4.344,4.36,4.376,4.376,4.376,4.393,4.393,4.393,4.393,4.36,4.36,4.36,4.328,4.328,4.312,4.296,4.28,4.264
4.393,4.41,4.41,4.41,4.393,4.36,4.344,4.312,4.296,4.264,4.218,4.128,4.056,3.906,3.868,3.842,3.817,3.804,3.78,3.755,3.743,3.707,3.696,3.672,3.661,3.661,3.672,3.696,3.707,3.731,3.755,3.78,3.804,3.817,3.829,3.855,3.868,3.88,3.906,3.933,3.973,3.973,3.973,3.973,3.973,4.014,4.056,4.07,4.114,4.173,4.218,4.249,4.264,4.28,4.296,4.312,4.344,4.344,4.36,4.36,4.376,4.393,4.41,4.41,4.41,4.41,4.426,4.426,4.46,4.477,4.512,4.53,4.53,4.565,4.583,4.601,4.638,4.638,4.638,4.638,4.638,4.657,4.657,4.657,4.657,4.657,4.657,4.657,4.638,4.638,4.601,4.583,4.583,4.53,4.512,4.512,4.477,4.477,4.477,4.477,4.512,4.512,4.53,4.565,4.565,4.565,4.583,4.583,4.601,4.583,4.565,4.565,4.512,4.477,4.46,4.41,4.393,4.36,4.344,4.328,4.328,4.328,4.328,4.328,4.344,4.36,4.376,4.393,4.41,4.426,4.46,4.477,4.53,4.583,4.583,4.638,4.694,4.713,4.732,4.752,4.752,4.771,4.771,4.791,4.791,4.791,4.791,4.791,4.791,4.791,4.791,4.791,4.791,4.771,4.771,4.771,4.752,4.752,4.732,4.732,4.732,4.732,4.732,4.752,4.752,4.771,4.771,4.791,4.81,4.81,4.81,4.81,4.83,4.83,4.851,4.851,4.851,4.871,4.891,4.891,4.912,4.912,4.933,4.954,4.975,4.975,4.996,4.996,5.018,5.018,5.018,5.018,4.996,4.996,4.996,4.975,4.975,4.954,4.954,4.933,4.933,4.933,4.912,4.912,4.912,4.933,4.933,4.954,4.954,4.954,4.954,4.954,4.933,4.933,4.912,4.912,4.912,4.912,4.912,4.912,4.891,4.891,4.891,4.891,4.891,4.891,4.891,4.912,4.912,4.933,4.954,4.996,5.018,5.04,5.106,5.106,5.151,5.22,5.244,5.268,5.268,5.316,5.34,5.389,5.415,5.44,5.44,5.465,5.465,5.465,5.491,5.491,5.491,5.465,5.465,5.465,5.465,5.44,5.44,5.415,5.389,5.389,5.34,5.34,5.316,5.316,5.316,5.316,5.316,5.316,5.34,5.34,5.389,5.389,5.389,5.389,5.415,5.415,5.415,5.415,5.415,5.415,5.415,5.44,5.44,5.44,5.44,5.44,5.44,5.44,5.44,5.44,5.44,5.44,5.44,5.44,5.44,5.44,5.415,5.389,5.389,5.34,5.316,5.244,5.22,5.174,5.151,5.151,5.106,5.106,5.084,5.084,5.084,5.084,5.084,5.084,5.084,5.04,5.018,4.996,4.996,4.975,4.954,4.954,4.933,4.933,4.933,4.933,4.933,4.933,4.933,4.954,4.975,4.996,5.018,5.04,5.084,5.106,5.106,5.106,5.106,5.106,5.106,5.084,5.084,5.084,5.04,5.04,5.018,4.996,4.996,4.996,4.975,4.975,4.954,4.933,4.933,4.933,4.933,4.912,4.912,4.912,4.912,4.912,4.912,4.912,4.912,4.912,4.912,4.912,4.912,4.912,4.891,4.891,4.891,4.891,4.871,4.871,4.851,4.851,4.83,4.83,4.83,4.83,4.81,4.81,4.81,4.81,4.81,4.81,4.81,4.81,4.81,4.81,4.81,4.81,4.81,4.81,4.791,4.771,4.752,4.752,4.752,4.732,4.732,4.732,4.713,4.713,4.713,4.732,4.732,4.732,4.752,4.771,4.791,4.81,4.83,4.83,4.851,4.851,4.871,4.891,4.891,4.891,4.891,4.891,4.891,4.871,4.851,4.851,4.83,4.83,4.791,4.771,4.732,4.713,4.694,4.657,4.657,4.638,4.638,4.638,4.638,4.638,4.638,4.601,4.601,4.583,4.583,4.583,4.583,4.583,4.583,4.583,4.583,4.583,4.565,4.565,4.583,4.565,4.565,4.53,4.512,4.477,4.46,4.426,4.426,4.393,4.376,4.376,4.376,4.393,4.393,4.41,4.393,4.376,4.376,4.36,4.328,4.296,4.203,4.085,3.9453750000000003,3.7636875,3.582,3.485,3.444,3.414,3.365,3.326,3.298,3.261,3.225,3.216,3.198,3.189,3.189,3.189,3.189,3.189,3.207,3.216,3.225,3.225,3.234,3.243,3.261,3.261,3.261,3.27,3.303,3.336,3.444,3.496,3.615,3.755,3.855,3.9322500000000002,3.987,4.188,4.28,4.312,4.328,4.344,4.36,4.376,4.376,4.393,4.393,4.41,4.41,4.393,4.393,4.393,4.36,4.36,4.344,4.328,4.312,4.312,4.28,4.264
4.46,4.46,4.46,4.426,4.426,4.41,4.376,4.36,4.328,4.296,4.249,4.188,4.085,3.92,3.868,3.855,3.817,3.804,3.78,3.755,3.743,3.707,3.696,3.672,3.661,3.661,3.672,3.696,3.707,3.731,3.743,3.767,3.804,3.817,3.829,3.842,3.855,3.88,3.92,3.946,3.973,4.014,4.014,4.014,4.028,4.085,4.114,4.128,4.173,4.203,4.249,4.264,4.296,4.312,4.328,4.36,4.393,4.393,4.393,4.41,4.426,4.46,4.46,4.477,4.477,4.477,4.512,4.53,4.565,4.565,4.583,4.601,4.638,4.638,4.657,4.694,4.694,4.694,4.713,4.713,4.713,4.713,4.713,4.713,4.713,4.713,4.713,4.713,4.694,4.657,4.657,4.601,4.601,4.583,4.565,4.53,4.53,4.53,4.53,4.53,4.565,4.565,4.583,4.583,4.601,4.638,4.638,4.657,4.657,4.638,4.638,4.601,4.565,4.53,4.477,4.46,4.41,4.376,4.376,4.36,4.344,4.344,4.344,4.36,4.36,4.376,4.393,4.41,4.46,4.477,4.512,4.53,4.638,4.657,4.694,4.694,4.713,4.732,4.752,4.752,4.771,4.771,4.771,4.791,4.791,4.791,4.791,4.791,4.791,4.791,4.791,4.791,4.791,4.771,4.771,4.771,4.752,4.752,4.752,4.752,4.732,4.732,4.752,4.752,4.771,4.791,4.791,4.81,4.81,4.81,4.83,4.83,4.83,4.851,4.851,4.851,4.871,4.891,4.891,4.912,4.912,4.912,4.954,4.975,4.996,5.018,5.018,5.04,5.04,5.04,5.04,5.04,5.04,5.018,5.018,4.996,4.996,4.975,4.975,4.954,4.954,4.954,4.933,4.933,4.933,4.954,4.954,4.975,4.975,4.975,4.975,4.975,4.975,4.975,4.954,4.933,4.933,4.912,4.912,4.912,4.912,4.912,4.891,4.891,4.891,4.912,4.912,4.933,4.933,4.975,4.996,5.018,5.084,5.106,5.151,5.174,5.22,5.244,5.268,5.316,5.34,5.34,5.389,5.389,5.415,5.415,5.44,5.44,5.465,5.465,5.465,5.491,5.491,5.491,5.491,5.465,5.465,5.465,5.44,5.44,5.415,5.415,5.389,5.389,5.34,5.34,5.34,5.34,5.34,5.34,5.389,5.389,5.389,5.389,5.415,5.415,5.415,5.415,5.415,5.415,5.415,5.415,5.415,5.415,5.415,5.415,5.415,5.415,5.44,5.44,5.44,5.44,5.44,5.44,5.44,5.44,5.44,5.44,5.415,5.389,5.34,5.34,5.268,5.244,5.22,5.174,5.151,5.151,5.084,5.084,5.084,5.084,5.084,5.04,5.04,5.04,5.04,5.018,5.018,4.996,4.996,4.975,4.975,4.954,4.933,4.933,4.933,4.933,4.933,4.954,4.954,4.975,4.996,5.018,5.04,5.084,5.106,5.106,5.151,5.151,5.151,5.151,5.106,5.106,5.084,5.084,5.04,5.018,5.018,4.996,4.996,4.975,4.975,4.954,4.954,4.933,4.933,4.933,4.933,4.933,4.933,4.933,4.912,4.912,4.933,4.933,4.933,4.912,4.912,4.912,4.912,4.912,4.912,4.891,4.891,4.891,4.871,4.851,4.851,4.851,4.83,4.83,4.81,4.81,4.81,4.81,4.81,4.81,4.81,4.81,4.81,4.81,4.81,4.81,4.81,4.81,4.81,4.791,4.791,4.771,4.752,4.752,4.752,4.752,4.752,4.752,4.732,4.732,4.732,4.732,4.732,4.752,4.771,4.791,4.81,4.81,4.83,4.851,4.851,4.871,4.891,4.891,4.891,4.912,4.912,4.891,4.891,4.891,4.851,4.851,4.83,4.81,4.791,4.771,4.732,4.694,4.657,4.638,4.638,4.638,4.601,4.601,4.601,4.638,4.601,4.601,4.583,4.601,4.601,4.601,4.601,4.601,4.61975,4.638,4.638,4.638,4.601,4.601,4.601,4.583,4.583,4.583,4.583,4.565,4.565,4.565,4.565,4.565,4.565,4.583,4.583,4.583,4.583,4.583,4.601,4.601,4.601,4.53,4.477,4.426,4.36,4.264,4.128,3.9608437500000004,3.7442109375,3.528,3.465,3.434,3.365,3.326,3.27,3.243,3.216,3.198,3.189,3.189,3.189,3.189,3.198,3.207,3.225,3.234,3.243,3.243,3.261,3.27,3.27,3.27,3.27,3.288,3.312,3.336,3.424,3.485,3.582,3.743,3.829,3.946,4.0595,4.173,4.28,4.328,4.328,4.36,4.376,4.393,4.41,4.41,4.41,4.426,4.41,4.426,4.41,4.393,4.376,4.36,4.344,4.328,4.328,4.312,4.296,4.28
4.477,4.477,4.477,4.477,4.46,4.426,4.41,4.393,4.36,4.312,4.28,4.233,4.158,4.056,3.88,3.855,3.829,3.804,3.78,3.755,3.743,3.731,3.696,3.672,3.672,3.661,3.672,3.672,3.696,3.707,3.743,3.767,3.792,3.804,3.829,3.842,3.855,3.88,3.92,3.987,4.028,4.07,4.114,4.114,4.128,4.173,4.218,4.233,4.249,4.264,4.296,4.328,4.344,4.376,4.393,4.41,4.46,4.46,4.477,4.477,4.477,4.512,4.53,4.565,4.565,4.565,4.583,4.601,4.638,4.657,4.694,4.694,4.694,4.713,4.732,4.732,4.732,4.752,4.752,4.752,4.752,4.752,4.752,4.732,4.752,4.732,4.732,4.732,4.713,4.713,4.694,4.657,4.657,4.601,4.583,4.583,4.583,4.583,4.583,4.583,4.601,4.624499999999999,4.638,4.657,4.676,4.694,4.713,4.713,4.713,4.713,4.657,4.657,4.601,4.583,4.53,4.512,4.46,4.426,4.41,4.393,4.393,4.376,4.376,4.376,4.41,4.41,4.46,4.477,4.583,4.601,4.638,4.657,4.694,4.713,4.713,4.732,4.732,4.752,4.771,4.771,4.771,4.771,4.791,4.791,4.791,4.791,4.791,4.81,4.81,4.81,4.81,4.791,4.791,4.791,4.791,4.771,4.771,4.752,4.752,4.752,4.752,4.752,4.752,4.771,4.791,4.81,4.81,4.83,4.83,4.83,4.851,4.851,4.851,4.871,4.871,4.891,4.891,4.891,4.912,4.912,4.933,4.954,4.975,4.996,5.018,5.04,5.04,5.084,5.084,5.106,5.106,5.084,5.084,5.084,5.04,5.04,5.018,4.996,4.975,4.975,4.975,4.954,4.954,4.954,4.954,4.975,4.996,4.996,5.018,5.018,5.018,5.018,5.018,4.996,4.996,4.975,4.975,4.954,4.954,4.933,4.933,4.933,4.912,4.912,4.912,4.933,4.933,4.954,4.975,4.996,5.018,5.084,5.151,5.174,5.22,5.244,5.244,5.268,5.316,5.34,5.389,5.389,5.389,5.415,5.415,5.415,5.44,5.44,5.44,5.465,5.465,5.465,5.491,5.491,5.491,5.465,5.465,5.465,5.465,5.44,5.415,5.415,5.415,5.415,5.389,5.389,5.389,5.389,5.389,5.389,5.389,5.415,5.415,5.415,5.415,5.415,5.415,5.415,5.415,5.415,5.389,5.389,5.389,5.389,5.389,5.389,5.415,5.415,5.415,5.415,5.44,5.44,5.44,5.44,5.44,5.44,5.44,5.44,5.415,5.389,5.34,5.316,5.268,5.244,5.22,5.174,5.151,5.106,5.084,5.084,5.084,5.084,5.084,5.04,5.04,5.018,5.018,5.018,4.996,4.996,4.996,4.975,4.954,4.954,4.954,4.933,4.933,4.933,4.933,4.954,4.975,4.975,4.996,5.04,5.04,5.084,5.106,5.151,5.151,5.151,5.151,5.151,5.151,5.106,5.106,5.084,5.04,5.018,4.996,4.996,4.975,4.975,4.975,4.954,4.954,4.933,4.933,4.933,4.933,4.933,4.933,4.933,4.933,4.933,4.933,4.933,4.933,4.933,4.933,4.912,4.912,4.912,4.912,4.912,4.891,4.891,4.871,4.871,4.851,4.83,4.83,4.83,4.81,4.81,4.81,4.81,4.81,4.791,4.791,4.791,4.791,4.791,4.791,4.81,4.81,4.81,4.81,4.791,4.791,4.791,4.771,4.771,4.752,4.752,4.752,4.752,4.732,4.732,4.732,4.732,4.752,4.771,4.771,4.791,4.81,4.83,4.83,4.851,4.871,4.891,4.891,4.891,4.912,4.912,4.912,4.912,4.891,4.891,4.851,4.851,4.83,4.81,4.791,4.752,4.713,4.657,4.638,4.638,4.601,4.601,4.601,4.583,4.583,4.601,4.601,4.601,4.601,4.601,4.601,4.638,4.657,4.657,4.657,4.657,4.657,4.657,4.657,4.638,4.601,4.601,4.601,4.583,4.583,4.565,4.565,4.565,4.565,4.583,4.583,4.583,4.601,4.638,4.657,4.657,4.694,4.694,4.694,4.657,4.601,4.583,4.512,4.41,4.264,4.158,3.906,3.69625,3.496,3.444,3.365,3.298,3.261,3.225,3.189,3.189,3.189,3.189,3.189,3.189,3.207,3.216,3.243,3.252,3.261,3.27,3.27925,3.288,3.288,3.288,3.288,3.288,3.312,3.336,3.414,3.465,3.538,3.696,3.817,3.92,4.024,4.128,4.264,4.312,4.344,4.36,4.393,4.41,4.426,4.426,4.426,4.426,4.426,4.426,4.41,4.393,4.376,4.36,4.344,4.328,4.328,4.312,4.296,4.28
4.512,4.512,4.477,4.46,4.46,4.426,4.41,4.393,4.36,4.328,4.296,4.249,4.188,4.085,3.893,3.855,3.829,3.804,3.78,3.767,3.743,3.731,3.707,3.696,3.672,3.672,3.672,3.672,3.696,3.707,3.731,3.755,3.78,3.804,3.817,3.829,3.855,3.893,3.933,4.014,4.07,4.128,4.173,4.203,4.218,4.249,4.264,4.264,4.28,4.312,4.328,4.344,4.376,4.41,4.426,4.46,4.512,4.512,4.512,4.512,4.53,4.565,4.583,4.601,4.638,4.638,4.694,4.713,4.732,4.732,4.752,4.752,4.752,4.752,4.771,4.771,4.771,4.771,4.771,4.771,4.771,4.771,4.752,4.752,4.752,4.752,4.752,4.752,4.732,4.732,4.713,4.713,4.694,4.657,4.657,4.638,4.657,4.657,4.657,4.657,4.657,4.694,4.713,4.713,4.752,4.752,4.752,4.771,4.771,4.752,4.713,4.694,4.657,4.638,4.601,4.565,4.53,4.477,4.477,4.46,4.46,4.46,4.426,4.426,4.565,4.583,4.601,4.657,4.657,4.694,4.713,4.732,4.752,4.752,4.752,4.752,4.752,4.771,4.771,4.791,4.791,4.791,4.791,4.81,4.81,4.81,4.81,4.81,4.81,4.81,4.81,4.81,4.81,4.81,4.81,4.791,4.791,4.791,4.771,4.771,4.771,4.771,4.791,4.81,4.81,4.83,4.83,4.83,4.851,4.851,4.871,4.891,4.891,4.891,4.912,4.891,4.912,4.912,4.933,4.933,4.954,4.975,4.996,5.018,5.04,5.084,5.084,5.106,5.151,5.151,5.151,5.106,5.106,5.106,5.084,5.04,5.04,5.018,4.996,4.996,4.996,4.975,4.975,4.975,4.996,4.996,5.018,5.04,5.04,5.04,5.084,5.084,5.084,5.084,5.04,5.018,5.018,4.996,4.996,4.975,4.975,4.954,4.954,4.954,4.954,4.954,4.975,4.996,5.018,5.04,5.106,5.151,5.174,5.244,5.268,5.316,5.316,5.34,5.34,5.389,5.389,5.415,5.415,5.389,5.415,5.415,5.415,5.44,5.44,5.465,5.465,5.465,5.491,5.491,5.491,5.491,5.465,5.465,5.465,5.44,5.44,5.44,5.415,5.415,5.415,5.415,5.415,5.415,5.415,5.415,5.415,5.415,5.415,5.415,5.415,5.415,5.415,5.415,5.389,5.389,5.389,5.389,5.389,5.389,5.389,5.389,5.389,5.389,5.415,5.415,5.415,5.44,5.44,5.44,5.44,5.44,5.44,5.44,5.415,5.389,5.34,5.316,5.268,5.244,5.22,5.174,5.151,5.106,5.084,5.084,5.084,5.084,5.04,5.04,5.04,5.018,5.018,5.018,4.996,4.996,4.975,4.975,4.954,4.954,4.954,4.933,4.954,4.954,4.954,4.954,4.975,4.996,5.018,5.04,5.084,5.106,5.106,5.151,5.174,5.174,5.174,5.174,5.151,5.106,5.084,5.084,5.04,5.018,5.018,4.996,4.975,4.975,4.954,4.954,4.933,4.933,4.912,4.933,4.933,4.933,4.933,4.933,4.933,4.933,4.933,4.933,4.933,4.933,4.933,4.912,4.912,4.912,4.912,4.912,4.891,4.891,4.871,4.851,4.851,4.83,4.83,4.83,4.81,4.81,4.81,4.81,4.81,4.791,4.81,4.81,4.81,4.81,4.81,4.81,4.81,4.81,4.81,4.81,4.81,4.791,4.791,4.771,4.771,4.771,4.752,4.752,4.752,4.752,4.752,4.752,4.771,4.791,4.791,4.81,4.83,4.83,4.851,4.851,4.871,4.891,4.912,4.912,4.912,4.912,4.912,4.912,4.891,4.891,4.851,4.83,4.83,4.81,4.771,4.732,4.694,4.657,4.638,4.601,4.583,4.583,4.583,4.601,4.583,4.601,4.601,4.601,4.638,4.638,4.638,4.657,4.657,4.694,4.694,4.713,4.713,4.694,4.694,4.638,4.638,4.601,4.601,4.583,4.583,4.565,4.583,4.583,4.565,4.583,4.583,4.583,4.601,4.657,4.657,4.694,4.694,4.694,4.694,4.694,4.657,4.638,4.601,4.512,4.426,4.264,4.07,3.855,3.538,3.454,3.365,3.27,3.234,3.207,3.189,3.189,3.189,3.189,3.189,3.198,3.216,3.234,3.25425,3.27,3.288,3.298,3.298,3.317,3.317,3.298,3.298,3.288,3.31075,3.326,3.394,3.454,3.496,3.63325,3.792,3.868,3.9690000000000003,4.07,4.249,4.312,4.36,4.376,4.41,4.426,4.426,4.46,4.46,4.46,4.46,4.426,4.426,4.41,4.376,4.36,4.344,4.328,4.312,4.312,4.312,4.28
4.53,4.512,4.512,4.477,4.46,4.426,4.41,4.393,4.376,4.328,4.312,4.264,4.203,4.114,3.92,3.868,3.829,3.804,3.78,3.767,3.743,3.731,3.707,3.696,3.672,3.672,3.672,3.672,3.696,3.707,3.743,3.767,3.792,3.804,3.817,3.829,3.855,3.88,3.933,4.028,4.114,4.188,4.218,4.249,4.264,4.28,4.312,4.312,4.328,4.344,4.376,4.393,4.41,4.46,4.477,4.512,4.53,4.565,4.565,4.565,4.583,4.601,4.657,4.694,4.713,4.713,4.732,4.752,4.771,4.771,4.771,4.791,4.791,4.791,4.791,4.791,4.791,4.791,4.791,4.791,4.791,4.791,4.771,4.771,4.771,4.771,4.771,4.771,4.771,4.752,4.752,4.732,4.732,4.732,4.713,4.713,4.713,4.732,4.732,4.732,4.732,4.752,4.771,4.791,4.791,4.791,4.81,4.81,4.81,4.791,4.771,4.752,4.713,4.694,4.657,4.638,4.583,4.583,4.565,4.657,4.638,4.638,4.638,4.638,4.638,4.657,4.694,4.713,4.713,4.732,4.752,4.771,4.771,4.791,4.791,4.771,4.771,4.791,4.791,4.791,4.791,4.791,4.791,4.81,4.81,4.81,4.81,4.81,4.81,4.81,4.81,4.81,4.81,4.81,4.81,4.81,4.81,4.81,4.81,4.81,4.81,4.81,4.81,4.83,4.83,4.851,4.851,4.871,4.891,4.891,4.891,4.912,4.912,4.912,4.912,4.933,4.933,4.954,4.954,4.975,4.975,4.996,5.018,5.04,5.084,5.106,5.106,5.151,5.151,5.174,5.174,5.174,5.151,5.151,5.106,5.084,5.04,5.04,5.018,4.996,4.996,4.996,4.975,4.975,4.996,5.018,5.04,5.084,5.084,5.106,5.106,5.151,5.151,5.106,5.106,5.084,5.084,5.084,5.04,5.04,5.018,4.996,4.996,4.996,4.996,5.018,5.018,5.04,5.084,5.106,5.151,5.22,5.244,5.268,5.316,5.34,5.34,5.389,5.389,5.389,5.415,5.415,5.389,5.389,5.389,5.389,5.415,5.415,5.415,5.415,5.44,5.465,5.465,5.465,5.491,5.491,5.465,5.465,5.465,5.465,5.44,5.44,5.44,5.44,5.44,5.415,5.415,5.415,5.415,5.415,5.415,5.415,5.415,5.415,5.44,5.415,5.415,5.415,5.389,5.389,5.389,5.389,5.389,5.34,5.34,5.34,5.34,5.389,5.389,5.415,5.415,5.415,5.44,5.44,5.44,5.44,5.44,5.44,5.415,5.415,5.34,5.34,5.316,5.268,5.22,5.174,5.151,5.151,5.106,5.084,5.084,5.04,5.04,5.04,5.018,5.018,5.018,4.996,4.996,4.975,4.975,4.954,4.954,4.954,4.933,4.933,4.933,4.954,4.954,4.975,4.975,4.996,5.018,5.04,5.084,5.106,5.151,5.174,5.174,5.174,5.174,5.174,5.151,5.106,5.106,5.084,5.04,5.018,5.018,4.996,4.975,4.975,4.954,4.954,4.933,4.933,4.933,4.933,4.933,4.933,4.933,4.933,4.933,4.933,4.954,4.954,4.933,4.933,4.933,4.933,4.933,4.912,4.912,4.912,4.891,4.891,4.871,4.851,4.851,4.851,4.83,4.83,4.81,4.81,4.81,4.81,4.81,4.81,4.81,4.81,4.81,4.81,4.83,4.83,4.83,4.81,4.81,4.81,4.81,4.81,4.81,4.81,4.81,4.791,4.791,4.791,4.771,4.771,4.771,4.771,4.791,4.791,4.81,4.81,4.83,4.851,4.851,4.891,4.891,4.912,4.912,4.933,4.933,4.933,4.933,4.912,4.912,4.891,4.851,4.83,4.83,4.81,4.771,4.752,4.713,4.657,4.638,4.601,4.601,4.583,4.583,4.583,4.583,4.601,4.638,4.638,4.657,4.657,4.694,4.694,4.694,4.694,4.713,4.713,4.713,4.713,4.657,4.638,4.601,4.601,4.583,4.565,4.53,4.53,4.512,4.53,4.53,4.53,4.565,4.583,4.601,4.638,4.657,4.694,4.713,4.694,4.694,4.694,4.657,4.638,4.583,4.565,4.477,4.376,4.158,3.906,3.78,3.475,3.365,3.261,3.216,3.198,3.181,3.181,3.181,3.189,3.189,3.207,3.234,3.24525,3.27,3.298,3.317,3.317,3.326,3.326,3.326,3.317,3.298,3.288,3.317,3.341,3.365,3.424,3.475,3.549,3.743,3.855,3.9414999999999996,4.028,4.249,4.312,4.36,4.393,4.41,4.426,4.46,4.46,4.46,4.46,4.46,4.426,4.426,4.393,4.376,4.36,4.344,4.328,4.328,4.312,4.312,4.296
4.565,4.53,4.512,4.477,4.46,4.426,4.41,4.393,4.376,4.344,4.312,4.264,4.218,4.128,3.933,3.868,3.842,3.804,3.78,3.767,3.755,3.731,3.707,3.696,3.696,3.672,3.672,3.672,3.696,3.731,3.743,3.767,3.78,3.792,3.804,3.829,3.855,3.88,3.92,4.014,4.085,4.188,4.249,4.28,4.296,4.312,4.344,4.36,4.376,4.41,4.426,4.46,4.477,4.53,4.565,4.565,4.601,4.638,4.638,4.657,4.694,4.713,4.732,4.752,4.771,4.791,4.791,4.81,4.81,4.81,4.81,4.81,4.81,4.81,4.791,4.791,4.791,4.771,4.771,4.771,4.771,4.771,4.771,4.771,4.771,4.771,4.771,4.791,4.771,4.771,4.771,4.771,4.771,4.771,4.771,4.771,4.771,4.791,4.791,4.81,4.81,4.81,4.81,4.83,4.83,4.83,4.83,4.83,4.83,4.81,4.81,4.791,4.771,4.752,4.732,4.791,4.771,4.771,4.771,4.752,4.752,4.752,4.732,4.732,4.732,4.752,4.752,4.771,4.771,4.771,4.771,4.791,4.791,4.81,4.791,4.791,4.791,4.791,4.791,4.791,4.791,4.81,4.81,4.81,4.81,4.81,4.81,4.81,4.81,4.81,4.81,4.83,4.83,4.83,4.83,4.83,4.83,4.83,4.83,4.83,4.83,4.83,4.851,4.851,4.871,4.891,4.891,4.912,4.912,4.933,4.954,4.954,4.975,4.975,4.975,4.975,4.975,4.975,4.996,4.996,5.018,5.018,5.04,5.04,5.084,5.084,5.106,5.151,5.174,5.174,5.174,5.174,5.174,5.174,5.151,5.106,5.084,5.04,5.018,5.018,5.018,5.018,4.996,4.996,5.018,5.04,5.084,5.106,5.106,5.151,5.151,5.174,5.174,5.174,5.174,5.151,5.151,5.151,5.106,5.106,5.106,5.084,5.084,5.04,5.04,5.04,5.084,5.106,5.151,5.174,5.22,5.244,5.268,5.34,5.389,5.389,5.415,5.415,5.415,5.415,5.415,5.415,5.389,5.389,5.389,5.389,5.389,5.389,5.389,5.415,5.415,5.44,5.465,5.465,5.465,5.465,5.465,5.465,5.465,5.465,5.44,5.44,5.44,5.44,5.44,5.44,5.44,5.44,5.44,5.44,5.44,5.44,5.44,5.44,5.44,5.415,5.415,5.415,5.415,5.389,5.389,5.389,5.34,5.316,5.316,5.316,5.34,5.34,5.34,5.389,5.389,5.415,5.415,5.44,5.44,5.44,5.44,5.44,5.415,5.415,5.389,5.34,5.316,5.268,5.22,5.174,5.174,5.151,5.106,5.106,5.084,5.04,5.04,5.04,5.018,5.018,5.018,4.996,4.996,4.975,4.975,4.954,4.954,4.954,4.954,4.933,4.933,4.954,4.954,4.954,4.975,4.996,5.018,5.04,5.04,5.106,5.106,5.151,5.174,5.174,5.174,5.174,5.151,5.151,5.106,5.084,5.084,5.018,4.996,4.975,4.975,4.954,4.954,4.933,4.933,4.933,4.933,4.933,4.933,4.933,4.933,4.933,4.933,4.933,4.933,4.933,4.933,4.933,4.933,4.933,4.933,4.912,4.912,4.912,4.891,4.891,4.871,4.851,4.851,4.83,4.83,4.81,4.81,4.81,4.81,4.81,4.81,4.81,4.81,4.81,4.81,4.83,4.83,4.83,4.851,4.851,4.851,4.851,4.851,4.83,4.83,4.83,4.83,4.81,4.81,4.81,4.81,4.81,4.81,4.81,4.81,4.81,4.83,4.83,4.851,4.851,4.871,4.891,4.912,4.912,4.933,4.954,4.954,4.954,4.933,4.912,4.912,4.891,4.851,4.83,4.83,4.81,4.771,4.732,4.713,4.657,4.638,4.601,4.601,4.583,4.583,4.583,4.583,4.601,4.638,4.657,4.657,4.694,4.694,4.713,4.713,4.713,4.732,4.732,4.713,4.657,4.657,4.601,4.583,4.565,4.53,4.512,4.477,4.477,4.477,4.477,4.512,4.53,4.565,4.583,4.601,4.657,4.694,4.713,4.713,4.713,4.713,4.694,4.657,4.638,4.601,4.565,4.46,4.393,4.218,4.014,3.817,3.465,3.355,3.225,3.189,3.172,3.172,3.181,3.181,3.189,3.189,3.216,3.2295,3.243,3.288,3.326,3.336,3.336,3.336,3.336,3.326,3.326,3.298,3.288,3.298,3.32525,3.336,3.394,3.454,3.496,3.67925,3.829,3.9080000000000004,3.987,4.233,4.328,4.393,4.41,4.426,4.426,4.46,4.46,4.46,4.46,4.46,4.426,4.41,4.393,4.376,4.36,4.344,4.328,4.328,4.312,4.312,4.312
4.565,4.53,4.512,4.477,4.46,4.426,4.41,4.393,4.376,4.344,4.312,4.28,4.233,4.158,3.933,3.88,3.842,3.804,3.792,3.767,3.755,3.743,3.707,3.707,3.696,3.696,3.696,3.696,3.707,3.731,3.743,3.767,3.78,3.792,3.804,3.817,3.829,3.868,3.92,4.014,4.114,4.203,4.264,4.312,4.328,4.376,4.41,4.426,4.46,4.477,4.5040000000000004,4.53,4.565,4.583,4.601,4.657,4.657,4.713,4.732,4.732,4.752,4.752,4.771,4.791,4.81,4.83,4.83,4.83,4.83,4.83,4.81,4.81,4.81,4.81,4.791,4.791,4.771,4.771,4.771,4.771,4.771,4.771,4.771,4.771,4.771,4.771,4.791,4.791,4.791,4.791,4.791,4.81,4.81,4.81,4.81,4.81,4.83,4.83,4.83,4.83,4.851,4.851,4.851,4.851,4.871,4.871,4.871,4.871,4.871,4.851,4.83,4.851,4.851,4.83,4.83,4.83,4.81,4.81,4.81,4.81,4.81,4.791,4.791,4.791,4.791,4.791,4.791,4.81,4.791,4.791,4.81,4.81,4.81,4.81,4.81,4.791,4.791,4.791,4.791,4.791,4.791,4.791,4.81,4.81,4.81,4.81,4.81,4.83,4.83,4.83,4.83,4.83,4.851,4.851,4.851,4.851,4.851,4.851,4.851,4.851,4.851,4.851,4.871,4.891,4.912,4.912,4.933,4.954,4.975,4.996,5.018,5.018,5.04,5.04,5.04,5.04,5.04,5.04,5.04,5.04,5.04,5.04,5.04,5.084,5.084,5.106,5.106,5.151,5.174,5.174,5.174,5.174,5.174,5.174,5.174,5.151,5.106,5.084,5.084,5.04,5.04,5.04,5.018,5.018,5.04,5.04,5.084,5.106,5.151,5.174,5.174,5.22,5.244,5.244,5.22,5.22,5.22,5.22,5.22,5.174,5.174,5.151,5.151,5.106,5.151,5.151,5.151,5.174,5.22,5.244,5.268,5.316,5.34,5.389,5.415,5.415,5.415,5.415,5.415,5.415,5.415,5.415,5.389,5.34,5.34,5.34,5.34,5.34,5.34,5.389,5.415,5.44,5.465,5.465,5.465,5.465,5.465,5.465,5.465,5.465,5.465,5.44,5.44,5.44,5.44,5.44,5.44,5.44,5.44,5.44,5.44,5.44,5.44,5.44,5.44,5.44,5.415,5.415,5.415,5.389,5.389,5.34,5.34,5.316,5.316,5.316,5.316,5.316,5.34,5.34,5.34,5.389,5.415,5.415,5.44,5.44,5.44,5.44,5.415,5.389,5.389,5.34,5.316,5.268,5.244,5.22,5.174,5.174,5.106,5.106,5.084,5.084,5.04,5.04,5.018,5.018,4.996,4.996,4.975,4.975,4.975,4.954,4.954,4.954,4.954,4.954,4.954,4.954,4.954,4.975,4.996,4.996,5.018,5.04,5.04,5.084,5.106,5.151,5.151,5.174,5.174,5.174,5.151,5.151,5.106,5.084,5.084,5.018,4.996,4.996,4.975,4.954,4.954,4.933,4.933,4.933,4.933,4.933,4.933,4.933,4.954,4.933,4.954,4.954,4.954,4.954,4.954,4.933,4.933,4.933,4.933,4.912,4.912,4.912,4.891,4.891,4.871,4.851,4.83,4.83,4.81,4.81,4.81,4.81,4.791,4.791,4.81,4.81,4.81,4.81,4.81,4.83,4.83,4.851,4.851,4.851,4.851,4.851,4.851,4.851,4.851,4.851,4.83,4.83,4.83,4.81,4.81,4.81,4.81,4.81,4.81,4.83,4.83,4.83,4.851,4.871,4.891,4.912,4.912,4.933,4.954,4.975,4.975,4.954,4.954,4.912,4.912,4.891,4.851,4.83,4.83,4.791,4.771,4.732,4.713,4.694,4.638,4.638,4.601,4.583,4.601,4.601,4.601,4.638,4.638,4.657,4.694,4.713,4.713,4.732,4.732,4.732,4.732,4.732,4.732,4.657,4.638,4.601,4.565,4.53,4.512,4.477,4.46,4.426,4.426,4.46,4.46,4.512,4.53,4.583,4.601,4.657,4.694,4.713,4.732,4.732,4.732,4.713,4.657,4.638,4.583,4.53,4.46,4.393,4.233,4.07,0.0,3.4909999999999997,3.326,3.207,3.189,3.163,3.163,3.163,3.181,3.189,3.198,3.225,3.2486249999999997,3.27,3.326,3.355,3.365,3.365,3.355,3.355,3.336,3.326,3.298,3.288,3.288,3.326,3.3455000000000004,3.365,3.424,3.485,3.649,0.0,0.0,3.973,4.233,4.328,4.393,4.41,4.46,4.46,4.46,4.46,4.46,4.46,4.46,4.426,4.41,4.393,4.393,4.376,4.36,4.344,4.328,4.328,4.328,4.312
