0,0,0,0,0,0,0,0,0,0,0,0,0,0,0,0,0,0,0,0,3.528,3.496,3.496,3.485,3.465,3.465,3.465,3.465,3.465,3.465,3.465,3.465,3.465,3.475,3.475,3.475,3.475,3.475,3.475,3.485,3.485,3.485,3.485,3.496,3.496,3.496,3.506,3.517,3.517,3.528,3.528,3.528,3.538,3.549,3.549,3.56,3.582,3.593,3.615,3.627,3.627,3.649,3.649,3.661,3.661,3.661,3.661,3.661,3.661,3.661,3.661,3.672,3.661,3.661,3.661,3.661,3.661,3.661,3.661,3.661,3.661,3.661,3.672,3.672,3.696,3.696,3.707,3.707,3.731,3.731,3.731,3.743,3.743,3.743,3.743,3.767,3.767,3.78,3.792,3.792,3.792,3.792,3.792,3.792,3.78,3.78,3.767,3.755,3.755,3.743,3.743,3.731,3.731,3.731,3.731,3.743,3.755,3.755,3.755,3.78,3.78,3.792,3.792,3.792,3.804,3.804,3.804,3.804,3.804,3.792,3.792,3.804,3.804,3.804,3.804,3.804,3.817,3.817,3.817,3.829,3.829,3.842,3.842,3.855,3.855,3.855,3.868,3.868,3.868,3.868,3.868,3.868,3.868,3.88,3.88,3.88,3.868,3.868,3.868,3.868,3.855,3.855,3.855,3.855,3.842,3.842,3.829,3.829,3.829,3.829,3.817,3.817,3.804,3.792,3.78,3.767,3.767,3.755,3.743,3.743,3.731,3.731,3.743,3.743,3.755,3.767,3.755,3.78,3.792,3.804,3.817,3.817,3.829,3.855,3.855,3.868,3.88,3.893,3.893,3.92,3.946,4.014,4.07,4.158,4.233,0,0,0,4.583,0,4.638,4.601,4.565,4.477,4.41,4.328,4.264,4.203,0,0,3.92,3.88,3.855,3.829,3.817,3.804,3.767,3.731,0,3.707,3.731,3.743,3.767,3.78,3.804,3.829,3.842,3.855,3.88,3.893,3.906,3.906,3.906,3.92,3.92,3.92,3.92,3.92,3.933,3.946,3.946,3.973,3.973,3.973,3.973,3.987,3.987,3.987,4.014,4.014,4.014,4.028,4.028,4.028,4.056,4.056,4.056,4.056,4.07,4.07,4.07,4.07,4.085,4.085,4.085,4.085,4.085,4.114,4.114,4.114,4.128,4.128,4.128,4.158,4.158,4.158,4.158,4.158,4.158,4.173,4.173,4.173,4.188,4.188,4.203,4.203,4.218,4.218,4.218,4.233,4.233,4.233,4.233,4.233,4.233,4.233,4.249,4.249,4.249,4.264,4.264,4.264,4.264,4.28,4.28,4.28,4.28,4.28,4.28,4.28,4.28,4.28,4.28,4.264,4.264,4.264,4.249,4.249,4.233,4.218,4.218,4.203,4.203,4.203,4.188,4.188,4.173,4.173,4.158,4.158,4.128,4.114,4.085,4.028,3.987,3.946,3.92,3.906,3.893,3.88,3.88,3.893,3.92,3.973,4.056,4.114,4.203,4.249,4.264,4.28,4.28,4.296,4.312,4.296,4.296,4.312,4.296,4.296,4.296,4.296,4.296,4.296,4.296,4.296,4.312,4.312,4.312,4.312,4.312,4.312,4.312,4.312,4.312,4.312,4.296,4.296,4.296,4.28,4.28,4.28,4.28,4.28,4.28,4.28,4.28,4.28,4.28,4.28,4.28,4.296,4.296,4.312,4.312,4.328,4.328,4.344,4.36,4.376,4.393,4.41,4.426,4.46,4.46,4.477,4.477,4.477,4.512,4.512,4.512,4.512,4.512,4.477,4.477,4.477,4.512,4.512,4.512,4.53,4.565,4.565,4.583,4.583,4.601,4.601,4.638,4.638,4.601,4.601,4.583,4.565,4.53,4.53,4.477,4.477,4.46,4.426,4.426,4.426,4.426,4.46,4.46,4.477,4.512,4.512,4.53,4.583,4.583,4.601,4.638,4.657,4.657,4.694,4.694,4.694,4.694,4.657,4.657,4.657,4.638,4.601,4.583,4.583,4.565,4.53,4.512,4.512,4.46,4.426,4.426,4.41,4.393,4.376,4.376,4.376,4.376,4.376,4.376,4.376,4.393,4.393,4.41,4.41,4.426,4.46,4.46,4.477,4.477,4.477,4.477,4.477,4.477,4.477,4.477,4.477,4.477,4.477,4.46,4.46,4.426,4.41,4.393,4.393,4.376,4.36,4.344,4.328,4.328,4.312,4.296,4.085,0,3.696,3.355,3.207,3.172,3.155,3.138,3.138,3.129,3.129,3.121,3.121,3.121,3.121,3.121,3.121,3.121,3.129,3.138,3.146,3.155,3.163,3.181,3.181,3.172,3.172,3.163,3.155,3.146,3.138,3.129,3.113,3.096,3.072,3.055,3.039,3.024,3.016,3,2.993,2.977,2.97,2.97,2.962,2.962,2.962,2.955,2.955,2.955,2.955,2.955,2.955,2.947,2.947,2.947,2.947,2.955,2.962,2.97,2.97,2.97,2.97,2.977,2.993,2.977,2.977,2.97,2.977,2.925,0,2.955,2.977,3.024,3.096,0,0,0,0,0,0,0,4.014,4.056,4.085,4.114,4.128,4.158,4.188,4.203,4.233,4.218,4.233,4.249,4.249,4.249,4.249,0,0,0,0,0,0,0,0
0,0,0,0,0,0,0,0,0,0,0,0,0,0,0,0,0,3.672,0,0,3.549,3.528,3.506,3.496,3.475,3.465,3.465,3.465,3.465,3.465,3.465,3.454,3.454,3.465,3.465,3.465,3.465,3.475,3.475,3.485,3.485,3.485,3.496,3.496,3.496,3.506,3.517,3.528,3.528,3.538,3.538,3.549,3.56,3.56,3.56,3.582,3.615,3.615,3.627,3.649,3.649,3.649,3.661,3.672,3.672,3.672,3.672,3.672,3.696,3.696,3.696,3.672,3.672,3.672,3.672,3.672,3.672,3.672,3.672,3.672,3.672,3.672,3.672,3.696,3.696,3.707,3.707,3.731,3.731,3.731,3.743,3.743,3.743,3.755,3.755,3.78,3.78,3.792,3.804,3.804,3.804,3.804,3.804,3.804,3.804,3.804,3.792,3.792,3.78,3.767,3.767,3.767,3.755,3.755,3.767,3.767,3.767,3.78,3.78,3.792,3.804,3.804,3.804,3.804,3.804,3.804,3.804,3.817,3.804,3.804,3.804,3.804,3.804,3.817,3.817,3.817,3.817,3.829,3.829,3.829,3.842,3.842,3.855,3.855,3.855,3.868,3.868,3.88,3.88,3.88,3.88,3.893,3.88,3.88,3.88,3.88,3.88,3.88,3.868,3.868,3.868,3.855,3.855,3.855,3.855,3.855,3.855,3.842,3.842,3.842,3.829,3.829,3.817,3.817,3.804,3.804,3.792,3.78,3.78,3.78,3.767,3.767,3.78,3.78,3.78,3.792,3.792,3.804,3.817,3.817,3.829,3.842,3.855,3.868,3.868,3.88,3.893,3.92,3.92,3.933,3.973,4.028,4.07,4.158,4.218,4.264,4.328,4.393,4.477,4.53,4.53,4.53,4.46,4.41,4.36,4.312,4.264,4.203,4.128,4.056,3.946,3.893,3.868,3.855,3.842,3.817,3.804,3.792,0,3.767,3.78,3.78,3.804,3.804,3.817,3.829,3.855,3.868,3.88,3.893,3.906,3.92,3.92,3.92,3.92,3.933,3.933,3.946,3.973,3.987,3.987,4.014,4.014,4.014,4.028,4.028,4.028,4.056,4.056,4.056,4.07,4.07,4.07,4.085,4.085,4.085,4.085,4.085,4.085,4.114,4.114,4.114,4.114,4.114,4.114,4.114,4.114,4.114,4.114,4.114,4.114,4.114,4.114,4.114,4.114,4.128,4.128,4.128,4.128,4.158,4.158,4.173,4.173,4.188,4.188,4.203,4.218,4.218,4.233,4.233,4.233,4.233,4.249,4.249,4.249,4.249,4.249,4.249,4.264,4.264,4.264,4.264,4.28,4.28,4.28,4.28,4.28,4.296,4.296,4.296,4.296,4.296,4.28,4.28,4.28,4.264,4.264,4.264,4.249,4.249,4.249,4.249,4.233,4.233,4.218,4.218,4.218,4.218,4.203,4.188,4.188,4.173,4.158,4.114,4.028,3.987,3.946,3.92,3.893,3.88,3.88,3.88,3.92,3.946,4.014,4.085,4.188,4.249,4.264,0,4.28,4.296,4.312,4.312,4.312,4.312,4.312,4.312,4.296,4.296,4.296,4.296,4.296,4.312,4.312,4.312,4.312,4.312,4.312,4.312,4.312,4.312,4.312,4.312,4.312,4.312,4.312,4.312,4.312,4.296,4.296,4.296,4.296,4.296,4.296,4.296,4.296,4.312,4.312,4.312,4.312,4.328,4.328,4.328,4.344,4.376,4.393,4.41,4.426,4.426,4.46,4.477,4.477,4.512,4.512,4.512,4.53,4.53,4.53,4.53,4.53,4.53,4.53,4.53,4.53,4.565,4.583,4.583,4.583,4.601,4.601,4.638,4.638,4.657,4.657,4.657,4.638,4.638,4.601,4.583,4.565,4.53,4.512,4.477,4.477,4.46,4.46,4.46,4.46,4.477,4.477,4.53,4.53,4.565,4.583,4.601,4.638,4.657,4.657,4.657,4.694,4.694,4.694,4.694,4.694,4.657,4.657,4.657,4.638,4.601,4.583,4.565,4.565,4.53,4.512,4.512,4.46,4.426,4.426,4.41,4.41,4.393,4.393,4.376,4.376,4.376,4.376,4.393,4.41,4.41,4.426,4.46,4.477,4.512,4.512,4.53,4.53,4.53,4.565,4.565,4.53,4.565,4.565,4.53,4.53,4.512,4.512,4.477,4.477,4.46,4.41,4.41,4.393,4.376,4.36,4.344,4.328,4.328,4.218,3.987,0,0,0,3.181,3.163,3.146,3.138,3.138,3.138,3.129,3.129,3.129,3.121,3.121,3.121,3.129,3.129,3.129,3.138,3.146,3.155,3.163,3.172,3.172,3.172,3.163,3.163,3.155,3.146,3.138,3.121,3.104,3.08,3.055,3.047,3.024,3.016,2.993,2.993,2.977,2.97,2.97,2.962,2.962,2.962,2.955,2.955,2.955,2.955,2.955,2.955,2.947,2.947,2.947,2.94,2.932,2.932,2.925,2.918,2.91,2.91,2.91,2.91,2.91,2.91,2.91,2.91,2.896,2.903,2.903,2.91,2.918,0,2.94,0,0,0,0,0,0,0,4.056,4.085,4.114,4.128,4.158,4.188,4.203,4.218,4.233,4.249,4.249,4.249,4.249,4.249,4.264,0,0,0,0,0,0,0,0
0,0,0,0,0,0,0,0,0,0,0,0,0,0,0,0,0,0,3.731,3.661,3.615,3.582,3.549,3.517,3.496,3.485,3.485,3.485,3.485,3.475,3.465,3.465,3.465,3.475,3.475,3.475,3.475,3.475,3.485,3.485,3.496,3.496,3.496,3.506,3.517,3.517,3.528,3.538,3.538,3.549,3.56,3.56,3.582,3.593,3.593,3.615,3.627,3.627,3.649,3.649,3.661,3.672,3.672,3.672,3.696,3.696,3.696,3.696,3.696,3.696,3.696,3.696,3.696,3.696,3.696,3.696,3.672,3.672,3.672,3.672,3.696,3.696,3.696,3.707,3.707,3.707,3.731,3.731,3.731,3.731,3.743,3.755,3.755,3.767,3.78,3.792,3.804,3.804,3.804,3.817,3.817,3.817,3.817,3.817,3.817,3.817,3.804,3.804,3.804,3.804,3.792,3.792,3.792,3.792,3.792,3.792,3.792,3.792,3.804,3.804,3.804,3.817,3.817,3.817,3.817,3.817,3.817,3.817,3.817,3.817,3.817,3.817,3.817,3.817,3.817,3.829,3.829,3.829,3.829,3.842,3.842,3.855,3.855,3.868,3.868,3.868,3.868,3.88,3.893,3.893,3.893,3.893,3.893,3.893,3.893,3.893,3.893,3.88,3.868,3.868,3.868,3.855,3.855,3.855,3.855,3.855,3.855,3.855,3.855,3.855,3.855,3.855,3.842,3.829,3.829,3.817,3.817,3.817,3.804,3.804,3.804,3.804,3.804,3.804,3.804,3.817,3.817,3.817,3.829,3.829,3.842,3.855,3.868,3.868,3.88,3.893,3.92,3.933,3.933,3.946,3.987,4.028,4.07,4.128,4.188,4.249,4.28,4.312,4.344,0,0,0,4.344,4.328,4.312,4.28,4.233,4.173,4.128,4.07,3.987,3.933,3.906,3.88,3.868,3.855,3.829,3.817,3.804,3.804,3.804,3.817,3.817,3.829,3.829,3.855,3.855,3.868,3.868,3.88,3.893,3.906,3.92,3.933,3.933,3.946,3.973,3.987,4.014,4.028,4.056,4.056,4.056,4.07,4.07,4.07,4.07,4.085,4.085,4.085,4.085,4.114,4.114,4.114,4.128,4.128,4.128,4.128,4.128,4.128,4.128,4.128,4.114,4.114,4.114,4.114,4.114,4.114,4.085,4.085,4.085,4.085,4.085,4.085,4.085,4.085,0,4.114,4.114,4.128,0,4.158,4.173,0,4.188,4.203,4.218,4.233,4.233,4.233,4.249,4.249,4.249,4.249,4.249,4.249,4.249,4.264,4.264,4.264,4.28,4.28,4.28,4.28,4.296,4.296,4.296,4.296,4.296,4.296,4.312,4.296,4.28,4.28,4.28,4.28,4.28,4.264,4.264,4.264,4.264,4.249,4.249,4.249,4.249,4.249,4.249,4.249,4.233,4.233,4.218,4.218,4.203,4.173,4.07,4.028,3.987,3.933,3.92,3.906,3.893,3.906,3.92,3.973,4.014,4.114,4.218,0,4.249,4.264,4.28,4.296,4.312,4.312,4.312,4.312,4.312,4.312,4.312,4.312,4.312,4.312,4.312,4.312,4.312,4.312,4.312,4.312,4.312,4.312,4.312,4.312,4.312,4.312,4.328,4.312,4.312,4.312,4.312,4.312,4.312,4.312,4.312,4.312,4.312,4.312,4.328,4.328,4.328,4.328,4.328,4.344,4.36,4.36,4.376,4.393,4.41,4.426,4.46,4.46,4.477,4.477,4.512,4.53,4.53,4.53,4.565,4.565,4.565,4.583,4.583,4.583,4.583,4.583,4.583,4.601,4.601,4.601,4.638,4.638,4.657,4.657,4.694,4.694,4.694,4.694,4.657,4.657,4.638,4.601,4.583,4.565,4.53,4.512,4.512,4.477,4.477,4.477,4.512,4.512,4.53,4.565,4.583,4.583,4.601,4.638,4.657,4.657,4.657,4.657,4.694,4.694,4.694,4.694,4.694,4.657,4.638,4.638,4.638,4.601,4.601,4.583,4.565,4.565,4.53,4.512,4.477,4.46,4.46,4.426,4.426,4.41,4.41,4.41,4.41,4.41,4.41,4.426,4.426,4.46,4.477,4.512,4.53,4.53,4.565,4.583,4.601,4.601,4.601,4.601,4.601,4.601,4.601,4.583,4.583,4.565,4.53,4.53,4.512,4.477,4.46,4.426,4.41,4.393,4.376,4.36,4.344,4.328,4.158,3.868,3.465,3.326,3.207,3.163,3.155,3.146,3.138,3.138,3.129,3.129,3.129,3.129,3.129,3.129,3.129,3.129,3.129,3.138,3.146,3.146,3.155,3.163,3.172,3.172,3.172,3.163,3.163,3.155,3.146,3.138,3.121,3.096,3.08,3.047,3.039,3.016,3,2.993,2.977,2.97,2.97,2.962,2.962,2.955,2.955,2.955,2.955,2.955,2.955,2.955,2.955,2.947,2.955,2.947,2.94,2.932,2.932,2.925,2.918,2.91,2.91,2.903,2.903,2.903,2.903,2.896,2.896,2.896,2.896,2.903,2.903,2.903,2.903,0,2.947,0,0,0,0,0,0,4.114,4.128,4.158,4.173,4.188,4.218,4.233,4.249,4.249,4.249,4.264,4.264,4.264,4.264,4.264,0,0,0,0,0,0,0,0
0,0,0,0,0,0,0,0,0,0,0,0,0,0,0,0,0,0,0,3.755,3.696,3.661,3.615,3.549,3.528,3.517,3.506,3.496,3.496,3.485,3.485,3.475,3.465,3.465,3.465,3.475,3.475,3.475,3.475,3.485,3.496,3.496,3.506,3.517,3.528,3.538,3.538,3.549,3.56,3.56,3.582,3.582,3.593,3.615,3.615,3.627,3.627,3.649,3.661,3.672,3.672,3.672,3.672,3.696,3.707,3.707,3.707,3.707,3.707,3.696,3.707,3.707,3.707,3.707,3.696,3.696,3.696,3.696,3.696,3.696,3.696,3.707,3.707,3.707,3.731,3.731,3.731,3.731,3.731,3.743,3.743,3.755,3.767,3.767,3.792,3.804,3.804,3.817,3.817,3.817,3.829,3.829,3.829,3.829,3.829,3.829,3.817,3.817,3.817,3.817,3.817,3.817,3.804,3.804,3.804,3.804,3.817,3.817,3.817,3.817,3.817,3.817,3.829,3.829,3.829,3.829,3.829,3.829,3.829,3.829,3.829,3.829,3.829,3.829,3.829,3.829,3.829,3.829,3.829,3.842,3.842,3.855,3.855,3.855,3.868,3.868,3.868,3.88,3.893,3.893,3.906,3.906,3.906,3.906,3.906,3.893,3.893,3.88,3.88,3.868,3.868,3.868,3.855,3.855,3.855,3.855,3.855,3.855,3.868,3.855,3.868,3.855,3.855,3.855,3.855,3.842,3.842,3.829,3.829,3.817,3.817,3.817,3.817,3.817,3.817,3.829,3.829,3.829,3.829,3.855,3.855,3.868,3.868,3.88,3.906,3.92,3.933,3.946,3.946,3.973,3.987,4.014,4.028,4.056,4.114,4.173,4.218,4.249,4.264,4.28,4.296,4.296,4.28,4.28,4.264,4.249,4.218,4.173,4.128,4.085,4.056,3.987,3.933,3.906,3.906,3.88,3.855,3.842,3.842,3.842,3.842,3.842,3.842,3.855,3.855,3.868,3.868,3.88,3.893,3.906,3.906,3.92,3.933,3.973,3.987,4.014,4.028,4.056,4.07,4.085,4.114,4.114,4.114,4.114,4.128,4.128,4.128,4.128,4.128,4.158,4.158,4.158,4.158,4.158,4.158,4.158,4.158,4.173,4.173,4.158,4.158,4.158,4.128,4.128,4.128,4.114,4.114,4.085,4.085,4.085,4.07,4.07,4.07,4.07,4.07,4.085,4.085,4.085,4.114,4.114,4.128,4.158,4.173,0,4.188,4.203,4.218,4.233,4.233,4.249,4.249,4.249,4.249,4.249,4.249,4.264,4.264,4.264,4.264,4.28,4.28,4.28,4.28,4.296,4.296,4.296,4.296,4.312,4.296,4.312,4.312,4.296,4.296,4.28,4.28,4.28,4.28,4.264,4.264,4.264,4.264,4.264,4.264,4.249,4.249,4.249,4.249,4.249,4.249,4.249,4.249,4.233,4.233,4.203,4.173,4.07,4.028,3.973,3.946,3.92,3.92,3.92,3.933,3.987,4.028,4.128,4.203,0,4.249,4.264,4.28,4.296,4.312,4.312,4.312,4.312,4.312,4.312,4.312,4.312,4.296,4.296,4.296,4.312,4.312,4.312,4.312,4.312,4.312,4.312,4.312,4.328,4.328,4.328,4.328,4.328,4.328,4.328,4.328,4.328,4.328,4.328,4.328,4.328,4.328,4.328,4.328,4.344,4.344,4.36,4.36,4.376,4.393,4.393,4.41,4.426,4.426,4.46,4.477,4.477,4.512,4.512,4.53,4.565,4.565,4.583,4.583,4.601,4.601,4.601,4.601,4.601,4.601,4.638,4.638,4.638,4.657,4.657,4.657,4.657,4.657,4.657,4.694,4.694,4.694,4.657,4.657,4.638,4.638,4.601,4.583,4.565,4.565,4.53,4.53,4.512,4.512,4.53,4.53,4.565,4.583,4.601,4.601,4.638,4.657,4.657,4.657,4.694,4.694,4.694,4.694,4.694,4.694,4.694,4.657,4.657,4.657,4.638,4.638,4.601,4.601,4.583,4.565,4.565,4.565,4.53,4.512,4.512,4.477,4.46,4.46,4.426,4.426,4.426,4.426,4.46,4.46,4.46,4.512,4.512,4.53,4.565,4.583,4.583,4.601,4.638,4.657,4.657,4.657,4.657,4.657,4.657,4.657,4.657,4.638,4.601,4.583,4.565,4.53,4.512,4.477,4.46,4.426,4.41,4.393,4.376,4.36,4.344,4.264,0,0,3.234,3.181,3.155,3.155,3.146,3.138,3.138,3.129,3.129,3.129,3.121,3.129,3.129,3.129,3.129,3.129,3.138,3.138,3.146,3.155,3.163,3.163,3.172,3.172,3.163,3.163,3.155,3.146,3.138,3.113,3.096,3.055,3.047,3.024,3,2.993,2.977,2.97,2.962,2.962,2.955,2.955,2.955,2.955,2.955,2.955,2.955,2.955,2.955,2.955,2.947,2.947,2.947,2.94,2.932,2.932,2.925,2.918,2.91,2.91,2.91,2.903,2.903,2.903,2.896,2.896,2.896,2.903,2.91,2.91,2.925,0,2.955,3.072,0,0,0,0,0,0,4.158,4.188,4.203,4.203,4.218,4.233,4.249,4.249,4.264,4.264,4.264,4.28,4.28,4.28,4.28,0,0,0,0,0,0,0,0
0,0,0,0,0,0,0,0,0,0,4.312,4.28,4.28,4.264,4.218,0,0,3.987,3.868,0,3.804,3.731,3.661,3.627,3.582,3.56,3.538,3.528,3.517,3.506,3.496,3.485,3.485,3.485,3.485,3.485,3.485,3.485,3.485,3.496,3.506,3.517,3.528,3.538,3.538,3.549,3.56,3.582,3.582,3.593,3.593,3.593,3.615,3.627,3.649,3.649,3.649,3.661,3.672,3.672,3.696,3.696,3.696,3.707,3.707,3.707,3.707,3.707,3.707,3.707,3.707,3.707,3.707,3.707,3.707,3.696,3.707,3.707,3.707,3.707,3.707,3.707,3.707,3.707,3.731,3.731,3.731,3.731,3.743,3.743,3.755,3.767,3.78,3.78,3.792,3.804,3.817,3.817,3.817,3.829,3.829,3.829,3.829,3.829,3.829,3.829,3.829,3.829,3.829,3.829,3.829,3.829,3.829,3.829,3.829,3.829,3.829,3.829,3.829,3.829,3.829,3.829,3.842,3.842,3.842,3.842,3.842,3.842,3.842,3.842,3.829,3.829,3.829,3.829,3.829,3.829,3.829,3.829,3.842,3.842,3.842,3.855,3.855,3.855,3.868,3.868,3.88,3.88,3.893,3.906,3.906,3.906,3.906,3.906,3.906,3.906,3.893,3.893,3.88,3.868,3.868,3.868,3.868,3.855,3.855,3.855,3.868,3.868,3.868,3.868,3.868,3.868,3.868,3.868,3.868,3.855,3.855,3.855,3.855,3.855,3.842,3.829,3.842,3.829,3.829,3.829,3.842,3.842,3.855,3.855,3.868,3.868,3.88,3.906,3.92,3.933,3.946,3.973,3.987,4.014,4.028,4.028,4.056,4.07,4.114,4.158,4.203,4.233,4.249,4.264,4.28,4.28,4.28,4.264,4.264,4.249,4.218,4.173,4.128,4.114,4.085,4.07,3.987,3.946,3.933,3.92,3.893,3.868,3.868,3.868,3.868,3.868,3.88,3.88,3.88,3.893,3.906,3.92,3.92,3.92,3.933,3.946,3.973,4.014,4.028,4.056,4.07,4.114,4.128,4.128,4.158,4.158,4.158,4.158,4.158,4.173,4.173,4.173,4.173,4.173,4.173,4.188,4.188,4.188,4.188,4.188,4.188,4.173,4.173,4.173,4.173,4.158,4.128,4.128,4.114,4.085,4.085,4.085,4.07,4.07,4.056,4.07,4.07,4.07,4.07,4.07,4.085,4.085,4.114,4.128,0,4.158,4.173,4.188,4.203,4.218,4.233,4.233,4.249,4.249,4.249,4.249,4.264,4.264,4.264,4.264,4.264,4.28,4.28,4.28,4.296,4.296,4.296,4.312,4.312,4.312,4.312,4.312,4.312,4.312,4.296,4.296,4.296,4.28,4.28,4.28,4.28,4.28,4.28,4.28,4.28,4.264,4.264,4.264,4.264,4.264,4.264,4.264,4.264,4.264,4.249,4.249,4.249,4.233,4.203,4.173,4.085,4.028,3.987,3.973,3.946,3.946,3.987,4.028,4.07,4.158,4.218,0,4.249,4.264,4.28,0,4.312,4.312,4.312,4.312,4.312,4.312,4.296,4.296,4.296,4.296,4.296,4.312,4.312,4.312,4.312,4.312,4.312,4.312,4.328,4.328,4.328,4.328,4.328,4.328,4.328,4.328,4.328,4.328,4.328,4.328,4.328,4.344,4.344,4.344,4.36,4.376,4.376,4.393,4.393,4.41,4.41,4.426,4.46,4.46,4.477,4.477,4.512,4.512,4.512,4.53,4.53,4.565,4.583,4.583,4.601,4.638,4.638,4.657,4.657,4.657,4.657,4.657,4.657,4.657,4.657,4.657,4.657,4.657,4.657,4.657,4.657,4.657,4.657,4.638,4.638,4.638,4.601,4.583,4.583,4.583,4.565,4.565,4.565,4.565,4.565,4.565,4.583,4.601,4.601,4.638,4.657,4.657,4.657,4.694,4.694,4.713,4.694,4.694,4.694,4.694,4.694,4.694,4.694,4.657,4.657,4.657,4.638,4.638,4.601,4.601,4.601,4.583,4.565,4.565,4.565,4.53,4.512,4.512,4.512,4.477,4.477,4.477,4.477,4.477,4.512,4.53,4.565,4.565,4.583,4.601,4.638,4.657,4.694,4.694,4.713,4.713,4.713,4.713,4.713,4.713,4.713,4.694,4.657,4.638,4.601,4.601,4.565,4.53,4.512,4.477,4.46,4.426,4.41,4.393,4.376,4.36,4.264,0,0,3.189,3.163,3.146,3.146,3.138,3.129,3.129,3.129,3.129,3.121,3.121,3.129,3.129,3.129,3.121,3.129,3.129,3.138,3.146,3.155,3.163,3.163,3.163,3.163,3.163,3.155,3.155,3.146,3.121,3.104,3.08,3.055,3.024,3.016,2.993,2.977,2.962,2.962,2.955,2.955,2.947,2.947,2.947,2.947,2.947,2.947,2.955,2.955,2.947,2.955,2.955,2.947,2.94,2.932,2.932,2.925,2.918,2.91,2.91,2.91,2.91,2.903,2.903,2.903,2.91,2.91,2.925,2.94,0,2.97,3.016,3.08,3.155,3.207,0,0,0,0,0,0,4.218,4.218,4.233,4.249,4.249,4.249,4.264,4.264,4.28,4.28,4.28,4.28,4.28,4.296,4.296,0,0,0,0,0,0,0,0
0,0,0,0,0,0,0,0,0,4.328,4.312,4.28,4.28,4.264,4.249,4.188,0,4.028,0,3.868,3.829,3.817,3.731,3.696,3.661,3.627,3.627,3.593,3.56,3.549,3.528,3.506,3.496,3.496,3.496,3.496,3.496,3.496,3.496,3.506,3.528,3.538,3.549,3.56,3.582,3.593,3.615,3.615,3.615,3.615,3.627,3.615,3.649,3.649,3.649,3.661,3.661,3.672,3.696,3.696,3.696,3.696,3.707,3.707,3.707,3.707,3.707,3.707,3.707,3.707,3.707,3.707,3.707,3.707,3.707,3.707,3.707,3.707,3.707,3.731,3.731,3.731,3.731,3.743,3.743,3.743,3.743,3.743,3.755,3.755,3.767,3.78,3.792,3.792,3.804,3.817,3.817,3.829,3.829,3.829,3.829,3.842,3.842,3.842,3.842,3.842,3.842,3.842,3.842,3.842,3.842,3.842,3.842,3.842,3.842,3.842,3.842,3.842,3.842,3.855,3.855,3.855,3.855,3.855,3.855,3.855,3.855,3.855,3.855,3.842,3.842,3.842,3.842,3.842,3.842,3.842,3.842,3.842,3.842,3.842,3.842,3.855,3.855,3.855,3.868,3.868,3.868,3.88,3.893,3.893,3.906,3.906,3.92,3.92,3.92,3.906,3.906,3.893,3.88,3.868,3.868,3.855,3.855,3.855,3.855,3.855,3.855,3.855,3.855,3.855,3.868,3.868,3.868,3.868,3.868,3.868,3.868,3.868,3.868,3.855,3.855,3.855,3.855,3.855,3.855,3.855,3.855,3.855,3.868,3.868,3.868,3.88,3.893,3.92,3.933,3.946,3.973,4.014,4.014,4.028,4.056,4.056,4.07,4.085,4.114,4.128,4.173,4.188,4.218,4.249,4.249,4.249,4.249,4.249,4.233,4.218,4.188,4.173,4.128,4.114,4.114,4.085,4.056,3.987,3.987,3.973,3.933,3.92,3.906,3.906,3.906,3.906,3.906,3.906,3.906,3.92,3.933,3.933,3.933,3.946,3.973,3.987,4.014,4.056,4.07,4.085,4.114,4.128,4.173,4.188,4.188,4.188,4.203,4.203,4.203,4.203,4.203,4.233,4.218,4.218,4.218,4.218,4.218,4.218,4.218,4.203,4.188,4.188,4.173,4.173,4.158,4.128,4.128,4.114,4.085,4.085,4.085,4.07,4.07,4.056,4.056,4.07,4.07,4.07,4.07,4.085,4.085,0,4.114,4.128,4.158,4.173,4.188,4.203,4.218,4.233,4.249,4.249,4.249,4.264,4.264,4.264,4.264,4.264,4.28,4.28,4.28,4.28,4.28,4.28,4.312,4.312,4.312,4.312,4.312,4.312,4.312,4.312,4.312,4.312,4.312,4.312,4.312,4.296,4.296,4.296,4.28,4.28,4.28,4.28,4.28,4.28,4.28,4.28,4.264,4.264,4.264,4.28,4.28,4.28,4.28,4.28,4.28,4.264,4.264,4.249,4.233,4.188,4.07,4.028,4.028,4.028,4.056,4.085,4.114,4.173,0,4.233,4.264,4.28,4.28,4.296,4.312,4.312,4.312,4.312,4.312,4.312,4.296,4.296,4.296,4.296,4.296,4.312,4.312,4.312,4.312,4.312,4.312,4.312,4.328,4.328,4.328,4.328,4.328,4.328,4.328,4.328,4.328,4.328,4.328,4.328,4.344,4.36,4.36,4.376,4.376,4.393,4.41,4.426,4.426,4.46,4.46,4.477,4.477,4.477,4.512,4.512,4.512,4.53,4.53,4.53,4.565,4.583,4.583,4.638,4.638,4.657,4.657,4.694,4.694,4.694,4.694,4.694,4.694,4.657,4.657,4.657,4.657,4.657,4.638,4.638,4.638,4.638,4.601,4.601,4.601,4.601,4.583,4.583,4.583,4.583,4.565,4.565,4.583,4.583,4.583,4.583,4.601,4.638,4.638,4.657,4.657,4.694,4.694,4.713,4.713,4.713,4.713,4.713,4.713,4.713,4.713,4.713,4.713,4.713,4.694,4.657,4.657,4.657,4.638,4.638,4.638,4.601,4.601,4.583,4.583,4.565,4.565,4.53,4.53,4.53,4.53,4.53,4.53,4.53,4.565,4.583,4.601,4.638,4.638,4.694,4.694,4.713,4.732,4.732,4.732,4.732,4.732,4.732,4.732,4.732,4.732,4.713,4.694,4.657,4.638,4.601,4.583,4.53,4.512,4.477,4.46,4.46,4.426,4.426,4.41,4.203,0,0,0,3.163,3.155,3.146,3.138,3.129,3.129,3.129,3.129,3.121,3.121,3.121,3.121,3.121,3.121,3.121,3.121,3.121,3.129,3.146,3.146,3.155,3.163,3.163,3.163,3.163,3.155,3.155,3.138,3.121,3.096,3.072,3.047,3.024,3,2.977,2.97,2.962,2.955,2.955,2.947,2.947,2.947,2.947,2.947,2.947,2.947,2.955,2.955,2.955,2.955,2.955,2.947,2.94,2.94,2.932,2.925,2.925,2.918,2.91,2.91,2.91,2.91,2.918,2.925,2.94,0,2.962,3.016,3.055,3.121,3.163,3.198,3.317,0,3.434,0,0,0,0,0,4.233,4.249,4.249,4.249,4.264,4.264,4.28,4.28,4.296,4.296,4.296,4.296,4.296,4.312,4.312,0,0,0,0,0,0,0,0
0,0,0,0,0,0,0,0,4.393,0,0,4.328,4.296,4.28,4.264,4.203,4.158,0,4.014,3.92,3.868,3.855,3.817,3.767,3.731,3.707,3.696,3.661,3.649,3.615,3.593,3.56,3.538,3.528,3.517,3.506,3.506,3.506,3.517,3.528,3.538,3.549,3.582,3.593,3.615,3.615,3.627,3.649,3.649,3.649,3.649,3.661,3.661,3.661,3.661,3.672,3.672,3.672,3.696,3.707,3.707,3.696,3.696,3.707,3.707,3.707,3.707,3.707,3.707,3.707,3.731,3.731,3.731,3.731,3.731,3.731,3.731,3.731,3.731,3.743,3.743,3.743,3.755,3.755,3.755,3.767,3.767,3.767,3.767,3.78,3.78,3.792,3.804,3.804,3.804,3.817,3.817,3.829,3.829,3.829,3.829,3.842,3.842,3.842,3.855,3.855,3.855,3.855,3.855,3.855,3.855,3.855,3.855,3.855,3.855,3.855,3.855,3.855,3.855,3.855,3.855,3.855,3.855,3.855,3.855,3.855,3.855,3.855,3.855,3.855,3.855,3.855,3.855,3.855,3.842,3.855,3.855,3.842,3.842,3.855,3.855,3.855,3.855,3.855,3.868,3.868,3.868,3.88,3.893,3.893,3.906,3.92,3.92,3.92,3.92,3.906,3.906,3.88,3.88,3.855,3.855,3.855,3.855,3.842,3.842,3.842,3.842,3.842,3.855,3.855,3.855,3.855,3.855,3.855,3.868,3.868,3.868,3.868,3.868,3.868,3.868,3.868,3.868,3.855,3.868,3.868,3.868,3.868,3.868,3.868,3.88,3.906,3.92,3.933,3.946,3.973,4.014,4.028,4.056,4.07,4.07,4.085,4.114,4.114,4.128,4.128,4.158,4.173,4.188,4.188,4.203,4.203,4.203,4.188,4.188,4.188,4.173,4.128,4.128,4.114,4.085,4.085,4.07,4.028,4.014,3.987,3.973,3.946,3.933,3.933,3.933,3.933,3.933,3.92,3.92,3.933,3.933,3.946,3.946,3.973,3.987,4.014,4.056,4.07,4.114,4.128,4.188,4.203,4.218,4.233,4.233,4.233,4.233,4.233,4.249,4.249,4.249,4.249,4.233,4.233,4.233,4.233,4.218,4.218,4.218,4.203,4.188,4.173,4.173,4.158,4.128,4.128,4.114,4.085,4.085,4.085,4.085,4.085,4.07,4.07,4.07,4.07,4.07,4.085,4.085,4.085,4.114,4.128,4.128,4.158,4.173,4.188,4.203,4.218,4.233,4.249,4.249,4.264,4.264,4.264,4.28,4.28,4.28,4.28,4.28,4.28,4.296,4.296,4.312,4.312,4.312,4.312,4.312,4.328,4.328,4.328,4.328,4.328,4.312,4.312,4.312,4.312,4.312,4.312,4.296,4.296,4.28,4.28,4.28,4.28,4.28,4.28,4.28,4.28,4.28,4.28,4.28,4.28,4.28,4.28,4.28,4.28,4.28,4.28,4.264,4.264,4.264,4.249,4.218,4.218,4.188,4.188,4.188,4.188,4.203,4.218,4.249,4.264,4.28,4.28,4.28,4.296,4.312,4.312,4.312,4.312,4.312,4.296,4.296,4.296,4.296,4.296,4.312,4.312,4.312,4.312,4.312,4.312,4.312,4.312,4.328,4.328,4.328,4.328,4.328,4.328,4.328,4.328,4.328,4.344,4.344,4.36,4.36,4.376,4.393,4.41,4.41,4.426,4.426,4.46,4.477,4.477,4.512,4.512,4.512,4.53,4.53,4.53,4.53,4.53,4.565,4.565,4.583,4.601,4.601,4.638,4.657,4.694,4.694,4.713,4.713,4.713,4.713,4.713,4.694,4.694,4.657,4.657,4.638,4.638,4.638,4.601,4.583,4.583,4.583,4.583,4.583,4.583,4.583,4.583,4.565,4.583,4.583,4.583,4.583,4.583,4.601,4.638,4.638,4.657,4.694,4.694,4.713,4.713,4.713,4.732,4.732,4.732,4.713,4.713,4.713,4.732,4.732,4.732,4.713,4.713,4.713,4.713,4.713,4.694,4.694,4.657,4.657,4.638,4.638,4.601,4.601,4.601,4.583,4.565,4.565,4.565,4.565,4.583,4.583,4.583,4.601,4.638,4.657,4.694,4.713,4.732,4.732,4.752,4.752,4.771,4.771,4.771,4.771,4.752,4.752,4.732,4.732,4.713,4.694,4.657,4.638,4.583,4.565,4.53,4.512,4.477,4.46,4.426,4.426,4.426,4.41,4.312,0,0,3.181,3.155,3.146,3.146,3.138,3.129,3.121,3.121,3.121,3.121,3.113,3.113,3.113,3.113,3.113,3.104,3.113,3.113,3.121,3.129,3.146,3.155,3.155,3.155,3.155,3.155,3.146,3.146,3.129,3.113,3.08,3.055,3.039,3,2.977,2.97,2.955,2.955,2.947,2.947,2.947,2.947,2.947,2.947,2.947,2.947,2.947,2.955,2.955,2.955,2.955,2.947,2.947,2.94,2.94,2.932,2.925,2.925,2.918,2.91,2.91,2.925,2.932,0,2.947,2.977,3.047,3.104,3.146,3.181,3.207,0,0,0,0,0,0,0,3.92,0,4.114,4.249,4.264,4.264,4.264,4.264,4.28,4.28,4.296,4.296,4.296,4.312,4.312,4.312,4.312,4.312,0,0,0,0,0,0,0,0
0,4.28,4.28,0,4.264,0,0,0,4.393,4.393,0,4.344,4.328,4.312,4.28,4.264,4.203,4.128,4.056,3.973,3.906,3.868,3.842,3.817,3.767,3.755,3.755,3.731,3.707,3.672,3.649,3.615,3.593,3.56,3.538,3.528,3.528,3.528,3.538,3.549,3.56,3.56,3.582,3.593,3.627,3.649,3.649,3.661,3.672,3.672,3.672,3.696,3.696,3.672,3.696,3.696,3.696,3.696,3.707,3.707,3.707,3.707,3.707,3.731,3.707,3.707,3.731,3.731,3.731,3.731,3.731,3.731,3.731,3.743,3.743,3.743,3.743,3.755,3.755,3.755,3.755,3.767,3.767,3.767,3.78,3.78,3.78,3.792,3.792,3.804,3.804,3.804,3.804,3.817,3.817,3.829,3.829,3.829,3.829,3.842,3.842,3.855,3.855,3.855,3.855,3.855,3.855,3.855,3.855,3.868,3.868,3.868,3.868,3.868,3.868,3.868,3.868,3.868,3.868,3.868,3.868,3.868,3.868,3.868,3.868,3.868,3.855,3.855,3.855,3.855,3.855,3.855,3.855,3.855,3.855,3.855,3.855,3.855,3.855,3.855,3.855,3.855,3.855,3.855,3.868,3.868,3.88,3.88,3.893,3.906,3.906,3.92,3.92,3.92,3.92,3.906,3.906,3.88,3.868,3.855,3.855,3.842,3.829,3.829,3.829,3.829,3.829,3.829,3.829,3.829,3.842,3.842,3.855,3.855,3.855,3.868,3.868,3.868,3.868,3.868,3.868,3.868,3.868,3.868,3.868,3.868,3.868,3.868,3.88,3.893,3.906,3.92,3.933,3.946,3.987,4.014,4.028,4.056,4.07,4.085,4.114,4.128,4.158,4.158,4.158,4.158,4.173,4.188,4.188,4.203,4.203,4.203,4.188,4.188,4.188,4.173,4.158,4.128,4.114,4.114,4.085,4.085,4.07,4.028,4.014,4.014,3.987,3.973,3.973,3.946,3.946,3.946,3.946,3.946,3.946,3.946,3.987,4.014,4.014,4.028,4.056,4.085,4.114,4.158,4.173,4.188,4.203,4.218,4.249,4.249,4.249,4.249,4.249,4.249,4.249,4.249,4.249,4.249,4.249,4.249,4.233,4.233,4.233,4.218,4.203,4.188,4.188,4.173,4.158,4.128,4.128,4.114,4.085,4.085,4.085,4.085,4.085,4.085,4.085,4.085,4.07,4.085,4.085,4.114,4.114,4.114,4.128,4.158,4.158,4.173,4.188,4.203,4.233,4.249,4.249,4.264,4.264,4.28,4.28,4.296,4.296,4.296,4.296,4.312,4.312,4.312,4.312,4.312,4.312,4.312,4.312,4.328,4.328,4.328,4.328,4.328,4.328,4.328,4.328,4.328,4.328,4.312,4.312,4.312,4.296,4.296,4.296,4.28,4.28,4.28,4.28,4.28,4.28,4.28,4.28,4.28,4.28,4.28,4.28,4.296,4.296,4.296,4.296,4.296,4.296,4.28,4.28,4.264,4.264,4.264,4.249,4.249,4.249,4.249,4.249,4.249,4.264,4.28,4.28,4.296,4.296,4.312,4.312,4.312,4.312,4.312,4.312,4.312,4.312,4.312,4.312,4.312,4.312,4.312,4.312,4.312,4.312,4.312,4.328,4.328,4.328,4.328,4.328,4.328,4.328,4.328,4.344,4.344,4.344,4.36,4.36,4.376,4.393,4.393,4.41,4.426,4.46,4.46,4.477,4.512,4.512,4.53,4.53,4.53,4.565,4.565,4.565,4.565,4.565,4.583,4.583,4.601,4.601,4.638,4.657,4.657,4.694,4.713,4.713,4.732,4.732,4.713,4.713,4.713,4.694,4.694,4.657,4.638,4.638,4.638,4.601,4.583,4.583,4.565,4.565,4.565,4.565,4.565,4.565,4.565,4.565,4.583,4.583,4.583,4.601,4.638,4.638,4.657,4.694,4.694,4.713,4.713,4.732,4.732,4.732,4.732,4.732,4.732,4.732,4.732,4.732,4.732,4.732,4.732,4.732,4.732,4.732,4.732,4.713,4.713,4.713,4.694,4.694,4.694,4.657,4.657,4.638,4.638,4.601,4.601,4.583,4.583,4.583,4.583,4.601,4.638,4.638,4.657,0,4.694,4.713,4.713,4.732,4.752,4.771,4.771,4.771,4.771,4.771,4.752,4.732,4.732,4.713,4.694,4.657,4.638,4.601,4.583,4.565,4.512,4.512,4.477,4.46,4.426,4.46,4.41,4.376,4.264,0,0,3.155,3.138,3.146,3.138,3.129,3.129,3.129,3.121,3.121,3.113,3.113,3.113,3.104,3.104,3.096,3.096,3.096,3.104,3.104,3.121,3.138,3.146,3.146,3.155,3.146,3.146,3.146,3.138,3.121,3.096,3.072,3.047,3.024,2.993,2.97,2.962,2.947,2.947,2.947,2.94,2.94,2.94,2.94,2.94,2.947,2.947,2.947,2.955,2.955,2.955,2.955,2.947,2.947,2.94,2.932,2.932,2.925,2.925,2.925,2.918,2.932,0,2.947,2.977,3.039,3.104,3.155,3.189,0,0,0,0,0,3.517,3.627,3.767,3.842,3.92,0,4.056,4.188,4.264,4.264,4.28,4.28,4.28,4.296,4.296,4.296,4.312,4.312,4.312,4.312,4.312,4.312,4.328,0,0,0,0,0,0,0,0
4.264,4.264,4.249,4.249,4.249,4.264,4.28,4.328,4.344,4.376,4.376,0,0,4.328,4.28,4.264,4.233,4.188,4.114,0,0,3.906,3.868,3.829,3.817,3.804,3.78,3.767,3.755,3.743,3.707,3.672,3.649,3.627,3.615,3.56,3.56,3.56,3.56,3.56,3.582,3.593,3.615,3.627,3.627,3.649,3.661,3.661,3.672,3.672,3.696,3.707,3.707,3.696,3.707,3.707,3.707,3.731,3.731,3.731,3.731,3.707,3.707,3.707,3.731,3.731,3.731,3.731,3.731,3.731,3.743,3.743,3.743,3.743,3.755,3.755,3.755,3.767,3.767,3.78,3.78,3.78,3.792,3.792,3.804,3.804,3.804,3.804,3.804,3.804,3.817,3.817,3.817,3.829,3.829,3.829,3.829,3.842,3.842,3.842,3.855,3.855,3.855,3.855,3.855,3.855,3.855,3.868,3.868,3.868,3.88,3.88,3.893,3.893,3.893,3.893,3.893,3.893,3.893,3.88,3.88,3.868,3.868,3.868,3.868,3.855,3.855,3.855,3.855,3.855,3.855,3.855,3.855,3.855,3.855,3.855,3.855,3.855,3.855,3.855,3.855,3.855,3.855,3.868,3.868,3.868,3.88,3.88,3.893,3.906,3.92,3.92,3.92,3.92,3.92,3.906,3.893,3.88,3.868,3.842,3.842,3.829,3.829,3.817,3.817,3.817,3.817,3.817,3.817,3.817,3.817,3.829,3.842,3.855,3.855,3.855,3.868,3.88,3.88,3.88,3.88,3.88,3.88,3.893,3.893,3.893,3.893,3.893,3.906,3.906,3.92,3.933,3.973,3.973,4.014,4.056,4.07,4.085,4.114,4.128,4.158,4.158,4.173,4.173,4.173,4.188,4.188,4.188,4.203,4.203,4.203,4.203,4.188,4.188,4.188,4.188,4.173,4.158,4.158,4.128,4.128,4.114,4.085,4.07,4.056,4.056,4.028,4.07,4.056,4.056,4.028,4.028,4.014,4.014,4.014,4.014,4.028,4.056,4.056,4.07,4.085,4.114,4.158,4.173,4.188,4.203,4.218,4.249,4.249,4.249,4.264,4.264,4.264,4.264,4.264,4.264,4.249,4.249,4.249,4.249,4.249,4.233,4.233,4.218,4.203,4.188,4.173,4.158,4.128,4.114,4.114,4.085,4.085,4.085,4.085,4.085,4.085,4.085,4.114,4.114,4.114,4.128,4.128,4.128,4.158,4.158,4.173,4.188,4.188,4.203,4.218,4.233,4.249,4.264,4.264,4.28,4.28,4.296,4.296,4.312,4.312,4.312,4.328,4.328,4.328,4.328,4.328,4.328,4.328,4.328,4.344,4.344,4.344,4.344,4.344,4.344,4.344,4.344,4.328,4.328,4.328,4.328,4.312,4.312,4.312,4.312,4.296,4.296,4.296,4.28,4.28,4.28,4.28,4.28,4.28,4.296,4.296,4.296,4.296,4.312,4.312,4.312,4.312,4.312,4.312,4.312,4.312,4.312,4.312,4.296,4.296,4.296,4.296,4.28,4.28,4.28,4.296,4.296,4.312,4.312,4.312,4.312,4.312,4.312,4.312,4.312,4.312,4.312,4.312,4.312,4.312,4.312,4.328,4.328,4.328,4.328,4.344,4.328,4.328,4.328,4.328,4.344,4.344,4.344,4.36,4.36,4.36,4.376,4.376,4.376,4.393,4.41,4.426,4.426,4.46,4.477,4.477,4.512,4.53,4.565,4.565,4.565,4.583,4.583,4.583,4.583,4.583,4.583,4.583,4.601,4.601,4.601,4.657,4.657,4.694,4.713,4.713,4.732,4.732,4.732,4.732,4.732,4.713,4.713,4.713,4.694,4.657,4.638,4.638,4.601,4.583,4.583,4.565,4.565,4.53,4.565,4.565,4.565,4.565,4.565,4.565,4.583,4.583,4.601,4.638,4.638,4.657,4.694,4.713,4.713,4.732,4.732,4.732,4.732,4.732,4.732,4.732,4.732,4.732,4.732,4.732,4.752,4.752,4.752,4.752,4.752,4.752,4.752,4.752,4.732,4.732,4.732,4.732,4.713,4.694,4.694,4.694,4.657,4.638,4.638,4.638,4.638,4.638,4.638,4.638,4.657,4.657,4.694,4.694,4.713,4.713,4.732,4.752,4.752,4.752,4.771,4.771,4.771,4.752,4.752,4.732,4.732,4.694,4.694,4.638,4.601,4.583,4.565,4.53,4.512,4.477,4.477,4.46,4.426,4.426,4.393,4.188,0,0,0,3.155,3.146,3.146,3.138,3.138,3.129,3.129,3.121,3.121,3.113,3.104,3.104,3.096,3.08,3.08,3.08,3.08,3.096,3.104,3.113,3.121,3.129,3.146,3.146,3.146,3.146,3.138,3.121,3.104,3.08,3.055,3.039,3,2.977,2.962,2.955,2.94,2.94,2.94,2.94,2.94,2.94,2.94,2.94,2.947,2.947,2.955,2.955,2.955,2.955,2.955,2.955,2.947,2.94,2.94,2.932,2.925,2.925,2.925,2.925,2.955,2.993,3.039,3.104,3.155,3.189,0,0,0,0,3.475,3.517,3.615,3.743,3.817,3.868,3.946,0,4.07,4.173,4.249,4.28,4.28,4.28,4.28,4.296,4.296,4.312,4.312,4.312,4.312,4.312,4.312,4.312,4.312,4.312,0,0,0,0,0,0,0,0
4.249,4.233,4.218,4.218,4.218,4.233,4.264,4.28,4.312,4.328,0,0,0,0,4.296,4.28,4.264,4.218,4.158,0,0,0,3.868,3.842,3.817,3.817,3.804,3.804,3.78,3.767,3.755,3.731,3.696,3.672,3.649,3.627,3.593,3.593,3.593,3.593,3.615,3.615,3.627,3.627,3.649,3.661,3.661,3.672,3.672,3.672,3.696,3.707,3.707,3.707,3.707,3.731,3.731,3.731,3.731,3.731,3.731,3.731,3.707,3.707,3.731,3.707,3.707,3.731,3.731,3.731,3.743,3.743,3.755,3.755,3.767,3.767,3.78,3.78,3.792,3.792,3.792,3.804,3.804,3.804,3.804,3.817,3.817,3.817,3.817,3.817,3.829,3.829,3.829,3.829,3.842,3.842,3.855,3.855,3.855,3.855,3.855,3.855,3.855,3.855,3.855,3.868,3.868,3.868,3.868,3.868,3.893,3.893,3.906,3.906,3.92,3.92,3.92,3.92,3.906,3.893,3.893,3.88,3.868,3.868,3.868,3.855,3.855,3.855,3.855,3.855,3.855,3.855,3.855,3.855,3.855,3.855,3.855,3.855,3.855,3.855,3.855,3.855,3.855,3.868,3.868,3.868,3.88,3.88,3.893,3.906,3.92,3.92,3.92,3.92,3.92,3.906,3.893,3.88,3.855,3.842,3.829,3.817,3.817,3.804,3.804,3.804,3.804,3.804,3.804,3.804,3.817,3.817,3.829,3.842,3.855,3.855,3.868,3.868,3.893,3.893,3.893,3.893,3.906,3.906,3.906,3.906,3.906,3.92,3.933,3.933,3.946,3.973,3.987,4.014,4.028,4.07,4.085,4.114,4.128,4.158,4.173,4.173,4.188,4.188,4.203,4.203,4.203,4.203,4.203,4.203,4.203,4.203,4.203,4.203,4.188,4.188,4.188,4.188,4.188,4.173,4.188,4.188,4.188,4.173,4.173,4.158,4.158,4.128,4.085,4.085,4.07,4.07,4.056,4.028,4.056,4.07,4.07,4.085,4.114,4.114,4.128,4.173,4.188,4.203,4.218,4.233,4.249,4.249,4.264,4.264,4.264,4.264,4.264,4.264,4.264,4.264,4.264,4.249,4.249,4.249,4.249,4.249,4.233,4.218,4.203,4.188,4.173,4.158,4.128,4.114,4.114,4.114,4.085,4.085,4.085,4.114,4.114,4.114,4.114,4.128,4.128,4.158,4.158,4.173,4.173,4.188,4.188,4.203,4.218,4.233,4.249,4.249,4.264,4.264,4.28,4.28,4.312,4.312,4.328,4.328,4.328,4.328,4.344,4.344,4.36,4.36,4.36,4.36,4.376,4.36,4.376,4.376,4.376,4.376,4.376,4.376,4.36,4.36,4.344,4.344,4.328,4.328,4.328,4.312,4.312,4.312,4.312,4.312,4.296,4.296,4.296,4.296,4.296,4.296,4.296,4.312,4.312,4.312,4.312,4.312,4.328,4.328,4.328,4.344,4.344,4.36,4.36,4.36,4.36,4.36,4.36,4.36,4.36,4.36,4.344,4.344,4.344,4.328,4.328,4.328,4.328,4.328,4.328,4.328,4.328,4.312,4.312,4.312,4.312,4.328,4.328,4.328,4.328,4.344,4.344,4.36,4.376,4.376,4.393,4.393,4.393,4.41,4.41,4.41,4.426,4.393,4.393,4.393,4.41,4.41,4.426,4.46,4.477,4.477,4.512,4.512,4.53,4.565,4.565,4.583,4.583,4.601,4.601,4.601,4.601,4.601,4.601,4.601,4.638,4.638,4.638,4.657,4.694,4.713,4.713,4.732,4.732,4.752,4.752,4.752,4.752,4.732,4.732,4.713,4.713,4.694,4.657,4.638,4.638,4.601,4.583,4.565,4.565,4.53,4.53,4.53,4.53,4.53,4.565,4.565,4.565,4.583,4.601,4.638,4.638,4.657,4.694,4.694,4.713,4.732,4.732,4.752,4.752,4.752,4.752,4.752,4.752,4.752,4.752,4.732,4.752,4.752,4.752,4.752,4.752,4.752,4.752,4.752,4.752,4.752,4.752,4.752,4.752,4.732,4.732,4.713,4.713,4.694,4.694,4.657,4.657,4.657,4.657,4.657,4.694,4.694,4.713,4.713,4.713,4.732,4.732,4.752,4.752,4.771,4.771,4.752,4.771,4.752,4.752,4.732,4.732,4.713,4.694,4.657,4.638,4.583,4.583,4.53,4.512,4.512,4.477,4.46,4.426,4.426,4.41,4.376,4.312,0,0,3.181,3.155,3.146,3.146,3.146,3.146,3.138,3.129,3.129,3.121,3.113,3.104,3.096,3.08,3.08,3.072,3.072,3.08,3.072,3.08,3.096,3.113,3.129,3.129,3.129,3.138,3.129,3.121,3.121,3.096,3.072,3.047,3.016,3,2.97,2.955,2.947,2.94,2.94,2.94,2.94,2.94,2.94,2.94,2.947,2.947,2.955,2.955,2.962,2.962,2.962,2.962,2.955,2.955,2.947,2.947,2.932,2.932,2.932,2.955,2.97,3.024,3.08,3.146,3.181,0,0,0,0,3.485,3.56,3.661,3.767,3.817,3.855,3.92,0,4.028,4.128,4.203,4.249,4.264,4.28,4.28,4.296,4.312,4.312,4.312,4.312,4.312,4.312,4.312,4.312,4.312,4.312,4.312,4.312,0,0,0,0,0,0,0,0
0,4.188,4.173,4.173,4.173,4.203,4.233,4.249,4.28,4.296,4.312,4.312,4.312,0,4.312,4.296,4.28,4.249,4.188,4.114,4.056,0,3.88,3.855,3.829,3.817,3.817,3.817,3.804,3.78,3.767,3.743,3.731,3.707,3.672,3.649,3.627,3.649,3.627,3.615,3.627,3.627,3.649,3.649,3.661,3.661,3.672,3.672,3.672,3.696,3.696,3.696,3.707,3.707,3.707,3.731,3.731,3.743,3.743,3.731,3.743,3.731,3.731,3.731,3.731,3.707,3.731,3.731,3.731,3.743,3.755,3.755,3.767,3.767,3.78,3.792,3.792,3.804,3.804,3.804,3.804,3.804,3.817,3.817,3.817,3.829,3.829,3.829,3.829,3.829,3.842,3.842,3.842,3.855,3.855,3.855,3.855,3.855,3.855,3.855,3.855,3.855,3.855,3.855,3.868,3.868,3.868,3.868,3.88,3.893,3.893,3.92,3.92,3.933,3.946,3.946,3.946,3.946,3.933,3.92,3.92,3.906,3.893,3.88,3.868,3.868,3.868,3.868,3.855,3.855,3.855,3.855,3.855,3.855,3.855,3.855,3.855,3.868,3.868,3.868,3.868,3.868,3.868,3.868,3.868,3.868,3.88,3.893,3.893,3.906,3.92,3.92,3.92,3.92,3.92,3.906,3.893,3.88,3.855,3.829,3.829,3.817,3.804,3.804,3.792,3.78,3.78,3.78,3.792,3.792,3.804,3.817,3.817,3.829,3.855,3.868,3.868,3.88,3.906,3.906,3.92,3.92,3.92,3.933,3.933,3.946,3.946,3.946,3.973,3.973,3.987,4.014,4.028,4.056,4.07,4.085,4.114,4.128,4.158,4.173,4.188,4.203,4.203,4.203,4.203,4.203,4.218,4.218,4.218,4.203,4.203,4.203,4.203,4.218,4.218,4.218,4.218,4.233,4.218,4.218,4.218,4.218,4.203,4.203,4.203,4.203,4.188,4.173,4.173,4.128,4.114,4.114,4.114,4.085,4.114,4.114,4.128,4.158,4.173,4.188,4.188,4.203,4.218,4.233,4.249,4.249,4.249,4.264,4.264,4.264,4.264,4.264,4.264,4.264,4.264,4.264,4.264,4.264,4.264,4.249,4.249,4.249,4.233,4.218,4.203,4.188,4.173,4.158,4.128,4.128,4.114,4.114,4.085,4.114,4.128,4.128,4.128,4.158,4.158,4.173,4.173,4.188,4.203,4.203,4.218,4.233,4.233,4.249,4.249,4.249,4.264,4.264,4.28,4.296,4.312,4.312,4.328,4.328,4.344,4.36,4.36,4.376,4.376,4.376,4.393,4.393,4.41,4.393,4.41,4.393,4.41,4.393,4.41,4.41,4.393,4.393,4.376,4.376,4.36,4.36,4.344,4.328,4.328,4.328,4.312,4.312,4.312,4.312,4.312,4.296,4.296,4.296,4.296,4.312,4.312,4.312,4.312,4.328,4.328,4.328,4.344,4.36,4.376,4.376,4.393,4.41,4.41,4.426,4.426,4.426,4.426,4.46,4.426,4.426,4.41,4.393,4.376,4.36,4.36,4.344,4.344,4.344,4.328,4.328,4.328,4.328,4.312,4.312,4.328,4.328,4.328,4.344,4.36,4.376,4.376,4.393,4.41,4.41,4.426,4.426,4.46,4.46,4.46,4.477,4.477,4.477,4.512,4.512,4.53,4.53,4.53,4.565,4.512,4.53,4.565,4.565,4.583,4.601,4.601,4.601,4.638,4.638,4.638,4.638,4.638,4.657,4.657,4.657,4.657,4.657,4.694,4.694,4.713,4.732,4.732,4.752,4.752,4.771,4.771,4.771,4.752,4.732,4.732,4.713,4.713,4.657,4.657,4.638,4.601,4.583,4.583,4.565,4.53,4.53,4.53,4.53,4.53,4.53,4.565,4.565,4.565,4.583,4.601,4.638,4.657,4.694,4.694,4.713,4.732,4.752,4.752,4.752,4.752,4.752,4.752,4.752,4.752,4.752,4.752,4.752,4.752,4.752,4.752,4.752,4.752,4.752,4.752,4.752,4.752,4.771,4.771,4.771,4.752,4.752,4.752,4.752,4.732,4.713,4.713,4.694,4.694,4.694,4.713,4.713,4.713,4.713,4.713,4.732,4.752,4.732,4.752,4.771,4.771,4.771,4.771,4.752,4.752,4.752,4.752,4.732,4.732,4.694,4.694,4.638,4.601,4.583,4.565,4.53,4.512,4.477,4.46,4.426,4.426,4.41,4.41,4.36,4.312,0,0,3.172,3.155,3.155,3.146,3.146,3.146,3.138,3.138,3.129,3.121,3.113,3.104,3.096,3.08,3.072,3.072,3.072,3.055,3.072,0,0,0,3.113,3.121,3.129,3.129,3.121,3.121,3.104,3.08,3.055,3.024,3.016,2.977,2.97,2.955,2.947,2.94,2.94,2.94,2.94,2.94,2.94,2.947,2.947,2.955,2.955,2.962,2.962,2.962,2.962,2.962,2.962,2.962,2.955,2.947,2.94,2.94,2.977,3.024,3.072,3.129,3.172,3.225,0,0,0,3.485,3.549,3.661,3.767,3.817,3.855,3.906,3.973,0,4.056,4.128,4.203,4.249,4.264,4.264,4.28,4.296,4.312,4.312,4.312,4.312,4.312,4.312,4.312,4.312,4.312,4.312,4.312,4.312,4.328,0,0,0,0,0,0,0,0
4.114,4.114,4.128,4.128,4.158,4.173,4.203,4.218,4.249,4.264,4.28,4.28,4.296,4.296,4.296,4.296,4.28,4.264,4.249,4.173,4.114,4.028,0,3.868,3.842,3.829,3.829,3.829,3.817,3.804,3.804,3.78,3.755,3.743,3.707,3.696,3.661,3.661,3.649,3.649,3.649,3.649,3.649,3.661,3.661,3.672,3.672,3.672,3.672,3.696,3.696,3.707,3.707,3.731,3.707,3.731,3.743,3.743,3.743,3.731,3.731,3.731,3.731,3.731,3.731,3.731,3.731,3.743,3.743,3.755,3.767,3.767,3.78,3.792,3.804,3.804,3.804,3.817,3.817,3.817,3.817,3.829,3.829,3.829,3.829,3.842,3.842,3.855,3.855,3.855,3.855,3.855,3.855,3.855,3.868,3.868,3.868,3.868,3.868,3.868,3.868,3.868,3.868,3.868,3.868,3.868,3.868,3.88,3.88,3.893,3.906,3.92,3.933,3.946,3.973,3.987,3.987,4.014,3.973,3.946,3.946,3.92,3.906,3.893,3.868,3.868,3.868,3.868,3.868,3.855,3.855,3.868,3.868,3.868,3.868,3.868,3.868,3.868,3.868,3.868,3.868,3.868,3.868,3.868,3.868,3.88,3.88,3.893,3.906,3.92,3.92,3.933,3.933,3.92,3.92,3.92,3.906,3.88,3.855,3.829,3.829,3.817,3.804,3.792,3.78,3.78,3.767,3.767,3.767,3.78,3.804,3.817,3.817,3.829,3.855,3.868,3.88,3.906,3.92,3.933,3.933,3.946,3.973,3.987,3.987,3.987,3.987,4.014,4.014,4.028,4.028,4.056,4.07,4.085,4.114,4.128,4.158,4.173,4.188,4.188,4.203,4.203,4.218,4.218,4.218,4.218,4.233,4.233,4.233,4.233,4.233,4.233,4.233,4.233,4.233,4.233,4.233,4.233,4.233,4.233,4.233,4.233,4.233,4.233,4.233,4.233,4.233,4.218,4.218,4.203,4.188,4.188,4.173,4.173,4.173,4.188,4.203,4.203,4.218,4.233,4.233,4.249,4.249,4.249,4.264,4.264,4.264,4.264,4.264,4.28,4.28,4.28,4.28,4.28,4.28,4.264,4.264,4.264,4.264,4.249,4.249,4.249,4.249,4.233,4.218,4.203,4.188,4.173,4.158,4.158,4.128,4.128,4.128,4.128,4.158,4.158,4.173,4.188,4.188,4.203,4.203,4.218,4.233,4.233,4.249,4.249,4.249,4.264,4.264,4.28,4.28,4.296,4.312,4.312,4.328,4.328,4.344,4.36,4.376,4.393,4.393,4.41,4.426,4.426,4.426,4.426,4.46,4.46,4.46,4.426,4.426,4.46,4.426,4.426,4.426,4.41,4.393,4.393,4.376,4.376,4.36,4.344,4.328,4.328,4.328,4.328,4.312,4.312,4.312,4.312,4.312,4.312,4.312,4.312,4.328,4.328,4.328,4.344,4.36,4.36,4.376,4.393,4.41,4.426,4.46,4.46,4.477,4.512,4.512,4.53,4.53,4.53,4.512,4.512,4.477,4.477,4.426,4.41,4.393,4.393,4.376,4.376,4.36,4.36,4.344,4.328,4.328,4.328,4.328,4.344,4.36,4.376,4.393,4.41,4.426,4.46,4.477,4.477,4.512,4.512,4.53,4.53,4.53,4.53,4.565,4.565,4.583,4.583,4.583,4.601,4.601,4.601,4.638,4.638,4.638,4.657,4.657,4.657,4.657,4.638,4.657,4.657,4.657,4.694,4.694,4.694,4.694,4.694,4.713,4.713,4.713,4.732,4.732,4.732,4.752,4.771,4.771,4.771,4.771,4.771,4.752,4.732,4.713,4.713,4.694,4.657,4.657,4.638,4.601,4.583,4.583,4.565,4.53,4.53,4.53,4.53,4.53,4.565,4.565,4.565,4.565,4.601,4.638,4.638,4.657,4.694,4.713,4.713,4.752,4.752,4.752,4.771,4.752,4.752,4.752,4.752,4.752,4.752,4.752,4.752,4.732,4.732,4.732,4.732,4.732,4.732,4.752,4.752,4.752,4.752,4.771,4.771,4.771,4.771,4.771,4.752,4.752,4.752,4.732,4.713,4.713,4.713,4.713,4.713,4.732,4.732,4.732,4.752,4.752,4.752,4.771,4.771,4.771,4.771,4.771,4.752,4.752,4.752,4.732,4.713,4.694,4.694,4.657,4.638,4.583,4.565,4.53,4.512,4.477,4.477,4.46,4.426,4.41,4.41,4.393,4.344,0,3.404,3.207,3.172,3.155,3.155,3.155,3.155,3.146,3.146,3.138,3.138,3.121,3.113,3.104,3.096,3.08,3.072,3.055,3.055,3.055,0,0,0,0,3.104,3.104,3.113,3.113,3.113,3.104,3.096,3.072,3.047,3.024,3,2.977,2.962,2.955,2.947,2.94,2.94,2.94,2.94,2.94,2.947,2.947,2.955,2.962,2.962,2.962,2.97,2.97,2.97,2.97,2.97,2.962,2.962,2.955,2.993,3.016,3.055,3.113,3.155,3.198,0,0,0,0,3.538,3.661,3.743,3.804,3.829,3.855,3.893,3.946,0,4.014,4.07,4.158,4.203,4.249,4.264,4.28,4.28,4.296,4.312,4.312,4.312,4.312,4.312,4.312,4.312,4.312,4.312,4.312,4.312,4.312,4.312,0,0,0,0,0,0,0,0
0,4.07,4.07,4.085,4.085,4.128,4.158,4.173,4.203,4.218,4.249,4.264,4.264,4.28,4.28,0,4.264,4.249,4.249,4.203,4.188,4.114,4.056,4.014,3.868,3.855,3.855,3.855,3.842,3.829,3.817,3.817,3.792,3.767,3.743,3.731,3.696,3.696,3.672,3.661,3.661,3.661,3.661,3.672,3.672,3.672,3.672,3.696,3.696,3.696,3.696,3.696,3.696,3.696,3.707,3.731,3.731,3.731,3.731,3.731,3.731,3.731,3.731,3.731,3.731,3.731,3.731,3.743,3.755,3.767,3.78,3.78,3.792,3.804,3.804,3.804,3.817,3.817,3.817,3.817,3.829,3.829,3.842,3.842,3.855,3.855,3.855,3.868,3.868,3.868,3.868,3.868,3.868,3.868,3.868,3.868,3.868,3.868,3.868,3.868,3.868,3.868,3.868,3.868,3.868,3.868,3.88,3.88,3.893,3.906,3.92,3.933,3.946,3.973,3.987,4.014,4.028,4.056,4.028,3.987,3.987,3.973,3.946,3.92,3.906,3.88,3.88,3.88,3.868,3.868,3.868,3.868,3.868,3.868,3.868,3.868,3.868,3.868,3.868,3.88,3.88,3.88,3.88,3.88,3.893,3.893,3.893,3.906,3.92,3.92,3.933,3.933,3.933,3.946,3.933,3.933,3.92,3.893,3.855,3.855,3.829,3.817,3.804,3.804,3.792,3.78,3.78,3.78,3.78,3.78,3.804,3.817,3.829,3.842,3.855,3.868,3.906,3.92,3.946,3.973,3.987,4.014,4.014,4.028,4.028,4.056,4.056,4.056,4.07,4.07,4.085,4.085,4.114,4.128,4.158,4.173,4.173,4.188,4.203,4.218,4.218,4.233,4.233,4.233,4.233,4.233,4.233,4.233,4.233,4.233,4.233,4.233,4.233,4.233,4.233,4.249,4.249,4.249,4.249,4.249,4.249,4.249,4.249,4.249,4.249,4.249,4.249,4.249,4.249,4.249,4.233,4.233,4.233,4.233,4.233,4.233,4.249,4.249,4.264,4.264,4.264,4.264,4.264,4.28,4.28,4.28,4.28,4.28,4.28,4.28,4.28,4.28,4.28,4.28,4.28,4.28,4.28,4.264,4.264,4.264,4.264,4.249,4.249,4.249,4.233,4.218,4.203,4.188,4.173,4.173,4.158,4.158,4.158,4.173,4.173,4.188,4.203,4.218,4.218,4.233,4.249,4.249,4.249,4.264,4.264,4.264,4.28,4.28,4.28,4.296,4.312,4.312,4.328,4.344,4.36,4.36,4.376,4.393,4.41,4.426,4.46,4.46,4.46,4.477,4.477,4.477,4.477,4.477,4.477,4.46,4.477,4.477,4.477,4.46,4.426,4.426,4.41,4.41,4.393,4.376,4.376,4.36,4.36,4.344,4.344,4.328,4.328,4.328,4.328,4.328,4.328,4.328,4.328,4.328,4.344,4.344,4.36,4.376,4.393,4.41,4.41,4.426,4.477,4.477,4.512,4.53,4.565,4.583,4.583,4.583,4.583,4.583,4.583,4.565,4.565,4.53,4.512,4.477,4.46,4.426,4.426,4.41,4.393,4.393,4.376,4.376,4.36,4.36,4.36,4.376,4.393,4.41,4.426,0,4.477,4.512,4.53,4.565,4.583,4.583,4.583,4.601,4.601,4.601,4.638,4.638,4.657,4.657,4.657,4.657,4.657,4.694,4.694,4.694,4.694,4.694,4.713,4.713,4.713,4.713,4.713,4.713,4.713,4.732,4.732,4.732,4.713,4.732,4.732,4.732,4.752,4.752,4.752,4.771,4.771,4.771,4.771,4.771,4.771,4.771,4.752,4.732,4.713,4.713,4.694,4.657,4.657,4.638,4.601,4.583,4.583,4.583,4.565,4.53,4.53,4.53,4.565,4.565,4.565,4.565,4.583,4.601,4.638,4.657,4.694,4.694,4.713,4.732,4.752,4.771,4.771,4.771,4.771,4.771,4.752,4.752,4.752,4.752,4.752,4.732,4.732,4.732,4.732,4.713,4.713,4.732,4.732,4.732,4.732,4.752,4.752,4.752,4.771,4.771,4.771,4.771,4.752,4.752,4.752,4.732,4.732,4.732,4.732,4.732,4.752,4.732,4.732,4.752,4.752,4.752,4.752,4.771,4.752,4.771,4.752,4.752,4.752,4.732,4.713,4.713,4.694,4.657,4.638,4.601,4.565,4.565,4.53,4.477,4.477,4.46,4.426,4.41,4.393,4.393,4.376,4.328,0,3.355,3.189,3.172,3.163,3.163,3.163,3.155,3.155,3.155,3.146,3.138,3.129,3.121,3.104,3.08,3.072,3.055,3.055,0,0,0,0,0,3.096,3.104,3.113,3.121,3.113,3.113,3.104,3.096,3.072,3.047,3.024,3,2.977,2.97,2.955,2.947,2.94,2.94,2.94,2.947,2.947,2.955,2.955,2.962,2.962,2.97,2.97,2.977,2.977,2.977,2.977,2.977,2.97,2.97,3.039,3.072,3.113,3.155,3.189,3.261,0,0,0,3.506,3.593,3.707,3.78,3.817,3.829,3.855,3.88,3.92,3.946,0,4.014,4.07,4.128,4.188,4.233,4.249,4.264,4.28,4.296,4.296,4.312,4.312,4.312,4.312,4.312,4.312,4.312,4.312,4.312,4.312,4.312,4.312,0,0,0,0,0,0,0,0
3.987,4.014,0,4.028,4.028,4.07,4.114,4.128,4.158,4.188,4.203,4.218,4.233,4.249,4.249,4.249,4.249,0,4.233,4.203,4.188,4.188,4.158,4.114,4.085,3.906,3.906,3.88,3.868,3.855,3.842,3.842,3.817,3.804,3.78,3.755,3.731,3.731,3.707,3.696,3.696,3.672,3.696,3.696,3.696,3.696,3.696,3.696,3.696,3.672,3.672,3.661,3.672,3.672,3.672,3.696,3.707,3.707,3.707,3.707,3.731,3.707,3.731,3.731,3.731,3.731,3.731,3.743,3.755,3.78,3.792,3.792,3.804,3.804,3.804,3.817,3.817,3.817,3.817,3.829,3.829,3.842,3.855,3.855,3.855,3.868,3.868,3.868,3.88,3.88,3.893,3.893,3.893,3.893,3.893,3.893,3.88,3.88,3.88,3.88,3.88,3.88,3.868,3.868,3.88,3.88,3.893,3.893,3.906,3.92,3.933,3.946,3.973,4.014,4.028,4.056,4.07,4.085,4.085,4.07,4.028,4.014,3.987,3.946,3.933,3.906,3.906,3.906,3.893,3.88,3.88,3.88,3.88,3.893,3.893,3.893,3.88,3.893,3.893,3.893,3.893,3.893,3.893,3.906,3.906,3.906,3.92,3.92,3.933,3.946,3.946,3.946,3.973,3.946,3.946,3.933,3.933,3.906,3.868,3.855,3.842,3.829,3.817,3.817,3.804,3.804,3.792,3.792,3.792,3.804,3.817,3.829,3.842,3.855,3.868,3.893,3.933,3.973,3.987,4.014,4.028,4.056,4.07,4.07,4.085,4.085,4.085,4.114,4.114,4.114,4.114,4.128,4.158,4.188,4.188,4.203,4.203,4.218,4.218,4.218,4.233,4.233,4.233,4.233,4.233,4.233,4.249,4.249,4.249,4.249,4.249,4.249,4.249,4.249,4.249,4.249,4.249,4.249,4.249,4.249,4.249,4.264,4.264,4.264,4.264,4.264,4.264,4.264,4.264,4.264,4.264,4.264,4.264,4.264,4.264,4.264,4.28,4.28,4.28,4.28,4.296,4.296,4.296,4.296,4.296,4.296,4.28,4.296,4.296,4.28,4.28,4.28,4.28,4.28,4.28,4.28,4.28,4.28,4.28,4.264,4.264,4.264,4.264,4.249,4.249,4.233,4.218,4.218,4.203,4.203,4.203,4.188,4.203,4.203,4.218,4.233,4.233,4.249,4.249,4.264,4.264,4.28,4.28,4.28,4.28,4.296,4.312,4.312,4.312,4.328,4.328,4.328,4.344,4.36,4.393,4.393,4.41,4.426,4.46,4.477,4.477,4.512,4.512,4.512,4.53,4.53,4.53,4.512,4.512,4.512,4.512,4.512,4.477,4.477,4.512,4.46,4.426,4.426,4.41,4.41,4.393,4.376,4.376,4.36,4.36,4.36,4.36,4.344,4.344,4.344,4.344,4.344,4.36,4.376,4.376,4.393,4.393,4.41,4.426,4.46,4.477,4.512,4.53,4.565,4.583,4.601,4.601,4.638,4.638,4.657,4.657,4.657,4.638,4.638,4.601,4.601,4.583,4.565,4.53,4.512,4.477,4.46,4.46,4.426,4.41,4.41,4.393,4.393,4.393,4.393,4.41,4.426,4.46,4.512,4.53,4.565,4.601,4.601,4.638,4.657,4.657,4.694,4.694,4.713,4.713,4.713,4.713,4.713,4.732,4.732,4.732,4.732,4.732,4.732,4.732,4.732,4.732,4.732,4.732,4.732,4.732,4.732,4.752,4.752,4.752,4.752,4.752,4.771,4.771,4.771,4.771,4.771,4.771,4.771,4.771,4.771,4.771,4.771,4.771,4.771,4.752,4.732,4.713,4.713,4.694,4.657,4.657,4.638,4.638,4.601,4.601,4.601,4.583,4.565,4.565,4.565,4.565,4.583,4.583,4.601,4.601,4.638,4.638,4.657,4.694,4.713,4.713,4.752,4.752,4.771,4.771,4.771,4.771,4.771,4.752,4.752,4.752,4.752,4.732,4.732,4.713,4.713,4.713,4.713,4.694,4.694,4.694,4.713,4.713,4.732,4.732,4.752,4.752,4.771,4.771,4.771,4.771,4.752,4.752,4.752,4.732,4.732,4.752,4.752,4.752,4.732,4.752,4.752,4.752,4.732,4.752,4.752,4.752,4.771,4.752,4.752,4.732,4.713,4.713,4.694,4.694,4.657,4.601,4.601,4.565,4.53,4.512,4.477,4.477,4.46,4.426,4.41,4.393,4.344,4.312,4.249,0,0,0,3.172,3.172,3.172,3.163,3.163,3.163,3.155,3.155,3.138,3.129,3.121,3.113,3.08,0,0,0,0,0,0,0,0,0,3.121,3.121,3.121,3.121,3.113,3.113,3.096,3.08,3.047,3.024,3.016,2.993,2.977,2.962,2.955,2.947,2.947,2.955,2.955,2.955,2.962,2.962,2.97,2.977,2.977,2.993,2.993,2.993,2.993,2.993,2.993,3.047,3.072,3.113,3.146,3.181,3.234,3.355,0,0,0,3.56,3.661,3.755,3.804,3.829,3.829,3.855,3.868,3.88,3.906,3.946,4.014,0,4.056,4.114,4.173,4.218,4.249,4.264,4.28,4.28,4.296,4.312,4.312,4.312,4.312,4.312,4.312,4.312,4.312,4.312,4.312,4.312,4.312,0,0,0,0,0,0,0,0
3.933,3.946,3.946,3.946,3.973,4.014,4.028,4.07,4.085,4.128,4.173,4.188,4.188,4.218,4.218,4.218,4.218,4.218,4.203,4.203,4.203,4.203,4.188,4.188,4.173,4.173,4.158,4.014,3.973,3.933,3.906,3.893,3.868,3.855,3.829,3.792,3.767,3.743,3.731,3.707,3.707,3.707,3.707,3.707,3.707,3.696,3.696,3.672,3.672,3.672,3.661,3.649,3.649,3.649,3.661,3.661,3.696,3.696,3.696,3.696,3.707,3.707,3.731,3.731,3.731,3.731,3.743,3.755,3.767,3.78,3.792,3.804,3.804,3.804,3.817,3.817,3.817,3.817,3.829,3.829,3.829,3.855,3.855,3.855,3.868,3.868,3.88,3.88,3.893,3.893,3.893,3.893,3.906,3.906,3.906,3.893,3.893,3.893,3.893,3.893,3.893,3.893,3.88,3.893,3.893,3.906,3.906,3.92,3.92,3.933,3.973,3.987,4.014,4.028,4.07,4.085,4.128,4.128,4.128,4.114,4.085,4.085,4.07,4.014,3.987,3.946,3.946,3.933,3.933,3.92,3.906,3.906,3.906,3.906,3.92,3.906,3.906,3.906,3.92,3.92,3.92,3.92,3.92,3.92,3.92,3.933,3.933,3.946,3.946,3.973,3.987,3.987,3.987,3.987,3.987,3.973,3.973,3.933,3.906,3.868,3.855,3.855,3.829,3.829,3.817,3.817,3.817,3.817,3.817,3.817,3.829,3.855,3.855,3.868,3.906,3.933,3.973,4.014,4.056,4.07,4.085,4.085,4.114,4.128,4.128,4.158,4.173,4.188,4.188,4.188,4.188,4.188,4.188,4.203,4.203,4.203,4.203,4.218,4.218,4.233,4.233,4.233,4.233,4.233,4.233,4.249,4.249,4.249,4.249,4.249,4.249,4.249,4.249,4.249,4.249,4.249,4.249,4.249,4.264,4.264,4.264,4.264,4.264,4.264,4.264,4.28,4.28,4.28,4.28,4.28,4.28,4.28,4.28,4.28,4.296,4.312,4.312,4.312,4.328,4.328,4.328,4.328,4.328,4.312,4.312,4.312,4.312,4.312,4.296,4.296,4.296,4.296,4.296,4.296,4.296,4.296,4.28,4.28,4.28,4.28,4.28,4.28,4.264,4.264,4.264,4.249,4.249,4.249,4.249,4.233,4.233,4.233,4.233,4.249,4.249,4.264,4.264,4.264,4.28,4.28,4.296,4.312,4.312,4.312,4.312,4.328,4.328,4.328,4.328,4.344,4.36,4.376,4.376,4.393,4.41,4.426,4.426,4.46,4.477,4.512,4.512,4.53,4.53,4.53,4.53,4.53,4.53,4.565,4.53,4.53,4.53,4.53,4.53,4.53,4.53,4.53,4.477,4.46,4.46,4.426,4.426,4.426,4.41,4.393,4.393,4.393,4.393,4.393,4.393,4.376,4.393,4.393,4.393,4.41,4.426,4.46,4.477,4.477,4.512,4.53,4.565,4.565,4.583,4.601,4.638,4.657,4.657,4.694,4.694,4.713,4.713,4.713,4.713,4.694,4.657,4.657,4.638,4.601,4.583,4.565,4.565,4.53,4.512,4.477,4.477,4.46,4.426,4.426,4.426,4.426,4.46,4.477,4.512,4.565,4.601,4.638,4.657,4.694,4.713,4.713,4.732,4.752,4.752,4.752,4.771,4.771,4.771,4.771,4.771,4.771,4.771,4.771,4.771,4.752,4.752,4.752,4.752,4.752,4.752,4.752,4.752,4.771,4.771,4.771,4.771,4.771,4.771,4.771,4.791,4.791,4.771,4.771,4.771,4.791,4.791,4.791,4.771,4.771,4.771,4.752,4.752,4.732,4.713,4.713,4.694,4.657,4.657,4.657,4.638,4.638,4.638,4.601,4.601,4.601,4.583,4.583,4.601,4.601,4.601,4.601,4.638,4.638,4.657,4.694,4.694,4.713,4.713,4.752,4.771,4.771,4.771,4.771,4.771,4.771,4.752,4.752,4.752,4.752,4.732,4.713,4.713,4.713,4.694,4.694,4.694,4.657,4.657,4.694,4.694,4.694,4.713,4.732,4.732,4.752,4.752,4.752,4.752,4.752,4.752,4.732,4.752,4.752,4.752,4.752,4.752,4.732,4.732,4.752,4.752,4.732,4.732,4.732,4.732,4.732,4.732,4.732,4.713,4.713,4.713,4.694,4.694,4.638,4.601,4.601,4.565,4.53,4.53,4.512,4.477,4.46,4.426,4.41,4.344,4.28,4.014,0,0,0,0,3.181,3.181,3.181,3.181,3.172,3.172,3.172,3.163,3.146,3.138,3.129,3.113,0,0,0,0,0,0,0,0,0,0,3.129,3.129,3.129,3.129,3.121,3.113,3.104,3.08,3.047,3.039,3.016,3,2.977,2.97,2.962,2.955,2.955,2.962,2.962,2.97,2.97,2.977,2.993,2.993,2.993,2.993,3,3,3,3.047,3.08,3.121,3.146,3.181,3.225,3.317,0,0,0,3.528,3.627,3.731,3.78,3.817,3.829,3.842,3.855,3.868,3.868,3.88,3.906,3.933,3.987,0,4.028,4.085,4.158,4.188,4.218,4.249,4.264,4.264,4.28,4.28,4.28,4.28,4.296,4.296,4.296,4.296,4.296,4.296,4.296,4.296,4.296,0,0,0,0,0,0,0,0
0,3.933,3.946,3.933,3.946,3.946,3.987,4.014,4.028,4.056,4.07,4.085,4.128,4.158,4.173,4.173,4.173,4.188,4.188,4.188,4.203,4.218,4.203,4.218,4.218,4.233,4.233,4.218,4.203,4.056,4.028,3.973,3.92,3.88,3.855,3.829,3.792,3.767,3.755,3.743,3.731,3.731,3.731,3.731,3.731,3.707,3.707,3.696,3.672,3.672,3.649,3.649,3.627,3.627,3.649,3.661,3.661,3.696,3.696,3.696,3.707,3.707,3.731,3.731,3.731,3.731,3.743,3.755,3.78,3.792,3.792,3.804,3.804,3.804,3.817,3.817,3.817,3.829,3.829,3.829,3.842,3.855,3.855,3.868,3.868,3.88,3.893,3.893,3.893,3.893,3.906,3.906,3.906,3.906,3.906,3.906,3.906,3.906,3.906,3.906,3.906,3.906,3.906,3.906,3.92,3.92,3.933,3.933,3.946,3.973,4.014,4.028,4.056,4.085,4.114,4.158,4.173,4.188,4.188,4.173,4.173,4.158,4.128,4.114,4.056,4.014,4.014,3.987,3.973,3.946,3.946,3.933,3.933,3.946,3.946,3.933,3.933,3.933,3.933,3.933,3.933,3.933,3.933,3.933,3.946,3.946,3.973,3.973,3.987,4.014,4.014,4.028,4.028,4.028,4.028,4.014,3.987,3.973,3.933,3.92,3.88,3.868,3.855,3.855,3.842,3.829,3.829,3.829,3.829,3.842,3.855,3.868,3.88,3.906,3.933,3.973,4.014,4.056,4.07,4.085,4.173,4.188,4.188,4.203,4.203,4.203,4.203,4.203,4.203,4.203,4.203,4.203,4.203,4.203,4.218,4.218,4.218,4.218,4.218,4.233,4.233,4.233,4.233,4.249,4.249,4.249,4.249,4.249,4.249,4.249,4.249,4.249,4.249,4.249,4.249,4.249,4.264,4.264,4.264,4.264,4.264,4.264,4.28,4.28,4.28,4.28,4.28,4.28,4.28,4.296,4.296,4.312,4.312,4.312,4.328,4.328,4.344,4.344,4.344,4.344,4.36,4.344,4.344,4.328,4.328,4.328,4.328,4.312,4.312,4.312,4.312,4.312,4.296,4.296,4.296,4.296,4.296,4.312,4.296,4.296,4.296,4.296,4.296,4.28,4.28,4.28,4.264,4.264,4.264,4.264,4.264,4.264,4.264,4.28,4.28,4.28,4.296,4.312,4.312,4.328,4.328,4.328,4.344,4.344,4.344,4.36,4.36,4.376,4.376,4.376,4.393,4.41,4.426,4.426,4.46,4.46,4.46,4.477,4.512,4.512,4.512,4.53,4.53,4.565,4.565,4.565,4.565,4.565,4.565,4.565,4.565,4.565,4.565,4.565,4.565,4.565,4.53,4.53,4.512,4.477,4.477,4.46,4.46,4.46,4.46,4.426,4.46,4.426,4.426,4.426,4.46,4.46,4.46,4.477,4.512,4.512,4.53,4.53,4.565,4.583,4.601,4.638,4.638,4.694,4.694,4.713,4.713,4.732,4.732,4.752,4.752,4.752,4.752,4.732,4.732,4.713,4.713,4.657,4.657,4.638,4.601,4.583,4.565,4.565,4.53,4.512,4.512,4.477,4.477,4.512,4.512,4.53,4.583,4.601,4.638,4.694,4.732,4.732,4.752,4.771,4.771,4.791,4.791,4.81,4.81,4.81,4.81,4.81,4.81,4.81,4.81,4.791,4.791,4.791,4.771,4.771,4.771,4.771,4.771,4.771,4.771,4.771,4.771,4.771,4.771,4.771,4.771,4.791,4.791,4.791,4.771,4.771,4.771,4.771,4.771,4.771,4.771,4.752,4.752,4.752,4.732,4.713,4.713,4.713,4.694,4.694,4.657,4.657,4.657,4.638,4.638,4.638,4.601,4.601,4.601,4.601,4.601,0,4.638,4.638,4.638,4.657,4.657,4.694,4.713,4.713,4.732,4.752,4.771,4.771,4.771,4.771,4.771,4.771,4.752,4.752,4.752,4.732,4.732,4.713,4.713,4.694,4.694,4.694,4.657,4.657,4.657,4.657,4.657,4.657,4.694,4.694,4.713,4.713,4.732,4.732,4.732,4.732,4.732,4.732,4.732,4.732,4.732,4.732,4.752,4.732,4.732,4.732,4.732,4.713,4.713,4.713,4.713,4.713,4.732,4.713,4.713,4.713,4.694,4.694,4.657,4.638,4.601,4.583,4.583,4.53,4.512,4.512,4.477,4.46,4.41,4.376,4.312,3.973,0,0,0,0,3.189,3.189,3.181,3.181,3.181,3.181,3.181,0,0,0,0,0,0,0,0,0,0,0,0,0,0,0,3.146,3.146,3.146,3.138,3.138,3.129,3.121,3.113,3.08,3.072,3.047,3.024,3,2.993,2.977,2.97,2.962,2.962,2.97,2.97,2.977,2.977,2.993,3,3,3,3.016,3.016,3.047,3.08,3.113,3.146,3.181,3.207,3.298,0,3.404,0,0,3.627,3.707,3.78,3.817,3.829,3.842,3.855,3.855,3.855,3.855,3.868,3.88,3.906,3.933,3.973,4.014,0,4.056,4.114,4.158,4.188,4.218,4.233,4.249,4.264,4.264,4.264,4.28,4.28,4.28,4.28,4.28,4.28,4.28,4.28,4.264,4.28,0,0,0,0,0,0,0,0
0,0,0,0,3.933,3.946,3.946,3.973,3.973,3.987,4.014,4.028,4.056,4.085,4.114,4.128,4.158,4.173,4.173,4.173,4.203,4.218,4.218,4.218,4.233,4.249,4.249,4.249,4.249,4.233,4.203,4.056,4.014,3.946,3.906,3.855,3.829,3.792,3.78,3.755,3.755,3.743,3.755,3.743,3.743,3.731,3.707,3.696,3.696,3.672,3.649,3.627,3.627,3.615,3.627,3.649,3.661,3.661,3.672,3.672,3.696,3.707,3.707,3.731,3.731,3.731,3.743,3.755,3.78,3.792,3.792,3.804,3.804,3.804,3.817,3.817,3.817,3.817,3.829,3.842,3.855,3.855,3.868,3.868,3.88,3.893,3.893,3.906,3.906,3.906,3.906,3.906,3.906,3.92,3.92,3.92,3.92,3.933,3.933,3.933,3.933,3.933,3.933,3.933,3.946,3.946,3.973,3.973,3.987,4.028,4.056,4.085,4.085,4.128,4.173,4.188,4.218,4.233,4.218,4.218,4.203,4.203,4.203,4.173,4.158,4.085,4.07,4.07,4.056,4.028,4.014,4.014,3.987,3.987,3.987,3.973,3.973,3.973,3.973,3.973,3.973,3.973,3.973,3.973,3.987,3.987,4.014,4.028,4.028,4.056,4.056,4.07,4.07,4.07,4.07,4.056,4.056,4.014,3.987,3.973,3.933,3.906,3.88,3.868,3.868,3.868,3.868,3.868,3.868,3.868,3.88,3.906,3.92,3.946,4.056,4.085,4.114,4.158,4.173,4.188,4.203,4.203,4.218,4.218,4.233,4.218,4.218,4.233,4.233,4.233,4.218,4.218,4.218,4.218,4.218,4.218,4.218,4.218,4.218,4.233,4.233,4.233,4.233,4.233,4.249,4.249,4.249,4.249,4.249,4.249,4.249,4.249,4.249,4.249,4.264,4.264,4.264,4.264,4.264,4.264,4.28,4.28,4.28,4.28,4.28,4.296,4.296,4.296,4.296,4.312,4.312,4.328,4.328,4.344,4.344,4.36,4.376,4.376,4.393,4.393,4.393,4.376,4.376,4.36,4.344,4.328,4.328,4.328,4.312,4.312,4.312,4.312,4.312,4.312,4.312,4.312,4.312,4.312,4.312,4.312,4.312,4.312,4.312,4.312,4.312,4.312,4.312,4.296,4.296,4.296,4.296,4.296,4.312,4.312,4.312,4.328,4.328,4.328,4.344,4.36,4.376,4.376,4.376,4.393,4.41,4.41,4.41,4.426,4.426,4.426,4.426,4.46,4.477,4.46,4.477,4.477,4.477,4.512,4.512,4.512,4.512,4.53,4.565,4.565,4.565,4.583,4.583,4.583,4.583,4.583,4.583,4.583,4.583,4.583,4.583,4.583,4.583,4.565,4.565,4.53,4.53,4.53,4.53,4.512,4.53,4.512,4.512,4.512,4.512,4.512,4.512,4.53,4.53,4.565,4.565,4.583,4.583,4.601,4.638,4.638,4.657,4.694,4.694,4.713,4.732,4.732,4.752,4.752,4.771,4.771,4.771,4.771,4.771,4.771,4.771,4.752,4.752,4.732,4.713,4.694,4.694,4.657,4.638,4.638,4.601,4.583,4.583,4.583,4.565,4.583,4.601,4.601,4.638,4.657,4.713,4.732,4.771,4.791,4.791,4.81,4.81,4.81,4.81,4.81,4.83,4.83,4.83,4.83,4.83,4.83,4.83,4.81,4.81,4.81,4.81,4.791,4.791,4.791,4.791,4.771,4.791,4.791,4.791,4.791,4.791,4.791,4.791,4.791,4.791,4.791,4.791,4.791,4.771,4.771,4.771,4.771,4.771,4.752,4.752,4.752,4.732,4.732,4.713,4.713,4.694,4.694,4.694,4.694,4.694,4.694,4.657,4.638,4.638,4.638,4.601,4.601,4.638,4.638,4.638,4.638,4.657,4.657,4.657,4.694,4.713,4.713,4.732,4.752,4.752,4.771,4.771,4.771,4.771,4.752,4.752,4.752,4.752,4.732,4.713,4.713,4.713,4.694,4.694,4.657,4.638,4.638,4.638,4.638,4.638,4.638,4.657,4.694,4.694,4.713,4.713,4.713,4.713,4.713,4.713,4.713,4.713,4.713,4.713,4.713,4.732,4.732,4.732,4.713,4.713,4.713,4.713,4.694,4.694,4.694,4.694,4.694,4.694,4.694,4.694,4.694,4.638,4.638,4.601,4.583,4.583,4.565,4.53,4.512,4.46,4.46,4.376,4.312,3.987,3.829,0,0,0,0,3.189,3.189,3.189,3.189,3.189,3.189,0,0,0,0,0,0,0,0,0,0,0,0,0,0,0,3.155,3.155,3.155,3.155,3.146,3.146,3.138,3.129,3.113,3.096,3.072,3.055,3.039,3.024,3.016,2.993,2.993,2.977,2.977,2.977,2.993,2.993,3,3,3,3.016,3.024,3.047,3.055,3.096,3.138,3.163,3.207,3.288,0,3.394,0,0,3.593,3.707,3.78,3.804,3.829,3.855,3.855,3.855,3.868,3.868,3.868,3.868,3.868,3.88,3.893,3.92,3.946,3.987,4.028,0,4.07,4.114,4.128,4.188,4.203,4.218,4.249,4.249,4.264,4.264,4.264,4.264,4.264,4.264,4.264,4.264,4.264,4.264,4.264,0,0,0,0,0,0,0,0
0,0,3.973,3.946,3.946,3.946,3.946,3.946,3.933,3.946,3.946,3.973,4.014,4.028,4.07,4.085,4.128,4.158,4.188,4.188,4.203,4.218,4.233,4.233,4.249,4.249,4.264,4.249,4.249,4.249,4.233,4.203,4.173,4.085,3.946,3.88,3.855,3.804,3.792,3.78,3.78,3.767,3.767,3.767,3.743,3.743,3.707,3.707,3.696,3.672,3.661,3.649,3.627,3.615,3.615,3.627,3.649,3.649,3.661,3.672,3.696,3.696,3.707,3.707,3.731,3.731,3.743,3.755,3.78,3.792,3.804,3.804,3.804,3.804,3.817,3.817,3.817,3.829,3.829,3.842,3.855,3.868,3.868,3.88,3.88,3.893,3.893,3.893,3.906,3.906,3.906,3.906,3.92,3.92,3.92,3.933,3.933,3.933,3.946,3.946,3.973,3.973,3.973,3.973,3.987,4.014,4.014,4.028,4.056,4.056,4.085,4.114,4.128,4.173,4.188,4.218,4.233,4.249,4.249,4.249,4.249,4.249,4.233,4.218,4.203,4.188,4.158,4.128,4.128,4.085,4.07,4.07,4.056,4.056,4.028,4.028,4.014,4.014,4.014,4.014,4.014,4.014,4.014,4.028,4.028,4.056,4.056,4.07,4.085,4.085,4.114,4.114,4.128,4.128,4.128,4.114,4.085,4.07,4.056,4.028,4.014,3.987,3.973,3.933,3.92,3.92,3.906,3.906,3.906,4.014,4.028,4.028,4.07,4.085,4.114,0,4.158,4.173,4.188,4.203,4.218,4.233,4.249,4.249,4.249,4.249,4.249,4.249,4.249,4.249,4.233,4.233,4.233,4.233,4.233,4.233,4.233,4.233,4.233,4.233,4.233,4.249,4.249,4.249,4.249,4.249,4.249,4.249,4.249,4.249,4.249,4.249,4.264,4.264,4.264,4.264,4.264,4.264,4.264,4.28,4.28,4.28,4.28,4.28,4.296,4.296,4.296,4.312,4.312,4.312,4.328,4.328,4.344,4.36,4.376,4.393,4.41,4.426,4.426,4.41,4.41,4.41,4.393,4.376,4.36,4.344,4.328,4.328,4.328,4.328,4.312,4.312,4.328,4.328,4.328,4.328,4.328,4.328,4.344,4.344,4.344,4.344,4.344,4.344,4.344,4.344,4.328,4.328,4.328,4.328,4.328,4.328,4.328,4.344,4.344,4.36,4.376,4.376,4.393,4.41,4.426,4.426,4.46,4.477,4.477,4.477,4.477,4.477,4.512,4.512,4.512,4.512,4.512,4.512,4.512,4.512,4.512,4.512,4.512,4.512,4.512,4.53,4.565,4.565,4.565,4.583,4.583,4.583,4.601,4.601,4.601,4.601,4.638,4.638,4.638,4.638,4.601,4.601,4.601,4.601,4.601,4.601,4.583,4.583,4.583,4.601,4.601,4.583,4.583,4.583,4.583,4.601,4.601,4.638,4.638,4.638,4.657,4.657,4.694,4.694,4.713,4.713,4.732,4.752,4.752,4.771,4.771,4.771,4.771,4.791,4.791,4.791,4.791,4.791,4.791,4.771,4.771,4.752,4.752,4.732,4.732,4.713,4.713,4.694,4.694,4.657,4.657,4.638,4.638,4.657,4.657,4.694,4.713,4.732,4.752,4.771,4.791,4.81,4.81,4.81,4.83,4.83,4.83,4.83,4.83,4.851,4.851,4.83,4.83,4.83,4.83,4.83,4.83,4.81,4.81,4.81,4.81,4.81,4.791,4.791,4.791,4.791,4.791,4.791,4.791,4.791,4.791,4.791,4.791,4.791,4.791,4.791,4.791,4.791,4.791,4.771,4.771,4.771,4.752,4.752,4.732,4.732,4.732,4.713,4.713,4.713,4.713,4.713,4.694,4.694,4.694,4.694,4.657,4.657,4.657,4.694,4.694,4.657,4.657,4.657,4.657,4.694,4.694,4.713,4.713,4.732,4.732,4.752,4.752,4.771,4.771,4.771,4.771,4.752,4.752,4.752,4.732,4.732,4.713,4.713,4.694,4.694,4.657,4.657,4.638,4.601,4.601,4.601,4.601,4.638,4.638,4.638,4.657,4.694,4.694,4.694,4.694,4.694,4.694,4.694,4.694,4.694,4.694,4.694,4.694,4.694,4.694,4.694,4.694,4.657,4.657,4.657,4.657,4.657,4.657,4.694,4.657,4.657,4.657,4.638,4.638,4.601,4.601,4.583,4.565,4.53,4.53,4.512,4.46,4.393,4.328,4.056,3.842,0,0,3.365,3.27,3.225,3.207,3.198,3.198,3.198,3.198,3.198,3.198,0,0,0,0,0,0,0,0,0,0,0,3.189,3.181,3.172,3.163,3.163,3.163,3.155,3.155,3.146,3.146,3.138,3.121,3.104,3.08,3.072,3.047,3.039,3.024,3.016,3,3,3,3,3,3.016,3.016,3.024,3.024,3.047,3.055,3.096,3.121,3.155,3.189,3.243,3.365,0,3.454,0,0,3.707,3.792,3.829,3.855,3.855,3.868,3.868,3.868,3.868,3.868,3.868,3.868,3.868,3.868,3.88,3.893,3.906,3.92,3.946,3.987,4.028,0,4.056,4.085,4.128,4.158,4.188,4.203,4.218,4.233,4.233,4.249,4.249,4.249,4.249,4.249,4.249,4.249,4.249,4.249,0,0,0,0,0,0,0,0
0,0,3.987,3.973,3.973,3.946,3.973,3.946,3.946,3.933,3.933,3.946,3.973,4.014,4.028,4.07,4.085,4.128,4.173,4.203,4.203,4.218,4.218,4.233,4.249,4.249,4.264,4.249,4.249,4.249,4.249,4.233,4.203,4.158,4.114,4.014,3.88,3.842,3.829,3.804,3.804,3.804,3.792,3.78,3.767,3.755,3.743,3.731,3.707,3.696,3.672,3.649,3.649,3.627,3.627,3.627,3.627,3.649,3.649,3.661,3.672,3.696,3.696,3.707,3.731,3.731,3.743,3.767,3.767,3.792,3.804,3.804,3.804,3.804,3.817,3.817,3.829,3.829,3.829,3.842,3.855,3.868,3.868,3.88,3.893,3.906,3.893,3.906,3.906,3.906,3.906,3.906,3.906,3.933,3.933,3.946,3.946,3.973,3.973,3.987,4.014,4.014,4.014,4.028,4.028,4.056,4.056,4.07,4.085,4.114,4.128,4.158,4.188,4.203,4.218,4.249,4.249,4.264,4.264,4.264,4.264,4.264,4.264,4.249,4.249,4.249,4.218,4.218,4.203,4.188,4.158,4.128,4.114,4.114,4.085,4.07,4.07,4.056,4.056,4.056,4.056,4.056,4.07,4.07,4.07,4.085,4.114,4.128,4.128,4.158,4.173,4.173,4.188,4.188,4.173,4.173,4.173,4.158,4.128,4.114,4.085,4.07,4.056,4.114,4.114,4.085,4.085,4.085,4.07,4.07,4.085,4.085,4.114,4.128,4.158,4.173,4.188,4.203,4.218,4.233,4.249,4.249,4.249,4.249,4.249,4.249,4.249,4.249,4.249,4.249,4.249,4.249,4.249,4.249,4.249,4.249,4.249,4.249,4.249,4.249,4.249,4.249,4.249,4.249,4.249,4.249,4.249,4.249,4.264,4.264,4.264,4.264,4.264,4.264,4.264,4.28,4.28,4.28,4.28,4.28,4.28,4.28,4.28,4.28,4.296,4.296,4.312,4.312,4.312,4.328,4.328,4.36,4.376,4.393,4.41,4.426,4.426,4.46,4.46,4.46,4.426,4.426,4.41,4.41,4.393,4.36,4.344,4.344,4.328,4.328,4.328,4.328,4.328,4.328,4.328,4.36,4.36,4.376,4.376,4.376,4.393,4.393,4.393,4.393,4.393,4.393,4.393,4.393,4.393,4.393,4.376,4.376,4.376,4.393,4.41,4.41,4.426,4.46,4.477,4.512,4.512,4.53,4.53,4.565,4.565,4.565,4.583,4.583,4.583,4.583,4.583,4.583,4.565,4.565,4.565,4.53,4.53,4.53,4.53,4.53,4.53,4.565,4.565,4.583,4.583,4.601,4.601,4.638,4.638,4.638,4.657,4.657,4.657,4.657,4.657,4.657,4.657,4.657,4.657,4.657,4.657,4.657,4.657,4.657,4.657,4.694,4.657,4.694,4.657,4.657,4.657,4.657,4.694,4.694,4.694,4.713,4.713,4.713,4.732,4.732,4.732,4.752,4.752,4.771,4.771,4.771,4.791,4.791,4.791,4.81,4.81,4.81,4.81,4.81,4.81,4.81,4.791,4.791,4.791,4.771,4.771,4.752,4.752,4.732,4.732,4.713,4.713,4.713,4.713,4.713,4.732,4.732,4.752,4.752,4.771,4.791,4.81,4.81,4.83,4.83,4.83,4.83,4.83,4.851,4.851,4.851,4.851,4.851,4.851,4.851,4.851,4.851,4.83,4.83,4.83,4.83,4.81,4.81,4.81,4.81,4.81,4.81,4.81,4.81,4.791,4.791,4.791,4.791,4.791,4.791,4.791,4.791,4.791,4.791,4.791,4.791,4.771,4.771,4.752,4.752,4.752,4.752,4.732,4.732,4.732,4.713,4.713,4.713,4.713,4.713,4.713,4.694,4.694,4.694,4.694,4.694,4.694,4.694,4.694,4.713,4.713,4.713,4.713,4.713,4.732,4.732,4.752,4.752,4.752,4.771,4.771,4.771,4.752,4.752,4.752,4.732,4.732,4.713,4.713,4.694,4.694,4.657,4.657,4.657,4.638,4.601,4.601,4.601,4.601,4.601,4.601,4.638,4.638,4.638,4.657,4.657,4.657,4.657,4.657,4.657,4.657,4.657,4.657,4.657,4.694,4.694,4.694,4.657,4.657,4.657,4.638,4.638,4.638,4.638,4.638,4.638,4.638,4.638,4.638,4.638,4.601,4.601,4.583,4.583,4.565,4.53,4.512,4.477,4.426,4.36,4.28,3.893,0,0,3.404,3.326,3.261,3.225,3.216,3.207,3.207,3.216,3.216,3.225,3.225,3.225,3.234,3.234,0,0,0,0,0,0,0,3.198,3.189,3.181,3.181,3.172,3.172,3.163,3.163,3.155,3.146,3.146,3.138,3.121,3.113,3.096,3.08,3.055,3.047,3.039,3.024,3.024,3.024,3.016,3.024,3.024,3.039,3.024,3.055,3.055,3.08,3.113,3.138,3.163,3.207,3.317,0,3.424,0,0,3.696,3.78,3.829,3.855,3.868,3.893,3.906,3.906,3.906,3.893,3.893,3.88,3.88,3.868,3.868,3.868,3.88,3.88,3.893,3.906,3.92,3.946,3.973,4.014,4.028,0,4.056,4.085,4.128,4.158,4.173,4.188,4.188,4.203,4.218,4.218,4.218,4.218,4.233,4.233,4.218,4.233,0,0,0,0,0,0,0,0
0,0,4.028,3.987,3.987,3.987,3.973,3.973,3.946,3.946,3.946,3.946,3.973,4.014,4.028,4.056,4.085,4.114,4.158,4.188,4.203,4.218,4.218,4.233,4.249,4.249,4.249,4.249,4.249,4.249,4.249,4.218,4.203,0,4.128,4.07,3.987,3.933,3.88,3.842,3.817,3.817,3.804,3.804,3.78,3.767,3.755,3.743,3.731,3.707,3.672,3.661,3.649,3.627,3.627,3.627,3.627,3.649,3.649,3.661,3.661,3.696,3.696,3.707,3.731,3.743,3.743,3.767,3.767,3.792,3.804,3.804,3.804,3.817,3.817,3.817,3.829,3.829,3.829,3.855,3.855,3.868,3.868,3.88,3.893,3.906,3.893,3.906,3.906,3.893,3.906,3.906,3.92,3.946,3.946,3.973,3.987,4.014,4.028,4.028,4.056,4.056,4.07,4.07,4.085,4.085,4.114,4.114,4.128,4.158,4.173,4.203,4.218,4.233,4.249,4.249,4.264,4.264,4.264,4.28,4.28,4.28,4.28,4.264,4.264,4.249,4.249,4.249,4.233,4.218,4.188,4.173,4.158,4.158,4.128,4.114,4.085,4.085,4.085,4.085,4.085,4.085,4.085,4.114,4.128,4.158,4.173,4.173,4.188,4.203,4.218,4.218,4.218,4.218,4.218,4.218,4.203,4.249,4.233,4.233,4.218,4.218,4.203,4.203,4.188,4.188,4.173,4.173,4.173,4.173,4.173,4.173,4.173,4.188,4.203,4.203,4.218,4.233,4.249,4.249,4.249,4.249,4.264,4.264,4.264,4.264,4.264,4.264,4.264,4.264,4.264,4.264,4.249,4.249,4.249,4.249,4.249,4.249,4.249,4.249,4.249,4.249,4.249,4.249,4.264,4.264,4.264,4.264,4.264,4.264,4.264,4.28,4.28,4.28,4.28,4.28,4.28,4.28,4.28,4.28,4.296,4.296,4.296,4.296,4.296,4.312,4.312,4.312,4.328,4.328,4.344,4.376,4.393,4.41,4.426,4.46,4.46,4.477,4.477,4.46,4.46,4.46,4.426,4.41,4.41,4.36,4.36,4.344,4.328,4.328,4.328,4.328,4.344,4.36,4.36,4.376,4.393,4.41,4.426,4.426,4.426,4.46,4.46,4.46,4.46,4.46,4.46,4.46,4.46,4.46,4.46,4.46,4.46,4.46,4.477,4.477,4.512,4.53,4.53,4.565,4.583,4.601,4.638,4.638,4.638,4.638,4.638,4.657,4.638,4.638,4.638,4.638,4.601,4.601,4.583,4.565,4.565,4.565,4.565,4.565,4.565,4.583,4.583,4.601,4.638,4.638,4.657,4.657,4.694,4.694,4.694,4.694,4.694,4.713,4.713,4.732,4.732,4.713,4.713,4.713,4.732,4.732,4.732,4.713,4.732,4.732,4.732,4.752,4.732,4.732,4.732,4.732,4.732,4.732,4.732,4.732,4.752,4.752,4.752,4.771,4.771,4.771,4.771,4.791,4.791,4.791,4.791,4.791,4.81,4.81,4.81,4.81,4.81,4.81,4.81,4.81,4.81,4.81,4.81,4.81,4.791,4.791,4.771,4.771,4.771,4.771,4.771,4.771,4.771,4.771,4.771,4.771,4.771,4.791,4.81,4.81,4.81,4.83,4.83,4.83,4.83,4.851,4.851,4.851,4.851,4.851,4.871,4.871,4.871,4.871,4.851,4.851,4.851,4.851,4.83,4.83,4.83,4.83,4.81,4.81,4.81,4.81,4.81,4.81,4.81,4.81,4.81,4.81,4.791,4.791,4.791,4.791,4.791,4.791,4.791,4.791,4.791,4.771,4.771,4.752,4.752,4.752,4.752,4.752,4.732,4.732,4.713,4.713,4.713,4.713,4.713,4.713,4.694,4.694,4.694,4.694,4.694,4.694,4.713,4.713,4.713,4.713,4.713,4.732,4.732,4.752,4.752,4.752,4.752,4.752,4.771,4.752,4.752,4.752,4.732,4.713,4.713,4.713,4.713,4.694,4.694,4.657,4.657,4.657,4.638,4.638,4.601,4.601,4.601,4.601,4.601,4.601,4.601,4.638,4.638,4.638,4.638,4.638,4.638,4.638,4.638,4.638,4.638,4.638,4.638,4.638,4.638,4.638,4.638,4.638,4.601,4.601,4.601,4.601,4.601,4.601,4.601,4.601,4.601,4.601,4.601,4.583,4.583,4.565,4.53,4.53,4.512,4.512,4.426,4.328,3.987,0,0,3.424,3.355,3.288,3.243,3.225,3.225,3.216,3.225,3.225,3.225,3.234,3.243,3.243,3.261,3.288,3.298,3.298,3.298,0,0,0,3.234,3.216,3.198,3.189,3.181,3.181,3.181,3.172,3.163,3.163,3.155,3.155,3.146,3.129,3.121,3.104,3.096,3.08,3.072,3.055,3.047,3.039,3.039,3.047,3.039,3.072,3.072,3.072,3.072,3.08,3.121,3.146,3.181,3.225,3.336,0,3.444,0,0,3.755,3.817,3.855,3.88,3.906,3.933,3.946,3.946,3.946,3.933,3.92,3.92,3.906,3.906,3.893,3.88,3.88,3.88,3.88,3.893,3.893,3.906,3.92,3.933,3.946,3.973,4.014,4.028,0,4.056,4.07,4.114,4.128,4.128,4.158,4.173,4.173,4.188,4.188,4.188,4.188,4.188,4.188,0,0,0,0,0,0,0,0
0,0,0,4.014,4.014,3.987,3.987,3.973,3.946,3.946,3.946,3.973,3.973,3.987,4.014,4.056,4.07,4.114,4.128,4.173,4.188,4.203,4.218,4.218,4.233,4.233,4.249,4.233,4.233,4.233,4.233,4.218,4.188,4.188,4.158,4.114,4.056,3.987,3.933,3.92,3.893,3.88,3.829,3.817,3.804,3.792,3.78,3.755,3.743,3.707,3.696,3.672,3.661,3.627,3.649,3.627,3.627,3.649,3.649,3.649,3.661,3.672,3.696,3.696,3.707,3.731,3.743,3.755,3.767,3.78,3.78,3.792,3.792,3.804,3.804,3.817,3.817,3.829,3.829,3.855,3.855,3.868,3.868,3.88,3.893,3.906,3.893,3.906,3.906,3.893,3.906,3.92,3.92,3.946,3.973,3.987,4.014,4.028,4.056,4.07,4.085,4.085,4.085,4.114,4.128,4.128,4.158,4.173,4.173,4.203,4.218,4.218,4.249,4.249,4.264,4.264,4.28,4.28,4.28,4.28,4.28,4.28,4.28,4.28,4.264,4.264,4.264,4.249,4.249,4.249,4.233,4.203,4.188,4.188,4.173,4.158,4.128,4.128,4.128,4.128,4.128,4.158,4.158,4.173,4.173,4.188,4.203,4.218,4.233,4.249,4.264,4.264,4.264,4.264,4.264,4.264,4.264,4.264,4.264,4.249,4.249,4.249,4.233,4.233,4.218,4.218,4.218,4.218,4.203,4.203,4.203,4.218,4.218,4.233,4.233,4.233,4.249,4.249,4.249,4.264,4.264,4.264,4.264,4.264,4.28,4.28,4.28,4.264,4.264,4.264,4.264,4.264,4.264,4.264,4.264,4.264,4.264,4.264,4.264,4.249,4.264,4.264,4.264,4.264,4.264,4.264,4.28,4.28,4.28,4.28,4.296,4.296,4.296,4.312,4.312,4.312,4.296,4.296,4.296,4.296,4.296,4.296,4.296,4.312,4.312,4.312,4.312,4.328,4.328,4.344,4.36,4.393,4.41,4.426,4.46,4.46,4.477,4.477,4.477,4.477,4.46,4.46,4.426,4.41,4.41,4.376,4.36,4.344,4.344,4.344,4.36,4.36,4.376,4.376,4.41,4.41,4.426,4.46,4.477,4.512,4.512,4.53,4.53,4.53,4.53,4.53,4.53,4.53,4.53,4.53,4.53,4.53,4.53,4.53,4.565,4.565,4.583,4.601,4.601,4.638,4.657,4.694,4.694,4.713,4.713,4.713,4.713,4.713,4.713,4.713,4.694,4.694,4.657,4.657,4.638,4.601,4.601,4.583,4.583,4.583,4.601,4.601,4.638,4.657,4.657,4.694,4.694,4.713,4.713,4.713,4.732,4.732,4.732,4.752,4.752,4.752,4.752,4.752,4.752,4.752,4.771,4.771,4.771,4.771,4.771,4.771,4.771,4.771,4.771,4.771,4.771,4.771,4.771,4.771,4.771,4.771,4.771,4.771,4.771,4.771,4.791,4.791,4.791,4.81,4.81,4.81,4.81,4.81,4.81,4.81,4.81,4.81,4.83,4.83,4.83,4.81,4.81,4.81,4.81,4.81,4.81,4.81,4.81,4.81,4.81,4.81,4.791,4.791,4.791,4.81,4.81,4.81,4.81,4.81,4.81,4.81,4.83,4.83,4.83,4.83,4.83,4.851,4.851,4.851,4.871,4.871,4.871,4.871,4.871,4.871,4.871,4.871,4.851,4.851,4.851,4.851,4.851,4.83,4.83,4.83,4.81,4.81,4.81,4.81,4.81,4.81,4.81,4.81,4.81,4.81,4.791,4.791,4.791,4.791,4.791,4.791,4.791,4.771,4.771,4.771,4.771,4.752,4.752,4.752,4.732,4.732,4.713,4.713,4.713,4.713,4.713,4.713,4.694,4.694,4.694,4.694,4.694,4.694,4.713,4.713,4.713,4.713,4.713,4.732,4.732,4.732,4.752,4.752,4.752,4.752,4.752,4.752,4.732,4.713,4.713,4.713,4.713,4.694,4.694,4.694,4.694,4.657,4.657,4.657,4.657,4.638,4.638,4.601,4.601,4.601,4.601,4.601,4.601,4.601,4.601,4.601,4.601,4.601,4.601,4.601,4.601,4.601,4.601,4.601,4.601,4.601,4.601,4.583,4.583,4.583,4.583,4.565,4.565,4.583,4.583,4.583,4.583,4.583,4.583,4.583,4.583,4.583,4.565,4.565,4.53,4.512,4.512,4.477,4.41,4.312,4.173,3.755,3.454,3.384,3.326,3.27,3.243,3.234,3.234,3.234,3.225,3.234,3.234,3.243,3.243,3.261,3.27,3.288,3.298,3.298,3.298,3.298,3.27,3.243,3.234,3.216,3.198,3.189,3.189,3.181,3.181,3.181,3.172,3.163,3.155,3.155,3.146,3.138,3.129,3.113,3.104,3.096,3.08,3.072,3.072,3.055,3.08,3.072,3.08,3.08,3.08,3.096,3.104,3.129,3.155,3.189,3.243,3.365,0,3.465,0,0,3.804,3.829,3.868,3.92,3.946,3.973,3.987,4.014,3.987,3.987,3.973,3.973,3.946,3.933,3.92,3.906,3.906,3.893,3.893,3.88,3.88,3.893,3.893,3.893,3.906,3.92,3.92,3.946,3.973,3.987,4.014,4.028,0,4.056,4.07,4.085,4.114,4.114,4.128,4.128,4.128,4.128,4.128,4.158,0,0,0,0,0,0,0,0
0,0,4.07,4.028,4.028,4.014,4.014,3.987,3.973,3.973,3.973,3.987,4.014,4.028,4.028,4.056,4.07,4.114,4.128,4.173,4.188,4.188,4.203,4.203,4.203,4.218,4.218,4.203,4.218,4.203,4.203,4.203,4.203,4.188,4.158,4.128,4.085,0,4.028,3.987,3.987,3.946,3.933,3.92,3.893,3.817,3.804,3.792,3.755,3.743,3.731,3.696,3.672,3.672,3.661,3.649,3.649,3.649,3.649,3.661,3.661,3.672,3.696,3.696,3.707,3.731,3.731,3.755,3.743,3.755,3.767,3.78,3.792,3.804,3.817,3.817,3.829,3.842,3.855,3.855,3.868,3.868,3.88,3.88,3.893,3.906,3.893,3.906,3.893,3.893,3.906,3.92,3.933,3.946,3.973,3.987,4.028,4.056,4.085,4.114,4.114,4.128,4.158,4.158,4.173,4.188,4.188,4.203,4.218,4.233,4.249,4.249,4.264,4.264,4.28,4.28,4.28,4.296,4.296,4.296,4.296,4.296,4.28,4.28,4.28,4.28,4.264,4.264,4.264,4.249,4.249,4.233,4.218,4.203,4.203,4.188,4.173,4.173,4.173,4.173,4.188,4.188,4.188,4.203,4.249,4.264,4.264,4.264,4.28,4.28,4.28,4.296,4.296,4.28,4.28,4.28,4.28,4.28,4.264,4.264,4.264,4.264,4.249,4.249,4.249,4.249,4.249,4.249,4.249,4.249,4.249,4.249,4.249,4.249,4.249,4.249,4.249,4.264,4.264,4.264,4.264,4.28,4.28,4.28,4.28,4.28,4.28,4.28,4.28,4.28,4.28,4.28,4.28,4.28,4.28,4.28,4.264,4.264,4.264,4.264,4.264,4.264,4.28,4.28,4.28,4.28,4.28,4.296,4.312,4.312,4.312,4.312,4.312,4.328,4.328,4.328,4.328,4.312,4.312,4.312,4.312,4.312,4.312,4.312,4.328,4.328,4.328,4.328,4.344,4.376,4.393,4.41,4.426,4.426,4.46,4.477,4.477,4.477,4.477,4.477,4.46,4.46,4.426,4.41,4.41,4.376,4.376,4.376,4.376,4.376,4.376,4.393,4.41,4.426,4.46,4.477,4.512,4.53,4.53,4.565,4.583,4.583,4.601,4.601,4.601,4.601,4.601,4.601,4.601,4.601,4.601,4.601,4.601,4.601,4.638,4.638,4.657,4.657,4.694,4.713,4.732,4.732,4.752,4.752,4.752,4.752,4.752,4.752,4.752,4.752,4.732,4.732,4.713,4.694,4.657,4.638,4.638,4.638,4.638,4.638,4.638,4.638,4.657,4.694,4.713,4.732,4.732,4.732,4.752,4.752,4.771,4.771,4.791,4.791,4.791,4.791,4.791,4.791,4.791,4.81,4.81,4.81,4.81,4.81,4.81,4.81,4.81,4.81,4.81,4.81,4.81,4.81,4.81,4.81,4.81,4.791,4.791,4.791,4.791,4.81,4.81,4.81,4.81,4.81,4.81,4.83,4.83,4.83,4.83,4.83,4.83,4.83,4.83,4.83,4.83,4.83,4.83,4.83,4.83,4.83,4.83,4.81,4.81,4.81,4.81,4.81,4.81,4.81,4.81,4.81,4.81,4.81,4.81,4.81,4.81,4.81,4.83,4.83,4.83,4.83,4.851,4.851,4.851,4.851,4.871,4.891,4.891,4.891,4.891,4.891,4.891,4.871,4.871,4.871,4.851,4.851,4.851,4.851,4.83,4.83,4.83,4.81,4.81,4.81,4.81,4.81,4.81,4.81,4.81,4.81,4.81,4.81,4.81,4.791,4.791,4.791,4.791,4.791,4.791,4.771,4.771,4.771,4.752,4.752,4.732,4.732,4.732,4.713,4.713,4.713,4.713,4.713,4.694,4.694,4.694,4.694,4.694,4.694,4.713,4.713,4.713,4.713,4.713,4.713,4.732,4.732,4.752,4.752,4.752,4.752,4.752,4.752,4.713,4.713,4.694,4.694,4.657,4.657,4.638,4.638,4.638,4.657,4.657,4.657,4.657,4.638,4.638,4.638,4.638,4.601,4.601,4.601,4.601,4.601,4.601,4.601,4.601,4.583,4.583,4.583,4.583,4.583,4.583,4.583,4.583,4.583,4.583,4.565,4.565,4.565,4.565,4.53,4.53,4.53,4.53,4.565,4.565,4.565,4.565,4.565,4.565,4.565,4.565,4.565,4.53,4.512,4.477,4.46,4.393,4.28,0,3.485,3.414,3.336,3.288,3.261,3.234,3.243,3.243,3.234,3.243,3.243,3.243,3.261,3.27,3.288,3.288,3.298,3.298,3.317,3.298,3.298,3.27,3.243,3.234,3.225,3.207,3.198,3.189,3.189,3.181,3.181,3.172,3.163,3.163,3.155,3.146,3.138,3.129,3.121,3.113,3.096,3.096,3.096,3.08,3.08,3.096,3.096,3.096,3.096,3.104,3.113,3.138,3.155,3.189,3.261,0,3.384,3.465,0,3.707,3.817,3.855,3.893,3.933,3.987,0,4.014,4.028,4.028,4.056,4.056,4.028,4.014,3.987,3.973,3.946,3.933,3.92,3.906,3.893,3.893,3.88,3.893,3.88,3.893,3.893,3.893,3.906,3.906,3.92,3.933,3.973,3.987,4.014,4.014,4.028,4.056,4.056,4.056,0,4.07,4.085,4.085,4.085,4.114,0,0,0,0,0,0,0,0
0,0,4.085,4.056,4.056,4.028,4.014,4.014,3.987,3.987,4.014,4.014,4.028,4.056,4.07,4.085,4.114,4.128,4.158,4.173,4.173,4.173,4.173,4.173,4.173,4.188,4.188,4.188,4.188,4.188,4.173,4.173,4.158,4.173,4.158,4.158,4.128,4.085,4.07,4.056,4.056,4.056,4.028,3.987,3.973,3.946,3.92,3.893,3.817,3.792,3.78,3.755,3.731,3.696,3.672,3.661,3.661,3.661,3.661,3.661,3.661,3.672,3.672,3.696,3.696,3.707,3.707,3.731,3.743,3.743,3.755,3.767,3.78,3.804,3.817,3.829,3.829,3.842,3.855,3.868,3.868,3.88,3.88,3.88,3.893,3.893,3.893,3.893,3.893,3.893,3.906,3.92,3.933,3.946,3.987,4.028,4.056,4.085,4.114,4.128,4.158,4.173,4.173,4.188,4.188,4.203,4.218,4.233,4.249,4.249,4.249,4.264,4.264,4.264,4.28,4.28,4.296,4.296,4.296,4.296,4.312,4.296,4.296,4.28,4.28,4.28,4.28,4.264,4.264,4.264,4.249,4.249,4.233,4.218,4.218,4.203,4.203,4.218,4.218,4.233,4.249,4.249,4.249,4.264,4.264,4.264,4.28,4.28,4.296,4.296,4.312,4.312,4.312,4.312,4.296,4.296,4.296,4.28,4.28,4.28,4.28,4.264,4.264,4.264,4.264,4.264,4.264,4.264,4.264,4.264,4.249,4.249,4.249,4.264,4.264,4.264,4.264,4.264,4.28,4.28,4.28,4.28,4.28,4.28,4.296,4.296,4.296,4.296,4.296,4.296,4.296,4.296,4.296,4.296,4.28,4.28,4.28,4.28,4.28,4.28,4.28,4.28,4.28,4.28,4.296,4.296,4.312,4.328,4.328,4.328,4.328,4.344,4.344,4.36,4.36,4.344,4.344,4.344,4.328,4.328,4.328,4.328,4.328,4.328,4.328,4.344,4.344,4.36,4.376,4.393,4.426,4.426,4.46,4.477,4.477,4.477,4.477,4.477,4.477,4.46,4.46,4.426,4.426,4.41,4.41,4.393,4.376,4.376,4.376,4.393,4.41,4.41,4.46,4.477,4.512,4.53,0,4.565,4.583,4.601,4.638,4.638,4.657,4.657,4.694,4.694,4.694,4.694,4.657,4.657,4.657,4.657,4.657,4.657,4.657,4.694,4.694,4.713,4.732,4.732,4.752,4.771,4.771,4.771,4.791,4.791,4.791,4.791,4.791,4.791,4.771,4.771,4.752,4.732,4.713,4.694,4.657,4.657,4.657,4.694,4.694,4.694,4.713,4.713,4.732,4.752,4.771,4.791,4.791,4.791,4.81,4.81,4.81,4.81,4.81,4.81,4.81,4.81,4.81,4.81,4.81,4.81,4.81,4.83,4.83,4.83,4.83,4.83,4.83,4.83,4.83,4.83,4.83,4.81,4.81,4.81,4.81,4.81,4.81,4.81,4.81,4.83,4.83,4.83,4.83,4.83,4.83,4.83,4.851,4.851,4.851,4.851,4.851,4.851,4.851,4.851,4.851,4.851,4.851,4.83,4.83,4.83,4.83,4.83,4.83,4.83,4.83,4.83,4.83,4.81,4.81,4.81,4.81,4.83,4.83,4.83,4.83,4.83,4.83,4.83,4.851,4.851,4.851,4.871,4.871,4.891,4.891,4.891,4.891,4.891,4.891,4.891,4.891,4.891,4.891,4.871,4.851,4.851,4.851,4.83,4.83,4.83,4.83,4.83,4.81,4.81,4.81,4.81,4.81,4.81,4.81,4.81,4.81,4.81,4.81,4.81,4.81,4.791,4.791,4.791,4.771,4.771,4.752,4.752,4.752,4.732,4.732,4.732,4.713,4.713,4.713,4.713,4.713,4.694,4.694,4.694,4.694,4.713,4.713,4.713,4.713,4.713,4.713,4.713,4.732,4.752,4.752,4.752,4.752,4.752,4.752,4.732,4.713,4.713,4.694,4.694,4.657,4.657,4.638,4.638,4.638,4.638,4.638,4.638,4.638,4.638,4.638,4.638,4.638,4.601,4.601,4.601,4.601,4.601,4.583,4.583,4.583,4.583,4.583,4.565,4.565,4.565,4.565,4.565,4.565,4.565,4.583,4.565,4.565,4.565,4.53,4.53,4.53,4.53,4.53,4.512,4.53,4.53,4.565,4.53,4.565,4.53,4.53,4.512,4.512,4.46,4.426,4.41,4.36,4.249,0,3.454,3.384,3.317,3.288,3.27,3.261,3.243,3.261,3.243,3.261,3.261,3.261,3.27,3.288,3.298,3.298,3.317,3.317,3.317,3.317,3.298,3.288,3.261,3.243,3.234,3.225,3.207,3.198,3.189,3.189,3.181,3.181,3.163,3.163,3.155,3.146,3.146,3.129,3.129,3.121,3.113,3.104,3.104,3.096,3.096,3.104,3.104,3.104,3.104,3.121,3.138,3.163,3.189,3.27,0,3.384,3.465,0,3.731,3.804,3.855,3.893,3.946,0,4.014,4.056,4.07,4.07,4.07,4.085,4.085,4.085,4.07,4.028,4.014,3.987,3.973,3.946,3.92,3.906,3.906,3.893,3.893,3.893,3.88,3.88,3.893,3.893,3.893,3.906,3.92,3.92,3.933,3.946,3.946,3.973,3.987,4.014,4.014,4.028,4.028,4.028,4.056,0,4.07,0,0,0,0,0,0,0,0
0,4.114,4.085,4.07,4.07,4.056,4.028,4.014,4.014,4.014,4.028,4.028,4.07,4.07,4.114,4.114,4.128,4.158,4.173,4.188,4.188,4.188,4.173,4.173,4.173,4.158,4.158,4.158,4.158,4.128,4.128,4.128,4.128,4.128,4.128,4.128,4.128,4.114,4.114,4.114,4.114,0,4.114,4.085,4.07,4.056,4.028,4.014,3.973,3.933,3.868,3.804,3.78,3.743,3.731,3.696,3.672,3.661,3.672,3.661,3.661,3.661,3.672,3.672,3.672,3.696,3.696,3.707,3.707,3.731,3.743,3.755,3.767,3.792,3.804,3.829,3.842,3.855,3.855,3.868,3.868,3.88,3.88,3.893,3.893,3.906,3.893,3.893,3.893,3.893,3.906,3.92,3.933,3.973,4.014,4.056,4.085,4.114,4.128,4.173,4.173,4.188,4.203,4.218,4.218,4.218,4.233,4.249,4.249,4.249,4.264,4.264,4.264,4.28,4.28,4.28,4.296,4.296,4.296,4.312,4.312,4.312,4.296,4.296,4.28,4.28,4.28,4.264,4.264,4.264,4.249,4.249,4.249,4.249,4.233,4.233,4.233,4.233,4.249,4.249,4.249,4.264,4.264,4.264,4.28,4.28,4.296,4.312,4.312,4.312,4.312,4.312,4.312,4.312,4.312,4.312,4.312,4.296,4.296,4.296,4.28,4.28,4.28,4.28,4.28,4.28,4.28,4.28,4.28,4.264,4.264,4.264,4.264,4.264,4.264,4.28,4.28,4.28,4.28,4.296,4.296,4.312,4.312,4.312,4.312,4.312,4.312,4.312,4.312,4.312,4.312,4.312,4.312,4.312,4.312,4.312,4.296,4.296,4.28,4.28,4.28,4.296,4.296,4.312,4.312,4.328,4.328,4.344,4.344,4.376,4.393,4.376,4.376,4.41,4.41,4.393,4.376,4.376,4.376,4.36,4.36,4.36,4.344,4.36,4.36,4.376,4.393,4.393,4.41,4.426,4.46,4.477,4.477,4.512,4.512,4.512,4.512,4.512,4.477,4.46,4.46,4.426,4.41,4.41,4.41,4.393,4.393,4.393,4.393,4.426,4.426,4.46,4.477,0,4.53,4.565,4.583,4.601,4.638,4.657,4.694,4.694,4.713,4.732,4.732,4.732,4.732,4.732,4.713,4.713,4.713,4.713,4.713,4.713,4.713,4.713,4.732,4.732,4.752,4.771,4.771,4.791,4.791,4.81,4.81,4.81,4.81,4.81,4.81,4.81,4.81,4.791,4.771,4.771,4.752,4.732,4.713,4.713,4.713,4.713,4.713,4.732,4.732,4.752,4.771,4.791,4.81,4.81,4.81,4.83,4.83,4.83,4.83,4.83,4.83,4.83,4.83,4.83,4.83,4.83,4.83,4.83,4.83,4.83,4.83,4.83,4.83,4.83,4.83,4.83,4.83,4.83,4.83,4.83,4.83,4.83,4.83,4.83,4.83,4.83,4.83,4.83,4.83,4.851,4.851,4.851,4.851,4.851,4.851,4.851,4.851,4.871,4.871,4.871,4.871,4.871,4.871,4.851,4.851,4.851,4.851,4.851,4.851,4.851,4.851,4.83,4.83,4.83,4.83,4.83,4.83,4.83,4.83,4.83,4.83,4.83,4.83,4.83,4.851,4.851,4.851,4.851,4.851,4.891,4.891,4.891,4.891,4.891,4.912,4.912,4.912,4.891,4.891,4.891,4.891,4.891,4.871,4.871,4.851,4.851,4.851,4.83,4.83,4.83,4.83,4.83,4.81,4.81,4.81,4.81,4.81,4.81,4.81,4.81,4.81,4.81,4.81,4.791,4.791,4.791,4.771,4.771,4.771,4.752,4.752,4.752,4.732,4.732,4.732,4.713,4.713,4.713,4.713,4.713,4.713,4.713,4.713,4.713,4.713,4.713,4.713,4.713,4.713,4.713,4.732,4.752,4.752,4.752,4.752,4.752,4.752,4.752,4.732,4.713,4.713,4.694,4.657,4.657,4.638,4.638,4.638,4.638,4.638,4.638,4.638,4.638,4.638,4.638,4.638,4.601,4.601,4.601,4.601,4.601,4.583,4.583,4.583,4.583,4.583,4.583,4.583,4.565,4.565,4.565,4.565,4.583,4.583,4.583,4.565,4.565,4.565,4.53,4.53,4.53,4.53,4.53,4.53,4.53,4.565,4.53,4.53,4.53,4.512,4.477,4.46,4.41,4.393,4.36,4.312,4.188,0,3.444,3.384,3.317,3.298,3.288,3.27,3.261,3.27,3.27,3.27,3.27,3.288,3.298,3.298,3.317,3.317,3.326,3.326,3.326,3.317,3.317,3.298,3.27,3.261,3.243,3.234,3.216,3.207,3.198,3.189,3.189,3.181,3.172,3.163,3.155,3.146,3.146,3.138,3.129,3.121,3.121,3.113,3.113,3.104,3.104,3.104,3.113,3.121,3.129,3.146,3.163,3.198,3.27,0,3.384,3.465,0,3.707,3.804,3.855,3.893,3.933,0,4.014,4.056,4.07,4.085,4.114,4.114,4.128,4.128,4.128,4.114,4.114,4.085,4.028,4.014,3.973,3.946,3.92,3.92,3.893,3.893,3.893,3.88,3.88,3.88,3.88,3.893,3.893,3.906,3.906,3.92,3.92,3.92,3.933,3.946,3.946,3.973,3.987,3.987,4.014,4.014,4.056,0,0,0,0,0,0,0,0,0
0,4.114,4.085,4.07,4.07,4.056,4.028,4.028,4.028,4.014,4.028,4.056,4.085,4.085,4.128,4.158,4.173,4.188,4.203,4.203,4.203,4.203,4.203,4.188,4.173,4.158,4.158,4.128,4.128,4.128,4.128,4.114,4.114,4.128,4.128,4.128,4.158,4.158,4.158,4.158,4.173,4.173,4.173,4.128,4.128,4.128,4.114,4.085,4.085,4.028,3.987,3.946,3.88,3.842,3.817,3.792,3.731,3.707,3.696,3.672,3.661,3.661,3.672,3.672,3.672,3.672,3.672,3.696,3.696,3.707,3.707,3.743,3.767,3.792,3.804,3.829,3.842,3.855,3.868,3.868,3.868,3.88,3.88,3.893,3.893,3.893,3.893,3.893,3.893,3.893,3.906,3.92,3.946,3.973,4.014,4.056,4.07,4.114,4.128,4.173,4.173,4.188,4.203,4.218,4.218,4.233,4.249,4.249,4.249,4.249,4.264,4.264,4.264,4.28,4.28,4.28,4.28,4.296,4.296,4.296,4.296,4.296,4.296,4.28,4.28,4.28,4.28,4.28,4.264,4.264,4.264,4.264,4.249,4.249,4.249,4.249,4.249,4.249,4.249,4.264,4.264,4.264,4.28,4.28,4.296,4.312,4.312,4.312,4.312,4.328,4.328,4.328,4.328,4.328,4.328,4.312,4.312,4.312,4.312,4.312,4.296,4.296,4.296,4.296,4.296,4.28,4.28,4.28,4.28,4.28,4.28,4.28,4.28,4.28,4.28,4.28,4.28,4.296,4.296,4.312,4.312,4.312,4.328,4.328,4.328,4.328,4.328,4.328,4.328,4.328,4.328,4.328,4.328,4.328,4.312,4.312,4.312,4.312,4.312,4.312,4.312,4.312,4.312,4.328,4.328,4.344,4.344,4.376,4.393,4.41,4.426,4.426,4.46,4.46,4.46,4.426,4.41,4.41,4.393,4.393,4.376,4.393,4.393,4.376,4.393,4.41,4.41,4.426,4.477,4.477,4.512,4.53,4.53,4.53,4.53,4.53,4.53,4.512,4.512,4.477,4.477,4.46,4.426,4.426,4.426,4.41,4.41,4.426,4.426,0,4.46,4.477,4.512,4.53,4.583,4.601,4.638,4.657,4.694,4.713,4.732,4.732,4.752,4.752,4.771,4.771,4.771,4.771,4.752,4.732,4.732,4.732,4.732,4.713,4.732,4.732,4.732,4.752,4.771,4.771,4.791,4.791,4.81,4.81,4.81,4.81,4.81,4.81,4.81,4.81,4.81,4.81,4.81,4.791,4.771,4.752,4.752,4.752,4.752,4.752,4.752,4.752,4.771,4.791,4.81,4.81,4.81,4.83,4.83,4.83,4.851,4.851,4.851,4.851,4.851,4.851,4.851,4.851,4.83,4.83,4.83,4.83,4.83,4.83,4.851,4.851,4.851,4.851,4.851,4.851,4.851,4.851,4.851,4.851,4.851,4.851,4.851,4.851,4.851,4.851,4.851,4.851,4.851,4.851,4.871,4.871,4.871,4.891,4.891,4.891,4.891,4.891,4.891,4.891,4.891,4.891,4.891,4.891,4.891,4.871,4.871,4.871,4.871,4.851,4.851,4.851,4.851,4.851,4.851,4.83,4.83,4.83,4.83,4.83,4.83,4.83,4.83,4.83,4.851,4.851,4.851,4.871,4.871,4.891,4.891,4.912,4.912,4.912,4.912,4.912,4.912,4.912,4.912,4.891,4.891,4.891,4.891,4.891,4.871,4.871,4.851,4.851,4.83,4.83,4.83,4.83,4.83,4.81,4.81,4.81,4.81,4.81,4.81,4.81,4.81,4.81,4.81,4.81,4.791,4.791,4.791,4.791,4.771,4.771,4.771,4.752,4.752,4.752,4.732,4.732,4.732,4.713,4.713,4.713,4.713,4.713,4.713,4.713,4.713,4.732,4.732,4.732,4.732,4.732,4.732,4.752,4.752,4.752,4.752,4.771,4.752,4.752,4.752,4.732,4.713,4.694,4.657,4.657,4.638,4.638,4.638,4.638,4.638,4.638,4.638,4.638,4.601,4.601,4.601,4.601,4.601,4.601,4.601,4.601,4.601,4.601,4.601,4.583,4.583,4.583,4.583,4.583,4.583,4.601,4.601,4.583,4.583,4.583,4.583,4.583,4.583,4.565,4.565,4.583,4.583,4.565,4.583,4.565,4.565,4.565,4.53,4.512,4.477,4.46,4.41,4.376,4.36,4.328,4.28,3.842,0,3.444,3.384,3.326,3.298,3.298,3.288,3.288,3.288,3.288,3.288,3.298,3.298,3.317,3.326,3.326,3.336,3.326,3.326,3.326,3.326,3.317,3.298,3.288,3.27,3.261,3.243,3.234,3.216,3.198,3.189,3.189,3.181,3.172,3.163,3.155,3.146,3.146,3.138,3.138,3.129,3.121,3.113,3.113,3.113,3.113,3.113,3.121,3.129,3.146,3.163,3.189,3.243,0,3.365,3.454,0,3.696,3.804,3.842,3.868,3.933,3.987,0,4.028,4.07,4.085,4.114,4.128,4.158,4.173,4.173,4.173,4.173,4.158,4.128,4.085,4.028,3.987,3.973,3.933,3.92,3.906,3.906,3.893,3.893,3.88,3.88,3.88,3.88,3.893,3.893,3.893,3.893,3.906,3.906,3.92,3.92,3.933,3.946,3.973,3.973,3.987,3.987,4.014,0,0,0,0,0,0,0,0,0
4.128,4.114,4.085,4.07,4.07,4.056,4.056,4.028,4.028,4.028,4.056,4.085,4.114,4.128,4.158,4.173,4.188,4.218,4.233,4.233,4.233,4.218,4.218,4.218,4.203,4.188,4.158,4.128,4.128,4.114,4.114,4.114,4.128,4.128,4.128,4.158,4.158,4.173,4.173,4.188,4.188,4.188,4.188,4.173,4.173,4.173,4.173,4.173,4.158,4.114,4.07,4.056,3.987,3.868,3.842,3.817,3.792,3.755,3.731,3.696,3.672,3.672,3.672,3.661,3.661,3.661,3.672,3.672,3.696,3.696,3.731,3.743,3.755,3.792,3.804,3.829,3.842,3.855,3.868,3.868,3.868,3.88,3.88,3.893,3.893,3.893,3.893,3.893,3.893,3.893,3.906,3.92,3.946,3.973,4.014,4.028,4.07,4.085,4.128,4.158,4.173,4.188,4.203,4.203,4.218,4.218,4.233,4.249,4.249,4.249,4.264,4.264,4.264,4.264,4.264,4.28,4.28,4.296,4.296,4.296,4.296,4.296,4.296,4.296,4.296,4.28,4.28,4.28,4.28,4.264,4.264,4.264,4.264,4.264,4.249,4.249,4.264,4.264,4.264,4.264,4.28,4.28,4.296,4.296,4.312,4.312,4.312,4.328,4.328,4.328,4.328,4.328,4.328,4.328,4.328,4.312,4.312,4.312,4.312,4.312,4.312,4.296,4.296,4.296,4.296,4.296,4.296,4.296,4.296,4.296,4.296,4.296,4.296,4.296,4.296,4.296,4.312,4.312,4.312,4.312,4.328,4.328,4.344,4.344,4.344,4.36,4.36,4.36,4.36,4.36,4.344,4.344,4.344,4.328,4.328,4.328,4.328,4.328,4.312,4.312,4.312,4.328,4.328,4.328,4.344,4.36,4.393,4.41,4.426,4.46,4.477,4.477,4.512,4.512,4.477,4.477,4.46,4.46,4.46,4.426,4.426,4.426,4.426,4.426,4.426,4.46,4.477,4.512,4.53,4.565,4.565,4.583,4.583,4.583,4.583,4.565,4.565,4.53,4.53,4.512,4.512,4.477,4.46,4.46,4.46,4.46,4.46,4.46,4.46,4.477,4.512,4.53,4.565,4.583,4.601,4.638,4.657,4.694,4.713,4.732,4.732,4.752,4.771,4.771,4.791,4.791,4.791,4.771,4.771,4.752,4.752,4.752,4.732,4.732,4.732,4.752,4.752,4.771,4.771,4.791,4.791,4.81,4.81,4.81,4.81,4.81,4.81,4.81,4.83,4.83,4.81,4.81,4.81,4.81,4.791,4.791,4.771,4.771,4.771,4.771,4.771,4.791,4.81,4.81,4.81,4.83,4.83,4.83,4.851,4.851,4.851,4.871,4.871,4.871,4.871,4.851,4.851,4.851,4.851,4.851,4.851,4.851,4.851,4.851,4.851,4.851,4.851,4.851,4.851,4.851,4.851,4.871,4.871,4.871,4.871,4.871,4.871,4.871,4.871,4.871,4.871,4.871,4.871,4.891,4.891,4.891,4.891,4.891,4.891,4.912,4.912,4.912,4.912,4.912,4.912,4.912,4.912,4.912,4.891,4.891,4.891,4.891,4.891,4.891,4.871,4.871,4.871,4.851,4.851,4.851,4.83,4.83,4.83,4.83,4.83,4.83,4.851,4.851,4.851,4.851,4.851,4.871,4.891,4.891,4.912,4.912,4.912,4.912,4.912,4.912,4.912,4.912,4.912,4.912,4.912,4.891,4.891,4.891,4.891,4.871,4.871,4.851,4.851,4.83,4.83,4.83,4.83,4.83,4.81,4.81,4.81,4.81,4.81,4.81,4.81,4.81,4.81,4.81,4.81,4.81,4.791,4.791,4.791,4.791,4.771,4.771,4.771,4.752,4.752,4.732,4.732,4.732,4.732,4.732,4.732,4.732,4.713,4.732,4.732,4.732,4.732,4.732,4.732,4.732,4.732,4.752,4.752,4.771,4.771,4.771,4.771,4.771,4.752,4.752,4.732,4.713,4.694,4.694,4.657,4.638,4.638,4.638,4.638,4.638,4.638,4.638,4.601,4.601,4.601,4.601,4.601,4.601,4.601,4.601,4.601,4.601,4.601,4.601,4.601,4.601,4.583,4.601,4.601,4.601,4.638,4.638,4.657,4.657,4.657,4.657,4.657,4.657,4.657,4.657,4.657,4.601,4.601,4.583,4.583,4.565,4.53,4.512,4.477,4.41,4.393,4.36,4.328,4.312,4.07,0,0,3.444,3.365,3.326,3.317,3.298,3.298,3.298,3.298,3.298,3.298,3.317,3.326,3.326,3.336,3.336,3.336,3.336,3.336,3.336,3.336,3.317,3.317,3.288,3.288,3.27,3.261,3.243,3.216,3.207,3.189,3.189,3.181,3.172,3.163,3.155,3.155,3.146,3.146,3.138,3.129,3.121,3.121,3.113,3.121,3.121,3.121,3.129,3.146,3.155,3.181,3.225,3.326,0,0,0,3.649,3.792,3.829,3.868,3.906,3.946,0,4.014,4.056,4.085,4.114,4.158,4.173,4.188,4.203,4.203,4.203,4.188,4.173,4.158,4.128,4.056,4.014,3.987,3.946,3.933,3.92,3.906,3.893,3.893,3.88,3.88,3.868,3.88,3.88,3.88,3.88,3.88,3.893,3.893,3.893,3.906,3.906,3.92,3.933,3.946,3.946,3.987,4.014,0,0,0,0,0,0,0,0,0
