3.743,3.743,3.743,3.755,3.755,3.767,3.767,3.767,3.767,3.767,3.767,3.767,3.767,3.767,3.78,3.78,3.792,3.804,3.817,3.855,3.946,4.158,4.28,4.3365,4.393,4.638,4.83,4.891,4.954,4.996,4.996,5.018,5.018,4.996,4.996,4.975,4.975,4.975,4.954,4.954,4.954,4.954,4.954,4.954,4.975,4.975,4.996,5.018,5.018,5.084,5.106,5.174,5.22,5.244,5.244,5.268,5.316,5.316,5.316,5.34,5.316,5.316,5.268,5.268,5.268,5.268,5.316,5.316,5.316,5.34,5.34,5.389,5.389,5.415,5.44,5.465,5.491,5.543,5.543,5.543,5.57,5.57,5.57,5.57,5.597,5.597,5.597,5.597,5.624,5.624,5.624,5.624,5.624,5.624,5.624,5.624,5.624,5.624,5.597,5.597,5.597,5.597,5.597,5.57,5.57,5.57,5.57,5.57,5.57,5.57,5.57,5.597,5.597,5.651,5.651,5.651,5.651,5.679,5.679,5.679,5.679,5.679,5.679,5.679,5.679,5.679,5.679,5.679,5.679,5.651,5.651,5.651,5.651,5.651,5.651,5.624,5.651,5.651,5.651,5.651,5.651,5.651,5.651,5.651,5.651,5.651,5.651,5.679,5.679,5.679,5.707,5.707,5.735,5.735,5.763,5.792,5.821,5.85,5.909,5.909,5.909,5.85,5.85,5.821,5.821,5.763,5.763,5.735,5.735,5.735,5.707,5.707,5.707,5.707,5.707,5.707,5.735,5.735,5.735,5.763,5.763,5.763,5.763,5.763,5.763,5.763,5.735,5.735,5.735,5.735,5.707,5.707,5.707,5.679,5.679,5.651,5.651,5.651,5.624,5.597,5.597,5.57,5.57,5.57,5.543,5.543,5.543,5.517,5.517,5.491,5.465,5.44,5.44,5.44,5.415,5.415,5.415,5.415,5.44,5.44,5.44,5.465,5.465,5.465,5.491,5.491,5.491,5.491,5.491,5.491,5.491,5.465,5.465,5.44,5.44,5.44,5.44,5.44,5.44,5.465,5.465,5.465,5.465,5.465,5.491,5.465,5.465,5.44,5.415,5.34,5.34,5.268,5.244,5.244,5.22,5.174,5.174,5.174,5.174,5.174,5.22,5.244,5.268,5.34,5.389,5.415,5.44,5.491,5.517,5.517,5.543,5.543,5.543,5.543,5.543,5.543,5.517,5.465,5.465,5.44,5.44,5.389,5.34,5.34,5.316,5.316,5.316,5.316,5.316,5.316,5.316,5.34,5.34,5.34,5.389,5.34,5.34,5.34,5.34,5.34,5.316,5.268,5.268,5.244,5.22,5.174,5.174,5.174,5.151,5.151,5.151,5.106,5.139749999999999,5.151,5.151,5.151,5.151,5.151,5.151,5.151,5.106,5.106,5.106,5.106,5.106,5.106,5.084,5.084,5.084,5.04,5.04,5.04,5.04,5.04,5.04,5.018,5.018,5.04,5.04,5.04,5.018,5.04,5.04,5.04,5.04,5.084,5.084,5.084,5.084,5.084,5.084,5.084,5.106,5.106,5.084,5.084,5.084,5.084,5.084,5.084,5.084,5.084,5.084,5.084,5.106,5.106,5.084,5.084,5.084,5.04,5.04,5.018,4.996,4.975,4.933,4.912,4.912,4.891,4.891,4.871,4.871,4.851,4.851,4.851,4.83,4.851,4.851,4.851,4.851,4.83,4.851,4.851,4.851,4.851,4.83,4.83,4.83,4.81,4.81,4.81,4.81,4.791,4.791,4.771,4.771,4.771,4.771,4.771,4.771,4.771,4.771,4.771,4.771,4.771,4.771,4.771,4.771,4.771,4.771,4.771,4.752,4.752,4.732,4.732,4.732,4.732,4.713,4.713,4.694,4.694,4.694,4.694,4.694,4.694,4.694,4.694,4.694,4.657,4.657,4.657,4.601,4.583,4.565,4.565,4.512,4.512,4.477,4.46,4.46,4.41,4.393,4.376,4.36,4.344,4.328,4.328,4.328,4.312,4.312,4.312,4.312,4.312,4.312,4.312,4.312,4.312,4.312,4.312,4.328,4.328,4.328,4.328,4.328,4.344,4.344,4.36,4.376,4.393,4.41,4.426,4.46,4.477,4.512,4.521,4.53,4.565,4.565,4.583,4.601,4.601,4.601,4.601,4.601,4.583,4.583,4.53,4.512,4.477,4.46,4.41,4.41,4.376,4.376,4.376,4.36,4.36,4.344,4.344,4.344,4.344,4.36,4.36,4.36,4.36,4.36,4.36,4.376,4.36,4.36,4.36,4.36,4.344,4.344,4.344,4.344,4.328,4.328,4.328,4.328,4.312,4.312,4.312,4.312,4.296,4.296,4.28,4.28,4.28,4.28,4.28,4.28,4.296,4.296,4.296,4.312
3.743,3.743,3.755,3.755,3.755,3.767,3.767,3.767,3.767,3.767,3.767,3.78,3.78,3.767,3.78,3.78,3.792,3.804,3.829,3.868,3.987,4.188,4.296,4.361000000000001,4.426,4.713,4.851,4.912,4.975,5.018,5.018,5.04,5.04,5.018,4.996,4.996,4.975,4.975,4.975,4.954,4.954,4.975,4.975,4.975,4.996,5.018,5.084,5.106,5.106,5.151,5.174,5.22,5.244,5.268,5.316,5.34,5.34,5.389,5.34,5.34,5.34,5.316,5.316,5.316,5.316,5.316,5.34,5.34,5.389,5.389,5.415,5.415,5.44,5.465,5.491,5.517,5.543,5.543,5.57,5.57,5.57,5.597,5.597,5.597,5.624,5.624,5.651,5.651,5.651,5.651,5.679,5.679,5.679,5.679,5.651,5.651,5.651,5.651,5.651,5.651,5.651,5.651,5.624,5.624,5.597,5.597,5.597,5.624,5.597,5.624,5.624,5.651,5.651,5.651,5.679,5.679,5.679,5.679,5.707,5.707,5.707,5.707,5.707,5.679,5.679,5.679,5.679,5.679,5.679,5.651,5.651,5.651,5.651,5.651,5.651,5.651,5.651,5.651,5.651,5.651,5.651,5.679,5.679,5.679,5.679,5.679,5.679,5.679,5.707,5.707,5.735,5.735,5.763,5.763,5.792,5.821,5.85,5.85,5.909,5.939,5.909,5.909,5.909,5.85,5.85,5.792,5.792,5.792,5.763,5.763,5.735,5.735,5.735,5.707,5.735,5.735,5.735,5.735,5.763,5.763,5.763,5.763,5.763,5.763,5.763,5.735,5.735,5.735,5.735,5.707,5.707,5.679,5.679,5.679,5.651,5.651,5.651,5.624,5.597,5.597,5.597,5.57,5.57,5.543,5.543,5.543,5.517,5.517,5.491,5.465,5.465,5.44,5.44,5.415,5.415,5.415,5.415,5.415,5.415,5.44,5.44,5.44,5.44,5.465,5.465,5.465,5.491,5.491,5.491,5.465,5.465,5.465,5.44,5.44,5.44,5.415,5.415,5.44,5.44,5.44,5.44,5.44,5.465,5.465,5.465,5.465,5.44,5.415,5.389,5.316,5.268,5.244,5.22,5.174,5.174,5.151,5.106,5.106,5.151,5.151,5.174,5.22,5.268,5.316,5.389,5.415,5.465,5.491,5.543,5.543,5.543,5.57,5.57,5.57,5.57,5.57,5.543,5.543,5.517,5.491,5.44,5.44,5.415,5.415,5.34,5.34,5.34,5.34,5.34,5.34,5.34,5.34,5.389,5.389,5.389,5.389,5.389,5.389,5.389,5.34,5.316,5.268,5.268,5.244,5.22,5.174,5.174,5.151,5.151,5.151,5.151,5.151,5.151,5.151,5.151,5.151,5.151,5.151,5.151,5.106,5.106,5.106,5.106,5.106,5.106,5.106,5.084,5.084,5.04,5.04,5.04,5.04,5.018,5.018,5.018,5.018,5.018,5.018,5.018,5.018,5.018,5.018,5.018,5.04,5.04,5.04,5.04,5.04,5.04,5.04,5.04,5.04,5.04,5.04,5.04,5.018,5.018,5.04,5.04,5.04,5.04,5.04,5.04,5.084,5.084,5.106,5.084,5.084,5.084,5.04,5.04,5.018,4.996,4.975,4.933,4.912,4.912,4.891,4.891,4.871,4.871,4.851,4.851,4.851,4.851,4.851,4.851,4.851,4.851,4.83,4.83,4.83,4.83,4.83,4.83,4.83,4.81,4.81,4.81,4.81,4.791,4.791,4.771,4.771,4.771,4.771,4.771,4.771,4.771,4.771,4.771,4.771,4.791,4.791,4.791,4.791,4.791,4.791,4.771,4.771,4.771,4.771,4.771,4.752,4.752,4.732,4.732,4.732,4.732,4.713,4.713,4.694,4.694,4.694,4.694,4.694,4.694,4.657,4.657,4.638,4.601,4.583,4.565,4.53,4.512,4.477,4.46,4.41,4.41,4.376,4.36,4.344,4.328,4.328,4.312,4.312,4.312,4.312,4.312,4.312,4.312,4.312,4.312,4.312,4.312,4.312,4.312,4.328,4.328,4.328,4.328,4.328,4.328,4.344,4.344,4.36,4.376,4.393,4.41,4.41,4.426,4.477,4.4945,4.512,4.53,4.565,4.583,4.583,4.601,4.601,4.601,4.601,4.583,4.565,4.565,4.512,4.477,4.46,4.426,4.41,4.376,4.376,4.36,4.36,4.344,4.344,4.344,4.344,4.344,4.344,4.344,4.344,4.344,4.36,4.344,4.36,4.36,4.36,4.344,4.36,4.36,4.344,4.344,4.344,4.344,4.344,4.328,4.328,4.328,4.312,4.312,4.312,4.312,4.312,4.296,4.296,4.28,4.28,4.28,4.28,4.28,4.296,4.296,4.312,4.312
3.743,3.743,3.755,3.755,3.755,3.767,3.767,3.767,3.767,3.767,3.767,3.78,3.78,3.78,3.78,3.78,3.792,3.804,3.829,3.893,4.028,4.203,4.312,4.386,4.46,4.694,4.851,4.912,4.996,5.018,5.04,5.04,5.018,5.018,5.018,4.996,4.996,4.975,4.975,4.975,4.996,5.018,5.018,5.04,5.084,5.106,5.106,5.106,5.174,5.22,5.244,5.268,5.268,5.316,5.34,5.389,5.389,5.415,5.389,5.389,5.389,5.34,5.34,5.316,5.34,5.34,5.389,5.415,5.415,5.44,5.44,5.465,5.491,5.517,5.543,5.543,5.543,5.57,5.57,5.57,5.597,5.597,5.624,5.624,5.651,5.651,5.651,5.679,5.679,5.679,5.679,5.679,5.679,5.679,5.679,5.679,5.679,5.651,5.651,5.651,5.651,5.651,5.651,5.651,5.651,5.651,5.651,5.651,5.651,5.651,5.651,5.679,5.679,5.679,5.707,5.707,5.735,5.735,5.735,5.735,5.735,5.735,5.707,5.707,5.707,5.679,5.679,5.679,5.651,5.651,5.651,5.651,5.651,5.651,5.651,5.651,5.651,5.651,5.679,5.679,5.679,5.679,5.679,5.679,5.679,5.707,5.707,5.735,5.735,5.735,5.763,5.763,5.763,5.792,5.792,5.85,5.909,5.909,5.939,5.939,5.939,6.001,5.939,5.939,5.909,5.85,5.85,5.821,5.821,5.792,5.792,5.763,5.763,5.763,5.763,5.763,5.763,5.763,5.763,5.763,5.763,5.763,5.763,5.763,5.735,5.735,5.707,5.707,5.679,5.679,5.679,5.679,5.679,5.651,5.651,5.651,5.624,5.597,5.597,5.597,5.57,5.57,5.543,5.543,5.543,5.517,5.517,5.517,5.491,5.491,5.465,5.44,5.44,5.44,5.415,5.415,5.415,5.415,5.415,5.44,5.44,5.44,5.44,5.465,5.465,5.465,5.465,5.465,5.465,5.465,5.465,5.44,5.44,5.44,5.44,5.415,5.415,5.415,5.44,5.44,5.44,5.44,5.44,5.44,5.44,5.44,5.415,5.415,5.316,5.316,5.268,5.22,5.22,5.174,5.106,5.106,5.084,5.084,5.084,5.084,5.151,5.22,5.244,5.268,5.34,5.389,5.465,5.517,5.543,5.57,5.57,5.57,5.597,5.597,5.597,5.57,5.57,5.543,5.543,5.517,5.491,5.465,5.44,5.415,5.415,5.389,5.389,5.389,5.389,5.389,5.389,5.389,5.389,5.415,5.415,5.415,5.415,5.389,5.389,5.34,5.316,5.268,5.268,5.244,5.22,5.174,5.151,5.151,5.151,5.106,5.106,5.106,5.106,5.139749999999999,5.151,5.151,5.151,5.151,5.151,5.151,5.151,5.151,5.151,5.106,5.106,5.084,5.084,5.084,5.084,5.04,5.04,5.018,5.018,5.018,5.018,4.996,4.996,4.996,4.996,4.996,4.996,4.996,4.996,4.996,4.996,5.018,5.018,5.018,4.996,5.018,4.996,4.996,4.996,4.996,4.996,4.996,4.996,4.996,4.996,5.018,5.018,5.018,5.018,5.04,5.04,5.084,5.084,5.084,5.084,5.04,5.018,4.996,4.996,4.975,4.933,4.912,4.912,4.891,4.891,4.891,4.891,4.871,4.851,4.851,4.851,4.851,4.851,4.83,4.83,4.83,4.83,4.83,4.83,4.81,4.81,4.81,4.791,4.791,4.771,4.771,4.771,4.752,4.752,4.771,4.752,4.752,4.771,4.771,4.771,4.771,4.771,4.791,4.791,4.791,4.791,4.791,4.791,4.791,4.791,4.791,4.771,4.771,4.771,4.771,4.752,4.732,4.732,4.732,4.713,4.713,4.694,4.694,4.694,4.694,4.657,4.694,4.657,4.657,4.657,4.601,4.583,4.583,4.53,4.512,4.477,4.46,4.41,4.393,4.376,4.36,4.344,4.328,4.312,4.312,4.312,4.312,4.296,4.296,4.296,4.296,4.296,4.296,4.312,4.312,4.312,4.312,4.312,4.328,4.328,4.328,4.328,4.328,4.344,4.344,4.36,4.36,4.376,4.376,4.393,4.41,4.426,4.46,4.477,4.512,4.53,4.543,4.565,4.583,4.583,4.583,4.583,4.565,4.565,4.512,4.512,4.477,4.46,4.41,4.41,4.376,4.36,4.36,4.344,4.344,4.344,4.344,4.344,4.344,4.344,4.344,4.344,4.344,4.344,4.344,4.344,4.344,4.344,4.344,4.344,4.344,4.344,4.344,4.344,4.344,4.344,4.344,4.328,4.328,4.328,4.328,4.312,4.312,4.312,4.312,4.296,4.296,4.296,4.296,4.296,4.296,4.296,4.296,4.296,4.296,4.312
3.743,3.743,3.743,3.755,3.755,3.767,3.767,3.767,3.767,3.767,3.767,3.78,3.78,3.78,3.78,3.792,3.792,3.804,3.829,3.893,4.028,4.203,4.312,4.369,4.426,4.694,4.83,4.891,4.954,4.996,4.996,5.018,5.018,5.018,5.018,4.996,4.996,4.996,5.018,5.018,5.018,5.04,5.04,5.084,5.106,5.151,5.151,5.174,5.22,5.244,5.268,5.316,5.34,5.389,5.389,5.415,5.415,5.44,5.415,5.415,5.389,5.389,5.389,5.389,5.389,5.389,5.415,5.44,5.465,5.491,5.517,5.517,5.543,5.543,5.543,5.543,5.57,5.57,5.597,5.597,5.597,5.597,5.624,5.651,5.651,5.679,5.679,5.679,5.707,5.707,5.735,5.735,5.735,5.707,5.707,5.679,5.679,5.679,5.679,5.679,5.679,5.679,5.679,5.679,5.679,5.679,5.679,5.679,5.679,5.679,5.707,5.707,5.735,5.763,5.763,5.763,5.763,5.792,5.792,5.792,5.763,5.763,5.735,5.735,5.707,5.679,5.679,5.679,5.679,5.651,5.651,5.651,5.651,5.651,5.651,5.651,5.679,5.679,5.679,5.679,5.679,5.707,5.707,5.707,5.735,5.735,5.735,5.763,5.763,5.792,5.792,5.792,5.792,5.792,5.821,5.85,5.909,5.939,6.001,6.001,6.032,6.032,6.001,6.001,5.939,5.909,5.909,5.909,5.85,5.821,5.821,5.792,5.763,5.763,5.763,5.763,5.763,5.763,5.763,5.763,5.763,5.763,5.763,5.735,5.707,5.707,5.707,5.707,5.679,5.679,5.679,5.679,5.651,5.651,5.651,5.624,5.597,5.597,5.597,5.57,5.57,5.57,5.543,5.543,5.543,5.517,5.517,5.517,5.491,5.491,5.465,5.465,5.44,5.44,5.44,5.44,5.44,5.44,5.44,5.465,5.465,5.465,5.44,5.44,5.465,5.465,5.465,5.465,5.465,5.465,5.44,5.44,5.44,5.415,5.415,5.415,5.415,5.415,5.44,5.44,5.44,5.44,5.44,5.44,5.44,5.44,5.415,5.34,5.316,5.268,5.244,5.244,5.174,5.151,5.106,5.084,5.084,5.04,5.084,5.084,5.106,5.174,5.22,5.268,5.316,5.389,5.44,5.517,5.543,5.57,5.57,5.597,5.597,5.597,5.597,5.597,5.57,5.57,5.543,5.543,5.491,5.491,5.465,5.44,5.415,5.415,5.415,5.415,5.389,5.389,5.389,5.389,5.415,5.415,5.415,5.415,5.415,5.389,5.389,5.34,5.316,5.268,5.268,5.244,5.22,5.174,5.151,5.151,5.106,5.106,5.106,5.106,5.151,5.151,5.151,5.151,5.151,5.151,5.151,5.151,5.151,5.151,5.151,5.106,5.106,5.084,5.084,5.084,5.04,5.04,5.018,5.018,4.996,4.996,4.996,4.996,4.996,4.996,4.975,4.975,4.975,4.975,4.996,4.996,4.996,4.996,4.996,4.975,4.975,4.975,4.975,4.954,4.954,4.954,4.954,4.975,4.975,4.975,4.975,4.975,4.975,4.996,4.996,4.996,5.04,5.04,5.04,5.04,5.04,5.04,5.018,4.996,4.975,4.954,4.933,4.912,4.912,4.891,4.891,4.891,4.891,4.871,4.851,4.851,4.851,4.83,4.83,4.83,4.83,4.83,4.81,4.81,4.81,4.791,4.791,4.771,4.771,4.752,4.732,4.752,4.732,4.732,4.752,4.752,4.752,4.752,4.771,4.771,4.771,4.771,4.771,4.791,4.791,4.791,4.791,4.791,4.791,4.791,4.791,4.791,4.771,4.771,4.771,4.752,4.732,4.732,4.732,4.713,4.694,4.694,4.694,4.657,4.638,4.638,4.638,4.601,4.601,4.601,4.583,4.583,4.583,4.565,4.512,4.512,4.46,4.426,4.393,4.376,4.36,4.344,4.328,4.328,4.312,4.312,4.296,4.296,4.296,4.296,4.296,4.296,4.296,4.296,4.312,4.312,4.312,4.312,4.328,4.328,4.328,4.328,4.328,4.344,4.344,4.344,4.36,4.36,4.36,4.376,4.376,4.393,4.41,4.426,4.46,4.46,4.477,4.512,4.512,4.512,4.53,4.53,4.512,4.512,4.477,4.46,4.46,4.426,4.41,4.393,4.376,4.36,4.344,4.344,4.344,4.328,4.328,4.328,4.328,4.328,4.328,4.328,4.344,4.344,4.328,4.328,4.344,4.344,4.328,4.328,4.344,4.344,4.344,4.344,4.344,4.344,4.344,4.344,4.328,4.328,4.328,4.328,4.312,4.312,4.312,4.312,4.296,4.296,4.296,4.296,4.296,4.296,4.296,4.296,4.296,4.296,4.296
3.731,3.743,3.755,3.755,3.755,3.767,3.767,3.767,3.767,3.767,3.767,3.78,3.78,3.78,3.78,3.792,3.792,3.804,3.829,3.893,4.028,4.188,4.28,4.338500000000001,4.393,4.601,4.81,4.891,4.891,4.933,4.954,4.975,4.975,4.996,4.996,4.996,4.996,4.996,5.018,5.04,5.04,5.084,5.106,5.106,5.174,5.174,5.22,5.244,5.244,5.316,5.316,5.34,5.389,5.389,5.415,5.44,5.44,5.44,5.44,5.415,5.415,5.415,5.415,5.415,5.415,5.44,5.44,5.491,5.517,5.517,5.543,5.57,5.57,5.57,5.57,5.57,5.57,5.597,5.597,5.597,5.624,5.624,5.651,5.651,5.679,5.679,5.707,5.707,5.735,5.763,5.763,5.763,5.763,5.763,5.735,5.707,5.707,5.679,5.679,5.679,5.679,5.679,5.679,5.679,5.679,5.679,5.707,5.707,5.735,5.735,5.735,5.763,5.763,5.792,5.821,5.821,5.821,5.821,5.821,5.821,5.821,5.792,5.792,5.792,5.735,5.707,5.679,5.679,5.679,5.651,5.651,5.651,5.651,5.651,5.651,5.651,5.651,5.679,5.679,5.679,5.679,5.707,5.735,5.735,5.763,5.763,5.792,5.792,5.792,5.792,5.792,5.792,5.792,5.792,5.85,5.909,5.909,5.939,6.001,6.032,6.032,6.095,6.095,6.032,6.032,6.001,6.001,5.939,5.909,5.909,5.85,5.821,5.792,5.763,5.763,5.763,5.735,5.735,5.735,5.735,5.735,5.735,5.735,5.735,5.707,5.679,5.679,5.679,5.679,5.679,5.651,5.651,5.651,5.651,5.651,5.624,5.597,5.597,5.597,5.57,5.57,5.57,5.543,5.543,5.543,5.543,5.517,5.517,5.517,5.491,5.491,5.491,5.491,5.491,5.491,5.491,5.465,5.465,5.465,5.491,5.465,5.465,5.465,5.465,5.465,5.465,5.465,5.465,5.465,5.44,5.44,5.44,5.44,5.44,5.44,5.44,5.44,5.44,5.44,5.44,5.465,5.465,5.44,5.44,5.44,5.44,5.415,5.415,5.34,5.316,5.268,5.244,5.244,5.174,5.151,5.151,5.106,5.106,5.106,5.106,5.106,5.174,5.174,5.244,5.316,5.316,5.415,5.465,5.543,5.543,5.57,5.57,5.57,5.597,5.597,5.597,5.57,5.57,5.543,5.543,5.517,5.465,5.465,5.44,5.415,5.415,5.415,5.415,5.389,5.389,5.389,5.389,5.415,5.415,5.415,5.415,5.415,5.389,5.389,5.34,5.34,5.316,5.268,5.244,5.244,5.22,5.174,5.151,5.151,5.151,5.151,5.151,5.151,5.174,5.174,5.22,5.22,5.174,5.174,5.174,5.151,5.151,5.151,5.151,5.106,5.084,5.084,5.084,5.04,5.018,5.018,5.018,4.996,4.996,4.975,4.975,4.975,4.975,4.975,4.975,4.975,4.954,4.975,4.975,4.975,4.954,4.954,4.954,4.933,4.933,4.933,4.912,4.912,4.912,4.912,4.933,4.933,4.933,4.954,4.954,4.954,4.954,4.975,4.996,4.996,5.018,5.018,5.018,5.018,4.996,4.975,4.954,4.954,4.933,4.912,4.912,4.912,4.912,4.891,4.891,4.891,4.871,4.851,4.851,4.851,4.83,4.83,4.83,4.81,4.81,4.791,4.791,4.791,4.752,4.752,4.732,4.732,4.713,4.713,4.713,4.713,4.713,4.732,4.732,4.732,4.752,4.752,4.752,4.771,4.771,4.791,4.791,4.791,4.81,4.81,4.81,4.81,4.81,4.81,4.81,4.791,4.771,4.771,4.752,4.732,4.732,4.713,4.694,4.657,4.657,4.638,4.638,4.601,4.583,4.583,4.583,4.565,4.53,4.512,4.477,4.477,4.46,4.426,4.41,4.393,4.393,4.36,4.344,4.328,4.328,4.328,4.312,4.312,4.312,4.296,4.296,4.296,4.28,4.296,4.296,4.312,4.312,4.312,4.312,4.328,4.328,4.328,4.328,4.328,4.328,4.344,4.344,4.344,4.344,4.328,4.344,4.344,4.344,4.36,4.36,4.376,4.376,4.393,4.41,4.41,4.426,4.46,4.46,4.46,4.46,4.46,4.46,4.426,4.41,4.41,4.393,4.376,4.36,4.36,4.344,4.328,4.328,4.328,4.328,4.328,4.328,4.328,4.328,4.328,4.328,4.328,4.344,4.328,4.344,4.344,4.344,4.344,4.344,4.344,4.344,4.344,4.344,4.344,4.344,4.344,4.344,4.328,4.328,4.328,4.328,4.328,4.312,4.312,4.312,4.312,4.296,4.296,4.296,4.296,4.296,4.296,4.296,4.296,4.296,4.296
3.731,3.743,3.755,3.755,3.755,3.767,3.767,3.767,3.767,3.767,3.767,3.78,3.78,3.78,3.78,3.792,3.792,3.804,3.829,3.88,3.987,4.114,4.233,4.312,4.41,4.53,4.638,4.791,4.851,4.891,4.912,4.933,4.975,4.975,4.996,4.996,4.996,5.018,5.04,5.04,5.084,5.106,5.151,5.174,5.22,5.244,5.268,5.268,5.316,5.34,5.34,5.389,5.415,5.415,5.44,5.44,5.465,5.465,5.465,5.465,5.465,5.465,5.465,5.465,5.491,5.517,5.543,5.57,5.57,5.57,5.57,5.597,5.597,5.597,5.597,5.597,5.597,5.597,5.597,5.597,5.624,5.651,5.651,5.651,5.679,5.707,5.735,5.735,5.763,5.792,5.792,5.821,5.792,5.792,5.763,5.763,5.735,5.707,5.707,5.707,5.679,5.679,5.679,5.707,5.707,5.707,5.735,5.763,5.763,5.763,5.792,5.821,5.85,5.85,5.909,5.909,5.909,5.909,5.909,5.909,5.909,5.85,5.821,5.821,5.763,5.735,5.707,5.679,5.679,5.679,5.651,5.651,5.651,5.651,5.651,5.651,5.679,5.679,5.679,5.679,5.707,5.735,5.735,5.763,5.792,5.792,5.792,5.821,5.821,5.821,5.821,5.821,5.821,5.821,5.85,5.909,5.939,6.001,6.032,6.032,6.095,6.127,6.127,6.127,6.095,6.032,6.032,6.001,6.001,5.939,5.909,5.85,5.821,5.792,5.763,5.735,5.735,5.735,5.707,5.707,5.707,5.707,5.679,5.679,5.679,5.679,5.679,5.679,5.651,5.651,5.651,5.651,5.651,5.651,5.624,5.624,5.597,5.597,5.597,5.57,5.57,5.57,5.543,5.543,5.543,5.543,5.517,5.517,5.517,5.517,5.517,5.517,5.517,5.517,5.517,5.517,5.491,5.491,5.491,5.491,5.491,5.491,5.491,5.491,5.465,5.465,5.465,5.465,5.465,5.465,5.465,5.465,5.465,5.44,5.44,5.44,5.44,5.44,5.44,5.465,5.465,5.465,5.44,5.465,5.465,5.465,5.44,5.415,5.415,5.389,5.34,5.316,5.268,5.244,5.22,5.22,5.174,5.174,5.151,5.151,5.174,5.174,5.22,5.244,5.268,5.316,5.389,5.44,5.491,5.517,5.543,5.543,5.543,5.543,5.57,5.543,5.543,5.543,5.517,5.491,5.465,5.465,5.465,5.44,5.415,5.415,5.389,5.389,5.34,5.34,5.34,5.389,5.389,5.389,5.389,5.389,5.389,5.389,5.389,5.34,5.34,5.316,5.316,5.268,5.244,5.244,5.22,5.22,5.174,5.174,5.22,5.22,5.22,5.22,5.22,5.22,5.22,5.22,5.22,5.174,5.174,5.174,5.151,5.151,5.151,5.106,5.084,5.084,5.04,5.018,5.018,4.996,4.996,4.975,4.975,4.975,4.954,4.954,4.954,4.954,4.954,4.954,4.954,4.954,4.954,4.933,4.933,4.912,4.912,4.912,4.912,4.912,4.912,4.912,4.912,4.912,4.912,4.912,4.933,4.933,4.933,4.933,4.954,4.975,4.975,4.975,4.975,4.996,4.975,4.975,4.954,4.954,4.933,4.933,4.912,4.912,4.912,4.912,4.891,4.891,4.891,4.871,4.851,4.851,4.83,4.83,4.83,4.81,4.81,4.791,4.791,4.771,4.752,4.732,4.713,4.713,4.694,4.694,4.657,4.68025,4.694,4.713,4.713,4.713,4.732,4.752,4.752,4.752,4.771,4.771,4.771,4.791,4.791,4.81,4.81,4.81,4.81,4.81,4.81,4.791,4.771,4.771,4.752,4.732,4.713,4.713,4.694,4.657,4.638,4.638,4.601,4.583,4.583,4.565,4.53,4.53,4.512,4.477,4.46,4.46,4.426,4.41,4.393,4.376,4.36,4.344,4.344,4.328,4.328,4.312,4.312,4.312,4.312,4.296,4.296,4.296,4.296,4.296,4.296,4.312,4.312,4.312,4.312,4.312,4.328,4.328,4.328,4.328,4.328,4.328,4.328,4.328,4.328,4.328,4.328,4.328,4.328,4.328,4.328,4.328,4.328,4.344,4.36,4.36,4.376,4.376,4.376,4.393,4.41,4.41,4.41,4.393,4.376,4.376,4.376,4.376,4.36,4.344,4.344,4.344,4.328,4.328,4.344,4.328,4.328,4.328,4.328,4.344,4.344,4.344,4.328,4.344,4.344,4.344,4.344,4.344,4.36,4.36,4.36,4.36,4.36,4.344,4.344,4.344,4.344,4.344,4.328,4.328,4.328,4.328,4.312,4.312,4.312,4.312,4.312,4.312,4.296,4.296,4.296,4.296,4.296,4.296,4.296,4.296,4.28
3.743,3.755,3.755,3.755,3.767,3.767,3.767,3.767,3.767,3.767,3.767,3.78,3.78,3.78,3.78,3.78,3.792,3.804,3.817,3.855,3.92,4.028,4.173,4.264,4.328,4.4325,4.512,4.657,4.791,4.83,4.871,4.912,4.933,4.975,4.975,4.996,5.018,5.04,5.04,5.084,5.151,5.174,5.22,5.244,5.268,5.268,5.316,5.34,5.389,5.389,5.389,5.415,5.44,5.44,5.465,5.465,5.491,5.517,5.491,5.491,5.491,5.517,5.517,5.543,5.543,5.57,5.57,5.597,5.624,5.651,5.651,5.651,5.651,5.651,5.624,5.597,5.624,5.624,5.624,5.624,5.651,5.651,5.651,5.679,5.679,5.735,5.735,5.792,5.792,5.821,5.85,5.85,5.85,5.821,5.821,5.792,5.763,5.763,5.735,5.735,5.735,5.707,5.707,5.707,5.735,5.735,5.763,5.792,5.792,5.792,5.821,5.85,5.909,5.939,5.939,5.939,5.939,5.939,5.939,5.939,5.939,5.909,5.909,5.85,5.821,5.763,5.735,5.707,5.679,5.679,5.679,5.651,5.651,5.651,5.651,5.651,5.651,5.679,5.679,5.707,5.707,5.735,5.763,5.792,5.792,5.821,5.821,5.821,5.821,5.821,5.821,5.821,5.821,5.821,5.85,5.909,5.939,6.001,6.032,6.095,6.127,6.127,6.159,6.127,6.127,6.095,6.095,6.032,6.032,5.939,5.909,5.85,5.821,5.792,5.763,5.735,5.707,5.679,5.679,5.679,5.679,5.679,5.679,5.679,5.679,5.679,5.651,5.651,5.651,5.651,5.651,5.651,5.624,5.624,5.624,5.624,5.597,5.597,5.597,5.597,5.57,5.57,5.57,5.543,5.543,5.543,5.543,5.543,5.543,5.517,5.543,5.543,5.517,5.543,5.543,5.543,5.517,5.517,5.517,5.517,5.517,5.517,5.491,5.491,5.491,5.491,5.491,5.491,5.491,5.491,5.491,5.491,5.465,5.465,5.465,5.465,5.465,5.465,5.465,5.465,5.465,5.465,5.465,5.465,5.491,5.491,5.465,5.44,5.44,5.44,5.44,5.389,5.34,5.316,5.316,5.268,5.244,5.244,5.22,5.22,5.22,5.22,5.22,5.244,5.244,5.244,5.316,5.389,5.44,5.465,5.491,5.517,5.543,5.543,5.543,5.543,5.517,5.491,5.465,5.44,5.44,5.415,5.415,5.389,5.34,5.34,5.34,5.316,5.316,5.34,5.34,5.34,5.34,5.389,5.389,5.389,5.389,5.389,5.389,5.389,5.34,5.34,5.316,5.316,5.316,5.268,5.244,5.244,5.244,5.244,5.244,5.244,5.244,5.22,5.22,5.22,5.22,5.22,5.22,5.22,5.22,5.22,5.174,5.151,5.151,5.106,5.084,5.084,5.04,5.018,5.018,4.996,4.996,4.975,4.975,4.954,4.954,4.954,4.954,4.954,4.954,4.933,4.933,4.933,4.933,4.933,4.912,4.912,4.891,4.891,4.891,4.891,4.891,4.891,4.891,4.912,4.912,4.912,4.933,4.933,4.933,4.933,4.954,4.954,4.954,4.954,4.954,4.954,4.954,4.954,4.933,4.933,4.912,4.912,4.912,4.912,4.912,4.912,4.891,4.891,4.891,4.871,4.851,4.851,4.83,4.83,4.83,4.81,4.791,4.791,4.771,4.752,4.732,4.713,4.694,4.694,4.657,4.657,4.657,4.657,4.657,4.694,4.694,4.713,4.713,4.732,4.732,4.732,4.752,4.752,4.771,4.771,4.771,4.791,4.791,4.791,4.791,4.791,4.791,4.771,4.752,4.752,4.732,4.713,4.694,4.657,4.638,4.638,4.601,4.583,4.565,4.53,4.53,4.512,4.477,4.46,4.46,4.426,4.41,4.41,4.393,4.393,4.376,4.36,4.344,4.328,4.328,4.328,4.328,4.312,4.312,4.312,4.312,4.312,4.312,4.312,4.312,4.312,4.312,4.312,4.312,4.312,4.328,4.328,4.328,4.328,4.328,4.328,4.328,4.328,4.328,4.328,4.328,4.328,4.328,4.328,4.328,4.328,4.328,4.328,4.328,4.328,4.328,4.344,4.344,4.344,4.36,4.376,4.376,4.36,4.376,4.36,4.36,4.376,4.36,4.36,4.344,4.344,4.344,4.344,4.344,4.344,4.344,4.344,4.344,4.344,4.344,4.36,4.344,4.344,4.36,4.36,4.344,4.344,4.36,4.36,4.36,4.36,4.376,4.376,4.376,4.36,4.36,4.36,4.36,4.344,4.328,4.328,4.328,4.312,4.312,4.312,4.312,4.312,4.312,4.312,4.296,4.296,4.296,4.296,4.296,4.296,4.28,4.28,4.28
3.755,3.767,3.767,3.767,3.767,3.767,3.767,3.767,3.767,3.767,3.767,3.767,3.767,3.767,3.767,3.78,3.78,3.804,3.817,3.855,3.893,3.973,4.07,4.188,4.264,4.36,4.436,4.512,4.657,4.771,4.83,4.871,4.912,4.954,4.975,4.996,5.018,5.04,5.106,5.151,5.174,5.244,5.268,5.316,5.34,5.34,5.389,5.389,5.415,5.44,5.44,5.44,5.465,5.491,5.491,5.491,5.517,5.543,5.517,5.517,5.57,5.57,5.57,5.597,5.597,5.651,5.651,5.679,5.679,5.679,5.679,5.679,5.679,5.651,5.651,5.651,5.651,5.624,5.624,5.651,5.651,5.651,5.651,5.679,5.679,5.735,5.763,5.792,5.821,5.821,5.85,5.909,5.909,5.85,5.85,5.821,5.792,5.792,5.763,5.735,5.735,5.735,5.735,5.735,5.735,5.763,5.792,5.792,5.821,5.85,5.85,5.909,5.939,6.001,6.001,6.001,6.001,6.032,6.001,6.001,6.001,6.001,5.939,5.909,5.909,5.821,5.763,5.735,5.707,5.679,5.679,5.651,5.651,5.651,5.651,5.651,5.651,5.679,5.679,5.679,5.707,5.735,5.763,5.763,5.821,5.821,5.85,5.85,5.85,5.85,5.85,5.85,5.85,5.85,5.909,5.939,5.939,6.032,6.095,6.127,6.127,6.159,6.159,6.159,6.159,6.127,6.127,6.032,6.032,6.001,5.909,5.85,5.821,5.763,5.735,5.707,5.707,5.679,5.679,5.679,5.679,5.651,5.651,5.651,5.624,5.624,5.651,5.651,5.651,5.651,5.651,5.651,5.624,5.624,5.624,5.624,5.597,5.597,5.597,5.597,5.57,5.57,5.57,5.57,5.543,5.543,5.543,5.543,5.543,5.543,5.543,5.543,5.543,5.543,5.543,5.543,5.543,5.543,5.543,5.543,5.543,5.543,5.543,5.517,5.517,5.517,5.517,5.517,5.517,5.491,5.491,5.491,5.491,5.491,5.491,5.465,5.491,5.491,5.491,5.491,5.491,5.491,5.491,5.491,5.491,5.491,5.491,5.491,5.491,5.465,5.465,5.465,5.415,5.389,5.389,5.34,5.316,5.316,5.268,5.268,5.268,5.244,5.22,5.244,5.22,5.22,5.268,5.316,5.389,5.415,5.44,5.465,5.465,5.491,5.491,5.465,5.44,5.44,5.389,5.389,5.389,5.34,5.34,5.34,5.316,5.316,5.316,5.268,5.268,5.268,5.268,5.268,5.316,5.316,5.34,5.34,5.34,5.389,5.389,5.389,5.389,5.34,5.34,5.34,5.316,5.316,5.316,5.268,5.268,5.268,5.268,5.268,5.268,5.268,5.268,5.268,5.244,5.22,5.22,5.22,5.22,5.22,5.22,5.174,5.151,5.151,5.106,5.084,5.04,5.04,5.018,5.018,4.996,4.996,4.975,4.975,4.954,4.954,4.954,4.954,4.933,4.933,4.933,4.933,4.912,4.912,4.912,4.891,4.891,4.891,4.891,4.891,4.891,4.891,4.891,4.912,4.912,4.912,4.912,4.933,4.933,4.933,4.933,4.933,4.912,4.912,4.912,4.912,4.912,4.912,4.912,4.912,4.912,4.912,4.912,4.912,4.912,4.891,4.891,4.891,4.891,4.871,4.851,4.851,4.83,4.83,4.81,4.81,4.791,4.771,4.752,4.732,4.732,4.713,4.657,4.657,4.657,4.638,4.638,4.657,4.657,4.657,4.694,4.694,4.713,4.713,4.732,4.732,4.752,4.752,4.752,4.771,4.771,4.771,4.771,4.771,4.771,4.771,4.771,4.752,4.752,4.713,4.713,4.694,4.657,4.638,4.601,4.583,4.565,4.565,4.53,4.512,4.477,4.426,4.426,4.426,4.41,4.393,4.376,4.376,4.36,4.36,4.344,4.328,4.328,4.328,4.328,4.312,4.312,4.312,4.312,4.312,4.312,4.312,4.312,4.312,4.312,4.312,4.312,4.328,4.328,4.328,4.328,4.328,4.344,4.344,4.344,4.344,4.344,4.344,4.344,4.328,4.328,4.328,4.328,4.328,4.328,4.312,4.312,4.312,4.328,4.328,4.328,4.328,4.328,4.328,4.328,4.328,4.344,4.36,4.36,4.36,4.36,4.36,4.36,4.36,4.36,4.36,4.344,4.36,4.36,4.36,4.36,4.376,4.36,4.36,4.36,4.36,4.36,4.376,4.376,4.376,4.376,4.376,4.376,4.376,4.393,4.393,4.426,4.41,4.41,4.393,4.393,4.376,4.36,4.344,4.328,4.328,4.312,4.312,4.312,4.312,4.312,4.312,4.312,4.296,4.296,4.296,4.296,4.296,4.296,4.296,4.28,4.28,4.28
3.767,3.767,3.767,3.767,3.755,3.755,3.755,3.755,3.755,3.743,3.755,3.755,3.755,3.755,3.767,3.767,3.767,3.792,3.817,3.829,3.868,3.906,3.973,4.085,4.203,4.28,4.36,4.436,4.512,4.657,4.771,4.83,4.891,4.933,4.996,5.018,5.04,5.106,5.151,5.174,5.244,5.268,5.34,5.389,5.389,5.415,5.44,5.44,5.44,5.465,5.491,5.491,5.491,5.517,5.517,5.543,5.543,5.543,5.57,0.0,0.0,5.6105,5.63075,5.651,5.679,5.679,5.735,5.763,5.763,5.763,5.735,5.735,5.735,5.679,5.679,5.679,5.651,5.651,5.651,5.651,5.651,5.651,5.651,5.679,5.679,5.707,5.763,5.792,5.821,5.85,5.909,5.909,5.909,5.85,5.85,5.85,5.821,5.792,5.792,5.763,5.763,5.763,5.763,5.763,5.763,5.763,5.792,5.821,5.821,5.85,5.909,5.939,6.001,6.001,6.032,6.032,6.032,6.032,6.095,6.032,6.032,6.032,6.001,6.001,5.939,5.85,5.792,5.763,5.735,5.707,5.679,5.679,5.651,5.651,5.651,5.651,5.651,5.679,5.679,5.679,5.707,5.735,5.763,5.792,5.821,5.85,5.85,5.909,5.909,5.909,5.909,5.909,5.909,5.909,5.939,6.001,6.032,6.095,6.095,6.127,6.127,6.159,6.159,6.225,6.159,6.159,6.127,6.095,6.032,5.939,5.909,5.85,5.792,5.763,5.735,5.707,5.679,5.679,5.679,5.651,5.624,5.624,5.624,5.624,5.624,5.624,5.624,5.624,5.651,5.651,5.624,5.651,5.651,5.651,5.651,5.624,5.624,5.597,5.597,5.597,5.597,5.57,5.57,5.57,5.543,5.543,5.543,5.543,5.543,5.543,5.543,5.543,5.543,5.543,5.57,5.57,5.543,5.543,5.543,5.543,5.543,5.543,5.543,5.543,5.543,5.543,5.543,5.543,5.543,5.517,5.517,5.517,5.517,5.491,5.491,5.491,5.491,5.491,5.517,5.491,5.491,5.491,5.491,5.517,5.517,5.517,5.517,5.517,5.517,5.517,5.517,5.491,5.491,5.465,5.44,5.44,5.415,5.389,5.34,5.316,5.316,5.268,5.268,5.244,5.22,5.174,5.174,5.244,5.268,5.316,5.34,5.389,5.389,5.415,5.415,5.389,5.34,5.34,5.316,5.316,5.316,5.268,5.268,5.268,5.268,5.244,5.244,5.244,5.244,5.244,5.268,5.268,5.268,5.268,5.316,5.316,5.316,5.316,5.34,5.34,5.34,5.389,5.389,5.389,5.389,5.34,5.316,5.316,5.316,5.316,5.316,5.316,5.316,5.268,5.268,5.268,5.268,5.244,5.244,5.22,5.22,5.22,5.22,5.22,5.174,5.151,5.106,5.084,5.084,5.04,5.04,5.018,4.996,4.996,4.996,4.975,4.975,4.954,4.975,4.954,4.954,4.954,4.954,4.933,4.933,4.912,4.912,4.891,4.891,4.891,4.891,4.891,4.891,4.891,4.912,4.912,4.912,4.933,4.933,4.933,4.933,4.933,4.912,4.912,4.912,4.912,4.912,4.912,4.912,4.912,4.912,4.912,4.912,4.912,4.912,4.891,4.891,4.891,4.891,4.891,4.891,4.871,4.851,4.851,4.83,4.83,4.81,4.81,4.791,4.771,4.752,4.732,4.713,4.694,4.657,4.638,4.638,4.638,4.638,4.638,4.657,4.657,4.694,4.694,4.713,4.713,4.732,4.732,4.732,4.752,4.752,4.752,4.752,4.771,4.771,4.771,4.752,4.752,4.752,4.732,4.713,4.713,4.694,4.657,4.638,4.601,4.583,4.565,4.53,4.512,4.477,4.46,4.426,4.41,4.393,4.393,4.376,4.36,4.36,4.344,4.344,4.328,4.328,4.328,4.328,4.328,4.312,4.312,4.312,4.312,4.312,4.312,4.312,4.312,4.312,4.312,4.328,4.328,4.328,4.328,4.344,4.344,4.344,4.344,4.36,4.36,4.36,4.36,4.36,4.36,4.344,4.344,4.328,4.328,4.328,4.328,4.312,4.312,4.312,4.312,4.312,4.312,4.312,4.312,4.328,4.312,4.312,4.328,4.328,4.328,4.328,4.328,4.344,4.36,4.36,4.36,4.36,4.36,4.36,4.376,4.376,4.376,4.393,4.393,4.393,4.393,4.41,4.41,4.41,4.41,4.41,4.565,4.53,4.53,4.512,4.477,4.477,4.477,4.477,4.46,4.426,4.41,4.393,4.376,4.36,4.344,4.328,4.312,4.312,4.312,4.312,4.312,4.312,4.312,4.312,4.296,4.296,4.296,4.296,4.296,4.296,4.28,4.28,4.28,4.28
3.78,3.767,3.767,3.755,3.755,3.755,3.743,3.743,3.743,3.743,3.743,3.743,3.743,3.755,3.755,3.755,3.767,3.78,3.804,3.817,3.842,3.868,3.906,3.973,4.07,4.203,4.28,4.36,4.477,4.562250000000001,4.638,4.791,4.851,4.912,4.996,5.04,5.084,5.151,5.22,5.244,5.316,5.34,5.415,5.44,5.465,5.465,5.491,5.491,5.517,5.517,5.543,5.543,5.543,5.543,5.543,5.543,5.57,5.597,5.597,0.0,0.0,5.651,5.6739375,5.707,5.735,5.763,5.763,5.821,5.821,5.821,5.792,5.792,5.792,5.763,5.707,5.679,5.679,5.679,5.651,5.651,5.651,5.651,5.679,5.679,5.679,5.707,5.735,5.763,5.792,5.821,5.85,5.85,5.909,5.909,5.85,5.85,5.85,5.821,5.792,5.792,5.792,5.763,5.763,5.763,5.763,5.792,5.821,5.821,5.821,5.909,5.909,5.939,6.032,6.032,6.095,6.095,6.095,6.127,6.127,6.127,6.095,6.095,6.032,6.001,6.001,5.939,5.821,5.792,5.763,5.707,5.679,5.679,5.651,5.651,5.651,5.651,5.679,5.679,5.679,5.679,5.707,5.763,5.763,5.821,5.85,5.909,5.939,5.939,5.939,5.939,5.939,6.001,6.001,6.001,6.001,6.032,6.032,6.095,6.127,6.127,6.159,6.159,6.159,6.225,6.159,6.159,6.127,6.095,6.032,5.939,5.909,5.821,5.792,5.735,5.707,5.679,5.679,5.651,5.624,5.624,5.624,5.597,5.597,5.597,5.597,5.597,5.597,5.624,5.624,5.624,5.624,5.651,5.651,5.651,5.624,5.624,5.624,5.624,5.597,5.597,5.597,5.597,5.57,5.57,5.57,5.543,5.543,5.543,5.543,5.543,5.543,5.57,5.57,5.57,5.57,5.57,5.57,5.57,5.57,5.57,5.57,5.543,5.543,5.543,5.543,5.543,5.543,5.543,5.543,5.543,5.543,5.543,5.517,5.517,5.491,5.491,5.491,5.491,5.517,5.517,5.517,5.517,5.517,5.517,5.517,5.517,5.517,5.543,5.543,5.543,5.543,5.543,5.543,5.517,5.491,5.491,5.465,5.44,5.415,5.389,5.34,5.316,5.268,5.244,5.22,5.174,5.174,5.174,5.22,5.244,5.268,5.268,5.268,5.316,5.316,5.316,5.268,5.244,5.244,5.22,5.244,5.22,5.22,5.22,5.22,5.22,5.174,5.174,5.22,5.22,5.22,5.22,5.244,5.244,5.268,5.268,5.268,5.268,5.268,5.268,5.268,5.268,5.316,5.316,5.316,5.316,5.34,5.34,5.34,5.34,5.316,5.316,5.316,5.316,5.316,5.268,5.268,5.268,5.244,5.244,5.244,5.22,5.22,5.22,5.174,5.174,5.151,5.106,5.084,5.084,5.04,5.04,5.018,4.996,4.996,4.975,4.975,4.954,4.954,4.954,4.954,4.933,4.933,4.933,4.912,4.912,4.912,4.891,4.891,4.891,4.891,4.891,4.891,4.891,4.912,4.912,4.933,4.933,4.933,4.933,4.933,4.912,4.912,4.912,4.912,4.891,4.912,4.891,4.891,4.891,4.891,4.891,4.891,4.891,4.891,4.891,4.891,4.891,4.891,4.891,4.891,4.871,4.851,4.851,4.83,4.83,4.81,4.791,4.791,4.771,4.732,4.713,4.713,4.694,4.657,4.657,4.657,4.638,4.638,4.638,4.657,4.6754999999999995,4.694,4.713,4.713,4.713,4.732,4.732,4.752,4.752,4.752,4.752,4.752,4.752,4.752,4.752,4.752,4.732,4.732,4.713,4.713,4.694,4.657,4.638,4.601,4.583,4.565,4.53,4.512,4.477,4.46,4.46,4.41,4.393,4.376,4.36,4.36,4.344,4.344,4.328,4.328,4.328,4.328,4.328,4.312,4.312,4.312,4.312,4.312,4.312,4.312,4.312,4.312,4.312,4.312,4.312,4.328,4.328,4.328,4.328,4.344,4.36,4.36,4.36,4.36,4.376,4.376,4.376,4.36,4.36,4.36,4.36,4.36,4.328,4.328,4.328,4.328,4.328,4.328,4.328,4.312,4.312,4.328,4.312,4.328,4.328,4.328,4.328,4.328,4.328,4.344,4.344,4.344,4.36,4.36,4.376,4.376,4.46,4.46,4.477,4.512,4.53,4.583,4.601,4.657,4.694,4.752,4.791,4.791,4.81,4.81,4.791,4.752,4.732,4.694,4.638,4.601,4.583,4.565,4.512,4.477,4.426,4.41,4.393,4.376,4.344,4.328,4.312,4.312,4.312,4.312,4.312,4.312,4.312,4.312,4.296,4.296,4.296,4.296,4.296,4.296,4.28,4.28,4.28,4.28
3.804,3.78,3.767,3.767,3.767,3.755,3.743,3.743,3.743,3.743,3.743,3.743,3.743,3.755,3.755,3.755,3.767,3.78,3.792,3.804,3.817,3.842,3.855,3.893,3.933,4.056,4.203,4.28,4.344,4.477,4.595000000000001,4.713,4.83,4.912,4.975,5.04,5.106,5.174,5.244,5.268,5.34,5.415,5.44,5.465,5.491,5.517,5.543,5.543,5.543,5.543,5.57,5.57,5.543,5.57,5.57,5.57,5.597,5.624,5.651,5.651,5.679,5.679,5.707,5.735,5.763,5.763,5.821,5.85,5.85,5.909,5.909,5.85,5.85,5.821,5.792,5.735,5.707,5.679,5.679,5.679,5.679,5.679,5.679,5.679,5.679,5.707,5.735,5.763,5.792,5.821,5.85,5.85,5.85,5.909,5.85,5.85,5.85,5.85,5.821,5.821,5.792,5.792,5.792,5.792,5.792,5.821,5.821,5.85,5.909,5.909,5.939,6.001,6.032,6.095,6.095,6.127,6.127,6.127,6.127,6.127,6.127,6.095,6.095,6.032,6.001,5.939,5.85,5.792,5.763,5.735,5.707,5.679,5.679,5.679,5.651,5.679,5.679,5.679,5.679,5.707,5.735,5.735,5.792,5.821,5.85,5.909,5.939,6.001,6.001,6.001,6.032,6.032,6.032,6.095,6.095,6.095,6.127,6.159,6.159,6.159,6.159,6.225,6.225,6.225,6.159,6.159,6.127,6.095,6.032,6.001,5.909,5.821,5.792,5.735,5.707,5.679,5.651,5.651,5.624,5.624,5.597,5.597,5.597,5.597,5.597,5.597,5.597,5.624,5.624,5.624,5.624,5.651,5.651,5.651,5.651,5.624,5.624,5.624,5.624,5.597,5.597,5.597,5.57,5.57,5.57,5.57,5.543,5.543,5.543,5.543,5.543,5.543,5.57,5.57,5.57,5.57,5.57,5.57,5.57,5.57,5.57,5.57,5.543,5.543,5.57,5.57,5.543,5.543,5.543,5.543,5.543,5.517,5.517,5.517,5.491,5.491,5.491,5.491,5.491,5.491,5.491,5.491,5.517,5.517,5.517,5.517,5.543,5.543,5.543,5.543,5.543,5.543,5.543,5.543,5.543,5.543,5.517,5.491,5.44,5.44,5.415,5.34,5.316,5.268,5.174,5.151,5.106,5.151,5.151,5.151,5.174,5.174,5.22,5.22,5.22,5.22,5.174,5.174,5.174,5.151,5.151,5.151,5.151,5.151,5.151,5.151,5.151,5.151,5.151,5.174,5.174,5.174,5.22,5.22,5.22,5.22,5.22,5.22,5.22,5.22,5.22,5.22,5.244,5.268,5.268,5.268,5.268,5.316,5.316,5.316,5.316,5.316,5.316,5.316,5.316,5.316,5.268,5.268,5.268,5.244,5.244,5.22,5.22,5.22,5.22,5.174,5.151,5.151,5.106,5.106,5.084,5.04,5.04,5.018,4.996,4.996,4.975,4.954,4.954,4.933,4.933,4.933,4.933,4.912,4.912,4.912,4.891,4.891,4.891,4.891,4.891,4.891,4.891,4.891,4.912,4.912,4.933,4.933,4.933,4.933,4.933,4.933,4.912,4.912,4.912,4.891,4.891,4.891,4.891,4.891,4.891,4.891,4.891,4.891,4.891,4.891,4.891,4.891,4.891,4.871,4.871,4.851,4.851,4.83,4.83,4.83,4.81,4.791,4.771,4.752,4.752,4.732,4.713,4.694,4.657,4.657,4.657,4.657,4.657,4.657,4.657,4.684875,4.694,4.713,4.713,4.732,4.732,4.732,4.752,4.752,4.752,4.752,4.752,4.752,4.752,4.752,4.752,4.732,4.732,4.713,4.713,4.657,4.638,4.638,4.583,4.565,4.53,4.512,4.477,4.46,4.46,4.41,4.393,4.376,4.36,4.36,4.344,4.344,4.328,4.328,4.328,4.328,4.328,4.312,4.312,4.312,4.312,4.312,4.312,4.312,4.312,4.312,4.312,4.312,4.328,4.328,4.328,4.328,4.344,4.344,4.36,4.376,4.376,4.393,4.393,4.393,4.393,4.393,4.393,4.393,4.376,4.376,4.36,4.36,4.328,4.328,4.328,4.328,4.328,4.328,4.328,4.328,4.328,4.328,4.344,4.36,4.36,4.36,4.376,4.376,4.393,4.393,4.426,4.46,4.46,4.477,4.512,4.53,4.565,4.583,4.638,4.694,4.752,4.81,4.83,4.8375,4.851,4.891,4.912,4.912,4.933,4.912,4.891,4.871,4.83,4.81,4.752,4.713,4.657,4.583,4.512,4.477,4.426,4.41,4.376,4.344,4.328,4.312,4.312,4.312,4.312,4.296,4.296,4.296,4.296,4.296,4.296,4.296,4.296,4.296,4.296,4.296,4.28,4.28,4.28
3.829,3.804,3.792,3.78,3.767,3.755,3.755,3.743,3.743,3.743,3.755,3.755,3.755,3.755,3.755,3.755,3.767,3.767,3.792,3.804,3.804,3.817,3.829,3.855,3.868,3.933,4.056,4.218,4.28,4.376,4.516500000000001,4.583,4.791,4.891,5.018,5.084,5.151,5.22,5.268,5.34,5.415,5.465,5.491,5.517,5.543,5.543,5.57,5.57,5.57,5.597,5.597,5.597,5.597,5.624,5.624,5.651,5.651,5.679,5.707,5.679,5.707,5.735,5.763,5.792,5.792,5.821,5.85,5.909,5.909,5.939,5.939,5.939,5.939,5.909,5.85,5.792,5.763,5.735,5.707,5.707,5.679,5.679,5.679,5.679,5.707,5.707,5.763,5.763,5.792,5.821,5.85,5.85,5.909,5.909,5.909,5.909,5.909,5.85,5.85,5.85,5.85,5.85,5.85,5.821,5.821,5.85,5.85,5.909,5.939,5.939,6.001,6.032,6.095,6.127,6.127,6.127,6.127,6.127,6.127,6.127,6.127,6.127,6.095,6.032,6.032,5.939,5.85,5.821,5.792,5.735,5.735,5.679,5.679,5.679,5.679,5.679,5.679,5.679,5.679,5.707,5.735,5.763,5.792,5.821,5.85,5.939,6.001,6.001,6.032,6.095,6.095,6.127,6.127,6.127,6.127,6.159,6.159,6.225,6.225,6.225,6.225,6.225,6.225,6.259,6.225,6.225,6.159,6.127,6.095,6.001,5.909,5.85,5.792,5.735,5.707,5.679,5.651,5.651,5.624,5.624,5.597,5.597,5.597,5.597,5.597,5.597,5.597,5.597,5.624,5.624,5.624,5.651,5.651,5.651,5.651,5.624,5.624,5.624,5.624,5.624,5.597,5.597,5.597,5.57,5.57,5.57,5.57,5.543,5.543,5.543,5.543,5.543,5.543,5.57,5.57,5.543,5.543,5.543,5.543,5.543,5.543,5.543,5.543,5.543,5.543,5.543,5.543,5.543,5.543,5.543,5.517,5.517,5.491,5.491,5.465,5.465,5.465,5.465,5.465,5.465,5.465,5.465,5.491,5.491,5.517,5.517,5.543,5.543,5.543,5.543,5.543,5.543,5.543,5.543,5.543,5.543,5.543,5.517,5.491,5.44,5.415,5.34,5.316,5.244,5.22,5.151,5.106,5.151,5.151,5.151,5.106,5.151,5.151,5.151,5.151,5.151,5.106,5.106,5.106,5.084,5.084,5.084,5.084,5.084,5.106,5.106,5.106,5.106,5.151,5.151,5.174,5.174,5.174,5.174,5.174,5.174,5.151,5.151,5.151,5.174,5.174,5.174,5.22,5.22,5.22,5.244,5.244,5.244,5.244,5.268,5.268,5.268,5.268,5.268,5.268,5.268,5.268,5.268,5.244,5.22,5.22,5.22,5.22,5.22,5.22,5.22,5.174,5.151,5.151,5.151,5.106,5.084,5.084,5.04,5.018,5.018,4.996,4.975,4.954,4.954,4.933,4.933,4.912,4.912,4.912,4.912,4.891,4.891,4.891,4.891,4.891,4.891,4.891,4.912,4.912,4.933,4.933,4.954,4.954,4.954,4.933,4.933,4.912,4.912,4.912,4.891,4.891,4.891,4.891,4.891,4.871,4.871,4.891,4.891,4.891,4.891,4.891,4.891,4.871,4.871,4.851,4.851,4.851,4.83,4.83,4.83,4.81,4.791,4.771,4.771,4.752,4.732,4.732,4.713,4.694,4.694,4.694,4.694,4.694,4.694,4.694,4.713,4.713,4.713,4.732,4.732,4.732,4.732,4.752,4.752,4.752,4.752,4.752,4.752,4.752,4.752,4.752,4.732,4.732,4.713,4.713,4.694,4.638,4.638,4.583,4.565,4.53,4.512,4.477,4.46,4.426,4.41,4.393,4.376,4.36,4.36,4.344,4.344,4.328,4.328,4.328,4.328,4.328,4.312,4.312,4.312,4.312,4.312,4.312,4.312,4.312,4.312,4.312,4.312,4.328,4.328,4.344,4.344,4.36,4.376,4.393,4.393,4.41,4.41,4.426,4.46,4.46,4.426,4.426,4.41,4.41,4.393,4.393,4.376,4.376,4.344,4.36,4.344,4.344,4.344,4.344,4.344,4.36,4.376,4.393,4.393,4.393,4.426,4.41,4.426,4.46,4.477,4.512,4.53,4.565,4.601,4.638,4.657,4.713,4.752,4.7677499999999995,4.81,4.851,4.891,4.912,4.975,5.04,5.151,5.244,5.268,5.268,5.268,5.22,5.151,5.018,4.912,4.851,4.83,4.791,4.713,4.601,4.53,4.477,4.426,4.393,4.36,4.328,4.312,4.312,4.312,4.312,4.312,4.312,4.296,4.296,4.312,4.312,4.296,4.296,4.296,4.296,4.296,4.296,4.28,4.28
3.88,3.842,3.817,3.804,3.804,3.78,3.767,3.755,3.743,3.743,3.755,3.755,3.755,3.755,3.755,3.755,3.767,3.767,3.78,3.792,3.804,3.817,3.817,3.829,3.855,3.88,3.946,4.114,4.249,4.312,4.512,4.632,4.752,4.891,5.04,5.106,5.174,5.268,5.34,5.415,5.44,5.491,5.543,5.543,5.57,5.57,5.597,5.597,5.597,5.624,5.651,5.651,5.679,5.651,5.679,5.707,5.735,5.735,5.763,5.763,5.763,5.792,5.792,5.85,5.85,5.85,5.909,5.939,5.939,6.001,6.032,6.032,6.001,5.939,5.939,5.909,5.821,5.792,5.763,5.763,5.735,5.735,5.735,5.735,5.735,5.763,5.792,5.821,5.821,5.85,5.85,5.909,5.909,5.909,5.909,5.939,5.909,5.909,5.909,5.909,5.909,5.909,5.909,5.909,5.909,5.909,5.909,5.939,5.939,6.001,6.001,6.032,6.032,6.095,6.095,6.095,6.127,6.127,6.127,6.127,6.127,6.095,6.095,6.032,6.001,6.001,5.85,5.821,5.792,5.763,5.735,5.707,5.679,5.679,5.679,5.679,5.679,5.679,5.679,5.707,5.707,5.763,5.763,5.821,5.85,5.909,6.001,6.032,6.032,6.095,6.127,6.159,6.159,6.225,6.225,6.225,6.259,6.259,6.259,6.327,6.327,6.259,6.259,6.327,6.259,6.225,6.225,6.127,6.095,6.001,5.939,5.85,5.821,5.763,5.735,5.679,5.679,5.651,5.624,5.624,5.597,5.597,5.597,5.597,5.597,5.597,5.597,5.597,5.624,5.624,5.651,5.651,5.651,5.651,5.651,5.624,5.624,5.624,5.624,5.597,5.597,5.597,5.57,5.57,5.57,5.57,5.543,5.543,5.543,5.543,5.543,5.543,5.543,5.543,5.543,5.543,5.543,5.543,5.543,5.543,5.543,5.543,5.543,5.543,5.543,5.543,5.543,5.543,5.543,5.517,5.517,5.491,5.465,5.465,5.44,5.44,5.44,5.44,5.44,5.44,5.44,5.44,5.465,5.465,5.491,5.517,5.517,5.543,5.543,5.543,5.543,5.57,5.543,5.543,5.543,5.543,5.543,5.543,5.491,5.44,5.415,5.34,5.316,5.244,5.174,5.151,5.084,5.106,5.084,5.084,5.106,5.106,5.106,5.084,5.084,5.084,5.04,5.04,5.04,5.04,5.04,5.04,5.018,5.018,5.04,5.04,5.04,5.084,5.106,5.151,5.151,5.151,5.174,5.151,5.151,5.151,5.106,5.106,5.106,5.106,5.106,5.106,5.151,5.151,5.174,5.174,5.174,5.22,5.22,5.22,5.22,5.244,5.244,5.244,5.22,5.22,5.22,5.22,5.22,5.22,5.22,5.22,5.22,5.22,5.174,5.174,5.174,5.151,5.151,5.106,5.106,5.084,5.084,5.04,5.04,5.018,4.996,4.975,4.975,4.954,4.933,4.933,4.912,4.912,4.912,4.912,4.891,4.891,4.891,4.891,4.891,4.891,4.891,4.912,4.912,4.933,4.933,4.954,4.954,4.933,4.933,4.933,4.912,4.912,4.891,4.891,4.891,4.891,4.891,4.871,4.871,4.871,4.871,4.891,4.891,4.891,4.891,4.891,4.871,4.871,4.851,4.851,4.851,4.83,4.83,4.83,4.81,4.81,4.791,4.771,4.771,4.771,4.752,4.732,4.732,4.732,4.732,4.732,4.713,4.713,4.713,4.732,4.732,4.732,4.732,4.752,4.752,4.752,4.752,4.771,4.771,4.771,4.771,4.771,4.771,4.771,4.752,4.752,4.732,4.732,4.713,4.694,4.638,4.601,4.583,4.565,4.512,4.477,4.46,4.426,4.426,4.41,4.376,4.376,4.36,4.36,4.344,4.344,4.328,4.328,4.328,4.328,4.328,4.312,4.312,4.312,4.312,4.312,4.312,4.312,4.312,4.328,4.328,4.328,4.328,4.344,4.344,4.36,4.376,4.41,4.426,4.46,4.46,4.477,4.477,4.477,4.477,4.477,4.477,4.46,4.426,4.426,4.426,4.41,4.393,4.376,4.393,4.393,4.393,4.41,4.41,4.41,4.426,4.46,4.46,4.46,4.477,4.477,4.512,4.53,4.565,4.583,4.638,4.657,4.68625,4.713,4.752,4.791,4.81,4.83,4.871,4.912,4.996,5.106,5.268,5.34,5.44,5.517,5.57,5.57,5.57,5.57,5.543,5.465,5.34,5.268,4.996,4.891,4.851,4.791,4.694,4.601,4.512,4.46,4.41,4.376,4.344,4.312,4.312,4.312,4.312,4.312,4.312,4.312,4.296,4.312,4.312,4.312,4.296,4.312,4.312,4.312,4.296,4.296,4.28
3.987,3.906,3.855,3.829,3.817,3.804,3.792,3.767,3.755,3.755,3.755,3.755,3.755,3.755,3.755,3.767,3.767,3.78,3.78,3.792,3.792,3.804,3.804,3.817,3.829,3.855,3.906,4.028,4.203,4.3575,4.512,4.63425,4.81,4.933,5.106,5.22,5.268,5.34,5.415,5.465,5.491,5.543,5.57,5.57,5.597,5.597,5.624,5.651,5.651,5.679,5.679,5.707,5.707,5.735,5.763,5.763,5.792,5.821,5.85,5.821,5.85,5.821,5.85,5.909,5.909,5.909,5.939,6.001,6.001,6.032,6.095,6.095,6.032,6.032,6.001,6.001,5.939,5.85,5.85,5.821,5.792,5.792,5.792,5.763,5.792,5.792,5.821,5.85,5.85,5.85,5.909,5.909,5.909,5.909,5.909,5.939,5.939,5.939,5.939,5.939,5.939,5.939,5.939,5.939,5.939,5.939,5.939,6.001,6.001,6.001,6.001,6.032,6.095,6.095,6.095,6.095,6.095,6.095,6.095,6.095,6.095,6.095,6.032,6.032,6.001,5.909,5.85,5.821,5.792,5.792,5.735,5.735,5.707,5.707,5.679,5.679,5.679,5.679,5.679,5.707,5.735,5.763,5.792,5.821,5.85,5.909,6.001,6.032,6.095,6.127,6.159,6.225,6.259,6.327,6.361,6.361,6.361,6.361,6.361,6.361,6.361,6.327,6.327,6.327,6.327,6.259,6.225,6.159,6.127,6.032,5.939,5.909,5.821,5.763,5.735,5.707,5.679,5.651,5.651,5.651,5.624,5.597,5.597,5.597,5.597,5.597,5.597,5.624,5.624,5.651,5.651,5.651,5.651,5.651,5.651,5.624,5.624,5.624,5.597,5.597,5.597,5.597,5.597,5.57,5.57,5.57,5.543,5.543,5.543,5.543,5.543,5.543,5.543,5.543,5.543,5.543,5.543,5.517,5.517,5.543,5.543,5.543,5.543,5.543,5.543,5.543,5.543,5.543,5.543,5.517,5.491,5.465,5.465,5.44,5.415,5.415,5.389,5.389,5.389,5.389,5.415,5.415,5.44,5.465,5.491,5.491,5.517,5.543,5.543,5.543,5.57,5.57,5.57,5.543,5.543,5.543,5.543,5.543,5.465,5.44,5.415,5.34,5.268,5.22,5.174,5.151,5.106,5.106,5.106,5.106,5.106,5.106,5.106,5.106,5.106,5.084,5.084,5.04,5.084,5.04,5.018,5.018,5.018,5.018,5.04,5.04,5.04,5.084,5.106,5.106,5.151,5.151,5.151,5.151,5.151,5.106,5.084,5.084,5.04,5.04,5.04,5.084,5.106,5.106,5.106,5.151,5.151,5.151,5.151,5.174,5.174,5.22,5.22,5.22,5.22,5.174,5.174,5.174,5.174,5.174,5.174,5.174,5.174,5.174,5.174,5.174,5.174,5.174,5.151,5.151,5.151,5.106,5.106,5.084,5.04,5.018,4.996,4.975,4.954,4.954,4.933,4.933,4.912,4.912,4.912,4.912,4.891,4.891,4.891,4.891,4.912,4.912,4.912,4.912,4.912,4.933,4.933,4.954,4.954,4.933,4.933,4.912,4.912,4.912,4.912,4.891,4.891,4.891,4.891,4.891,4.871,4.871,4.891,4.891,4.891,4.891,4.891,4.891,4.871,4.871,4.851,4.851,4.851,4.83,4.83,4.83,4.81,4.81,4.81,4.791,4.791,4.771,4.771,4.771,4.771,4.752,4.752,4.752,4.752,4.752,4.752,4.752,4.752,4.752,4.752,4.771,4.771,4.771,4.771,4.771,4.771,4.771,4.791,4.771,4.771,4.771,4.771,4.752,4.732,4.732,4.713,4.657,4.638,4.601,4.583,4.53,4.512,4.477,4.46,4.426,4.41,4.41,4.393,4.376,4.376,4.36,4.36,4.344,4.344,4.328,4.328,4.328,4.328,4.328,4.328,4.328,4.328,4.328,4.328,4.328,4.328,4.328,4.344,4.344,4.36,4.376,4.393,4.41,4.426,4.46,4.477,4.512,4.512,4.512,4.53,4.53,4.53,4.512,4.512,4.512,4.477,4.477,4.477,4.46,4.46,4.46,4.46,4.46,4.477,4.477,4.477,4.512,4.53,4.565,4.565,4.583,4.583,4.583,4.601,4.638,4.638,4.713,4.732,4.791,4.81,4.83,4.871,4.912,4.933,4.975,5.04,5.22,5.389,5.491,5.543,5.597,5.624,5.679,5.707,5.707,5.679,5.651,5.651,5.597,5.543,5.465,5.34,5.174,4.933,4.851,4.771,4.657,4.583,4.512,4.46,4.393,4.36,4.328,4.312,4.312,4.312,4.312,4.312,4.312,4.312,4.312,4.312,4.312,4.312,4.312,4.312,4.312,4.312,4.296,4.296
4.249,4.014,3.92,3.868,3.855,3.829,3.804,3.78,3.767,3.755,3.755,3.755,3.755,3.755,3.755,3.767,3.767,3.78,3.78,3.792,3.792,3.804,3.804,3.817,3.817,3.829,3.88,4.028,4.218,0.0,0.0,4.583,4.83,4.996,5.244,5.268,5.415,5.44,5.465,5.517,5.543,5.57,5.597,5.597,5.624,5.651,5.679,5.679,5.707,5.735,5.763,5.763,5.792,5.792,5.85,5.821,5.909,5.909,5.909,5.85,5.909,5.85,5.909,5.909,5.939,5.939,5.939,6.001,6.032,6.095,6.095,6.095,6.095,6.095,6.095,6.095,6.032,6.001,5.939,5.909,5.85,5.85,5.85,5.821,5.821,5.85,5.85,5.909,5.909,5.909,5.939,5.939,5.939,5.939,5.939,5.939,5.939,5.939,5.939,5.939,6.001,5.939,5.939,5.939,5.939,6.001,6.001,6.001,6.001,6.032,6.032,6.032,6.032,6.095,6.095,6.095,6.095,6.095,6.095,6.095,6.032,6.032,6.032,6.001,5.939,5.85,5.85,5.821,5.792,5.763,5.763,5.735,5.707,5.707,5.679,5.707,5.707,5.707,5.707,5.735,5.763,5.763,5.792,5.821,5.85,5.939,6.001,6.032,6.095,6.159,6.225,6.327,6.327,6.361,6.396,6.396,6.396,6.396,6.396,6.396,6.396,6.361,6.361,6.361,6.327,6.327,6.259,6.225,6.127,6.095,6.001,5.939,5.85,5.821,5.763,5.735,5.707,5.679,5.651,5.651,5.651,5.624,5.624,5.597,5.597,5.624,5.624,5.624,5.651,5.651,5.651,5.651,5.651,5.651,5.651,5.624,5.624,5.624,5.597,5.597,5.597,5.597,5.597,5.57,5.57,5.543,5.543,5.543,5.543,5.543,5.543,5.543,5.543,5.543,5.543,5.543,5.543,5.517,5.517,5.517,5.517,5.517,5.543,5.543,5.543,5.543,5.543,5.517,5.517,5.491,5.465,5.44,5.44,5.415,5.389,5.389,5.389,5.34,5.34,5.34,5.34,5.389,5.415,5.44,5.465,5.491,5.517,5.543,5.543,5.543,5.543,5.57,5.543,5.543,5.543,5.543,5.543,5.517,5.44,5.415,5.34,5.316,5.244,5.22,5.151,5.106,5.106,5.106,5.106,5.106,5.106,5.106,5.106,5.106,5.106,5.106,5.106,5.084,5.084,5.084,5.04,5.04,5.04,5.018,5.04,5.04,5.04,5.084,5.106,5.106,5.151,5.151,5.151,5.151,5.106,5.084,5.084,5.04,5.018,5.018,5.04,5.04,5.04,5.04,5.084,5.106,5.106,5.106,5.106,5.151,5.151,5.151,5.151,5.151,5.151,5.151,5.151,5.151,5.151,5.151,5.151,5.151,5.151,5.151,5.151,5.151,5.151,5.151,5.174,5.151,5.151,5.151,5.106,5.084,5.04,5.04,5.018,4.975,4.954,4.954,4.933,4.933,4.912,4.912,4.912,4.912,4.912,4.912,4.912,4.912,4.912,4.912,4.912,4.912,4.933,4.933,4.933,4.933,4.933,4.933,4.933,4.912,4.912,4.912,4.912,4.891,4.891,4.891,4.891,4.891,4.891,4.891,4.891,4.891,4.891,4.891,4.891,4.871,4.871,4.871,4.851,4.851,4.851,4.83,4.83,4.83,4.81,4.81,4.81,4.81,4.81,4.81,4.791,4.791,4.771,4.771,4.771,4.771,4.771,4.771,4.771,4.771,4.771,4.771,4.791,4.791,4.791,4.791,4.791,4.791,4.791,4.791,4.791,4.791,4.791,4.771,4.752,4.732,4.732,4.713,4.694,4.638,4.601,4.583,4.565,4.512,4.477,4.46,4.426,4.426,4.41,4.41,4.393,4.376,4.376,4.36,4.344,4.344,4.344,4.328,4.328,4.328,4.328,4.328,4.328,4.328,4.312,4.312,4.328,4.328,4.328,4.344,4.36,4.376,4.393,4.41,4.426,4.46,4.477,4.512,4.53,4.565,4.565,4.565,4.565,4.565,4.583,4.565,4.565,4.565,4.565,4.565,4.53,4.512,4.53,4.512,4.565,4.53,4.565,4.565,4.583,4.601,4.601,4.657,4.657,4.657,4.694,4.713,4.713,4.732,4.771,4.81,4.83,4.851,4.891,4.933,4.996,5.084,5.106,5.22,5.34,5.465,5.57,5.651,5.679,5.763,5.792,5.85,5.85,5.85,5.85,5.792,5.735,5.679,5.624,5.57,5.491,5.34,5.018,4.891,4.83,4.732,4.638,4.565,4.477,4.426,4.376,4.328,4.312,4.312,4.312,4.312,4.312,4.312,4.312,4.312,4.312,4.312,4.312,4.312,4.312,4.312,4.312,4.312,4.296
4.328,4.264,4.056,3.946,3.893,3.868,3.829,3.804,3.792,3.767,3.755,3.755,3.755,3.755,3.755,3.767,3.767,3.78,3.78,3.792,3.792,3.792,3.804,3.804,3.817,3.829,3.868,4.056,4.249,0.0,0.0,4.713,4.891,5.106,5.34,5.415,5.465,5.517,5.517,5.543,5.57,5.597,5.597,5.624,5.651,5.679,5.679,5.735,5.763,5.792,5.85,5.909,5.909,5.939,5.939,5.939,6.001,6.001,6.001,6.001,5.939,5.939,5.939,5.939,5.939,6.001,6.001,6.032,6.032,6.095,6.127,6.159,6.159,6.127,6.127,6.127,6.095,6.095,6.032,6.001,6.001,5.939,5.939,5.939,5.909,5.909,5.939,5.939,5.939,6.001,5.939,6.001,6.001,6.001,6.001,6.001,6.001,5.939,6.001,6.001,6.001,6.001,6.001,6.001,6.001,6.032,6.032,6.032,6.032,6.032,6.032,6.095,6.095,6.095,6.095,6.095,6.127,6.095,6.095,6.095,6.032,6.001,6.001,5.939,5.909,5.85,5.85,5.821,5.792,5.763,5.763,5.735,5.735,5.707,5.707,5.707,5.707,5.707,5.735,5.763,5.763,5.792,5.792,5.85,5.85,5.939,6.001,6.032,6.127,6.159,6.225,6.259,6.327,6.361,6.396,6.396,6.396,6.396,6.396,6.396,6.396,6.361,6.396,6.361,6.361,6.327,6.327,6.225,6.159,6.127,6.032,5.939,5.909,5.85,5.792,5.763,5.735,5.707,5.679,5.651,5.651,5.651,5.624,5.624,5.651,5.651,5.651,5.651,5.651,5.651,5.651,5.651,5.651,5.651,5.624,5.624,5.624,5.597,5.597,5.597,5.597,5.597,5.57,5.57,5.57,5.543,5.543,5.543,5.543,5.543,5.543,5.543,5.543,5.543,5.543,5.543,5.543,5.517,5.517,5.517,5.517,5.517,5.517,5.543,5.543,5.543,5.517,5.517,5.491,5.465,5.44,5.44,5.415,5.389,5.34,5.34,5.316,5.316,5.316,5.316,5.34,5.34,5.389,5.415,5.44,5.465,5.517,5.517,5.543,5.543,5.543,5.543,5.543,5.543,5.543,5.543,5.517,5.465,5.415,5.389,5.316,5.268,5.22,5.174,5.151,5.106,5.106,5.106,5.151,5.151,5.151,5.151,5.151,5.151,5.151,5.151,5.151,5.106,5.106,5.106,5.084,5.084,5.04,5.04,5.04,5.04,5.04,5.084,5.106,5.106,5.151,5.151,5.151,5.106,5.106,5.084,5.04,5.018,4.996,4.996,5.018,5.018,5.018,5.04,5.04,5.04,5.04,5.084,5.084,5.106,5.106,5.106,5.106,5.106,5.106,5.106,5.106,5.106,5.106,5.106,5.106,5.106,5.106,5.106,5.106,5.151,5.106,5.151,5.151,5.151,5.151,5.151,5.106,5.084,5.084,5.04,5.018,4.975,4.954,4.954,4.933,4.933,4.912,4.912,4.912,4.912,4.912,4.912,4.912,4.912,4.912,4.912,4.912,4.933,4.933,4.933,4.933,4.933,4.933,4.912,4.912,4.912,4.912,4.912,4.912,4.912,4.891,4.891,4.891,4.891,4.891,4.891,4.891,4.891,4.891,4.891,4.891,4.871,4.871,4.871,4.851,4.851,4.851,4.83,4.83,4.83,4.83,4.81,4.81,4.81,4.81,4.81,4.81,4.791,4.791,4.791,4.791,4.791,4.791,4.791,4.791,4.771,4.791,4.791,4.791,4.791,4.791,4.791,4.791,4.791,4.791,4.791,4.771,4.771,4.771,4.752,4.732,4.713,4.713,4.657,4.657,4.601,4.583,4.565,4.53,4.512,4.477,4.46,4.426,4.426,4.41,4.41,4.393,4.376,4.376,4.36,4.36,4.344,4.344,4.328,4.328,4.328,4.328,4.328,4.328,4.328,4.328,4.328,4.328,4.328,4.344,4.36,4.376,4.376,4.41,4.426,4.46,4.477,4.512,4.53,4.565,4.583,4.583,4.601,4.638,4.638,4.638,4.638,4.657,4.657,4.694,4.694,4.713,4.732,4.713,4.732,4.732,4.752,4.732,4.752,4.713,4.732,4.732,4.732,4.771,4.771,4.791,4.791,4.81,4.83,4.851,4.871,4.891,4.954,5.018,5.084,5.174,5.244,5.34,5.44,5.543,5.624,5.679,5.792,5.909,6.001,6.032,6.095,6.095,6.095,6.032,5.939,5.85,5.735,5.679,5.624,5.543,5.465,5.316,4.933,4.851,4.791,4.713,4.601,4.512,4.46,4.393,4.344,4.328,4.312,4.312,4.312,4.312,4.312,4.312,4.312,4.312,4.312,4.312,4.312,4.312,4.312,4.312,4.312,4.312
4.46,4.328,4.28,4.085,4.014,3.92,3.868,3.829,3.804,3.78,3.767,3.767,3.767,3.767,3.767,3.767,3.78,3.78,3.78,3.78,3.792,3.792,3.804,3.804,3.804,3.817,3.88,4.07,0.0,0.0,0.0,4.81,4.975,5.268,5.465,5.491,5.517,5.543,5.57,5.57,5.597,5.624,5.651,5.651,5.679,5.707,5.763,5.792,5.85,5.909,5.939,6.001,6.001,6.001,6.032,6.032,6.032,6.095,6.032,6.032,6.032,6.001,6.001,6.001,6.001,6.001,6.001,6.032,6.095,6.127,6.127,6.159,6.159,6.159,6.159,6.159,6.159,6.127,6.127,6.127,6.127,6.095,6.095,6.032,6.032,6.032,6.032,6.032,6.032,6.032,6.032,6.032,6.001,6.032,6.001,6.032,6.001,6.001,6.032,6.032,6.032,6.032,6.032,6.032,6.032,6.095,6.095,6.127,6.127,6.127,6.095,6.127,6.095,6.095,6.095,6.095,6.095,6.032,6.032,6.032,6.001,6.001,5.939,5.909,5.85,5.85,5.821,5.792,5.792,5.763,5.735,5.735,5.735,5.735,5.735,5.735,5.735,5.735,5.763,5.763,5.792,5.792,5.85,5.909,5.909,5.909,6.001,6.032,6.095,6.127,6.159,6.259,6.259,6.327,6.361,6.361,6.396,6.396,6.396,6.361,6.361,6.361,6.361,6.361,6.361,6.327,6.259,6.259,6.225,6.127,6.095,6.001,5.939,5.85,5.821,5.792,5.763,5.735,5.707,5.679,5.679,5.679,5.679,5.651,5.651,5.651,5.651,5.651,5.651,5.651,5.651,5.651,5.651,5.651,5.624,5.624,5.624,5.597,5.597,5.597,5.597,5.57,5.57,5.57,5.543,5.543,5.543,5.543,5.543,5.543,5.543,5.543,5.543,5.543,5.543,5.543,5.543,5.543,5.517,5.517,5.517,5.517,5.517,5.517,5.517,5.517,5.491,5.491,5.465,5.44,5.415,5.415,5.389,5.34,5.34,5.316,5.268,5.268,5.268,5.268,5.316,5.34,5.389,5.415,5.44,5.465,5.491,5.517,5.543,5.543,5.543,5.543,5.543,5.543,5.543,5.543,5.517,5.44,5.389,5.316,5.268,5.244,5.22,5.151,5.151,5.151,5.151,5.151,5.151,5.174,5.174,5.174,5.174,5.174,5.22,5.174,5.174,5.174,5.174,5.151,5.151,5.106,5.106,5.084,5.084,5.084,5.084,5.106,5.106,5.151,5.151,5.151,5.151,5.106,5.106,5.084,5.04,5.018,4.996,4.996,4.996,5.018,5.018,5.018,5.018,5.018,5.04,5.04,5.04,5.084,5.084,5.084,5.084,5.084,5.084,5.04,5.04,5.04,5.04,5.04,5.04,5.04,5.084,5.084,5.084,5.106,5.106,5.106,5.106,5.151,5.151,5.106,5.106,5.084,5.04,5.04,5.018,4.975,4.954,4.954,4.933,4.933,4.912,4.912,4.912,4.912,4.912,4.912,4.912,4.912,4.912,4.933,4.933,4.933,4.933,4.933,4.933,4.933,4.933,4.912,4.912,4.912,4.912,4.912,4.912,4.912,4.891,4.891,4.891,4.891,4.891,4.891,4.891,4.891,4.891,4.891,4.871,4.871,4.871,4.871,4.851,4.851,4.851,4.851,4.83,4.83,4.83,4.83,4.83,4.81,4.81,4.81,4.81,4.81,4.81,4.81,4.791,4.791,4.791,4.791,4.791,4.771,4.771,4.771,4.771,4.771,4.771,4.771,4.791,4.791,4.791,4.771,4.771,4.752,4.752,4.732,4.713,4.694,4.657,4.638,4.601,4.583,4.565,4.53,4.512,4.477,4.46,4.46,4.426,4.426,4.41,4.41,4.41,4.393,4.376,4.376,4.36,4.344,4.344,4.328,4.328,4.328,4.328,4.328,4.328,4.328,4.328,4.328,4.328,4.344,4.36,4.376,4.393,4.41,4.426,4.46,4.477,4.583,4.601,4.638,4.657,4.657,4.694,4.752,4.791,4.83,4.83,4.851,4.891,4.912,4.975,5.04,5.04,5.04,5.018,4.996,4.996,4.996,4.975,4.933,4.912,4.912,4.891,4.891,4.891,4.891,4.871,4.871,4.891,4.912,4.912,4.975,5.018,5.151,5.22,5.316,5.389,5.465,5.543,5.597,5.651,5.735,5.909,6.032,6.0817499999999995,6.127,6.225,6.225,6.225,6.159,6.095,6.032,5.939,5.792,5.735,5.651,5.597,5.517,5.389,4.996,4.891,4.81,4.732,4.638,4.565,4.512,4.41,4.36,4.328,4.328,4.328,4.312,4.312,4.312,4.312,4.312,4.312,4.328,4.328,4.312,4.328,4.328,4.328,4.312,4.312
4.657,4.512,4.36,4.28,4.233,4.028,3.946,3.868,3.829,3.804,3.792,3.78,3.78,3.78,3.78,3.78,3.78,3.792,3.792,3.78,3.792,3.792,3.804,3.804,3.804,3.804,3.88,0.0,0.0,0.0,0.0,4.891,5.106,5.415,5.543,5.543,5.57,5.597,5.597,5.597,5.651,5.651,5.679,5.679,5.707,5.763,5.792,5.85,5.939,6.001,6.032,6.032,6.032,6.095,6.127,6.127,6.095,6.095,6.095,6.095,6.032,6.001,6.001,6.001,6.001,6.001,6.032,6.032,6.095,6.095,6.127,6.159,6.159,6.159,6.225,6.225,6.159,6.159,6.225,6.159,6.159,6.159,6.159,6.159,6.127,6.127,6.159,6.127,6.127,6.127,6.127,6.095,6.095,6.095,6.095,6.032,6.095,6.032,6.032,6.095,6.095,6.095,6.095,6.095,6.095,6.127,6.127,6.127,6.127,6.127,6.127,6.127,6.095,6.095,6.095,6.095,6.032,6.032,6.001,6.001,5.939,5.939,5.909,5.85,5.821,5.821,5.821,5.792,5.792,5.763,5.763,5.763,5.763,5.735,5.763,5.763,5.763,5.763,5.792,5.821,5.821,5.85,5.85,5.909,5.909,5.939,5.939,6.001,6.032,6.095,6.127,6.159,6.225,6.259,6.327,6.327,6.327,6.327,6.327,6.327,6.361,6.361,6.361,6.327,6.327,6.327,6.259,6.225,6.159,6.127,6.032,6.001,5.939,5.909,5.85,5.821,5.792,5.763,5.735,5.707,5.707,5.679,5.679,5.679,5.679,5.679,5.679,5.679,5.679,5.679,5.679,5.651,5.651,5.651,5.651,5.624,5.597,5.597,5.597,5.597,5.57,5.57,5.57,5.57,5.543,5.543,5.543,5.543,5.543,5.543,5.543,5.543,5.543,5.543,5.543,5.543,5.543,5.543,5.543,5.517,5.517,5.517,5.517,5.517,5.491,5.491,5.491,5.465,5.465,5.44,5.415,5.389,5.34,5.316,5.316,5.268,5.268,5.244,5.244,5.268,5.268,5.316,5.34,5.389,5.44,5.465,5.491,5.517,5.543,5.543,5.543,5.543,5.543,5.543,5.543,5.517,5.491,5.415,5.34,5.316,5.244,5.244,5.174,5.151,5.151,5.151,5.151,5.151,5.174,5.174,5.174,5.22,5.22,5.22,5.22,5.22,5.22,5.22,5.22,5.22,5.174,5.174,5.151,5.151,5.151,5.106,5.106,5.151,5.151,5.151,5.151,5.174,5.174,5.151,5.151,5.084,5.084,5.04,5.018,5.018,5.018,5.018,5.018,5.04,5.04,5.04,5.04,5.04,5.04,5.04,5.04,5.04,5.04,5.04,5.04,5.018,5.018,5.018,5.018,5.018,5.018,5.018,5.04,5.04,5.04,5.04,5.084,5.084,5.084,5.106,5.106,5.106,5.084,5.084,5.04,5.018,4.996,4.975,4.954,4.954,4.933,4.933,4.933,4.912,4.912,4.912,4.912,4.912,4.912,4.933,4.933,4.933,4.954,4.954,4.954,4.954,4.933,4.933,4.933,4.933,4.933,4.912,4.912,4.912,4.912,4.912,4.891,4.891,4.891,4.891,4.891,4.891,4.891,4.891,4.891,4.891,4.871,4.871,4.871,4.871,4.851,4.851,4.851,4.851,4.851,4.83,4.83,4.83,4.83,4.83,4.81,4.81,4.81,4.81,4.81,4.81,4.791,4.791,4.791,4.771,4.771,4.752,4.752,4.752,4.752,4.752,4.752,4.771,4.771,4.771,4.771,4.771,4.771,4.752,4.732,4.713,4.694,4.657,4.638,4.601,4.583,4.565,4.53,4.512,4.512,4.46,4.46,4.46,4.426,4.426,4.41,4.41,4.41,4.393,4.393,4.36,4.36,4.36,4.344,4.328,4.328,4.328,4.328,4.328,4.328,4.328,4.328,4.344,4.344,4.36,4.41,4.426,4.53,4.657,4.732,4.81,4.83,4.891,4.912,4.933,4.933,4.933,4.954,5.018,5.084,5.17225,5.151,5.174,5.244,5.415,5.543,5.543,5.597,5.597,5.597,5.597,5.57,5.543,5.543,5.415,5.316,5.22,5.151,5.04,5.018,4.975,4.975,4.954,4.996,5.018,5.084,5.22,5.268,5.415,5.465,5.543,5.597,5.651,5.679,5.763,5.85,6.032,6.10675,6.159,6.259,6.327,6.361,6.361,6.327,6.225,6.127,6.032,5.939,5.821,5.735,5.651,5.597,5.543,5.415,5.018,4.912,4.83,4.771,4.694,4.601,4.53,4.426,4.393,4.344,4.344,4.328,4.328,4.328,4.328,4.312,4.328,4.328,4.328,4.328,4.328,4.328,4.328,4.328,4.328,4.328
4.81,4.713,4.53,4.376,4.312,4.249,4.056,3.906,3.855,3.829,3.804,3.792,3.792,3.78,3.78,3.78,3.78,3.792,3.792,3.792,3.792,3.804,3.804,3.804,3.804,3.804,0.0,0.0,0.0,0.0,0.0,5.04,5.34,5.543,5.597,5.597,5.597,5.624,5.624,5.651,5.679,5.679,5.707,5.735,5.763,5.821,5.85,5.939,6.001,6.032,6.095,6.095,6.095,6.127,6.159,6.159,6.127,6.127,6.127,6.127,6.095,6.032,6.001,6.001,6.032,6.032,6.032,6.095,6.095,6.127,6.127,6.159,6.159,6.159,6.159,6.225,6.225,6.225,6.259,6.259,6.259,6.259,6.259,6.259,6.259,6.225,6.225,6.225,6.225,6.225,6.159,6.159,6.127,6.127,6.127,6.127,6.095,6.095,6.095,6.095,6.127,6.127,6.127,6.127,6.127,6.159,6.159,6.159,6.127,6.127,6.127,6.127,6.095,6.032,6.032,6.001,6.001,6.001,5.939,5.939,5.909,5.909,5.85,5.85,5.85,5.821,5.821,5.821,5.821,5.792,5.792,5.792,5.763,5.763,5.763,5.792,5.821,5.821,5.821,5.85,5.85,5.909,5.909,5.939,5.939,5.939,6.001,6.001,6.001,6.032,6.095,6.127,6.127,6.159,6.225,6.225,6.259,6.259,6.259,6.259,6.259,6.327,6.327,6.327,6.327,6.259,6.259,6.225,6.159,6.127,6.032,6.001,5.939,5.909,5.85,5.821,5.792,5.763,5.763,5.763,5.735,5.735,5.707,5.707,5.707,5.707,5.707,5.679,5.679,5.679,5.679,5.679,5.651,5.651,5.651,5.624,5.597,5.597,5.597,5.597,5.57,5.57,5.57,5.543,5.543,5.543,5.543,5.543,5.543,5.543,5.543,5.543,5.543,5.543,5.543,5.543,5.543,5.543,5.543,5.543,5.517,5.517,5.517,5.517,5.491,5.491,5.491,5.465,5.44,5.415,5.389,5.34,5.34,5.316,5.268,5.268,5.244,5.244,5.244,5.268,5.268,5.316,5.34,5.389,5.44,5.465,5.491,5.517,5.517,5.543,5.543,5.543,5.543,5.517,5.517,5.491,5.44,5.389,5.34,5.268,5.244,5.244,5.174,5.174,5.151,5.151,5.174,5.174,5.22,5.22,5.22,5.244,5.244,5.268,5.268,5.268,5.268,5.268,5.268,5.268,5.268,5.244,5.22,5.22,5.174,5.174,5.174,5.174,5.174,5.174,5.174,5.174,5.174,5.174,5.151,5.151,5.106,5.084,5.084,5.04,5.084,5.084,5.084,5.084,5.084,5.084,5.084,5.084,5.084,5.084,5.04,5.04,5.04,5.04,5.018,5.018,5.018,4.996,4.996,4.996,4.996,4.996,4.996,5.018,5.018,5.018,5.04,5.04,5.084,5.084,5.084,5.084,5.04,5.04,5.018,5.018,4.996,4.975,4.954,4.954,4.933,4.933,4.933,4.933,4.933,4.933,4.933,4.933,4.954,4.954,4.954,4.954,4.954,4.954,4.954,4.954,4.954,4.954,4.933,4.933,4.933,4.933,4.933,4.912,4.912,4.912,4.912,4.912,4.891,4.891,4.891,4.891,4.891,4.891,4.891,4.891,4.891,4.891,4.891,4.871,4.871,4.851,4.851,4.851,4.851,4.851,4.851,4.83,4.83,4.83,4.83,4.81,4.81,4.81,4.81,4.791,4.791,4.771,4.771,4.752,4.752,4.732,4.732,4.732,4.732,4.752,4.752,4.752,4.771,4.771,4.771,4.771,4.752,4.732,4.732,4.713,4.657,4.638,4.601,4.583,4.583,4.53,4.53,4.512,4.477,4.477,4.46,4.477,4.477,4.46,4.46,4.46,4.426,4.426,4.41,4.376,4.36,4.36,4.344,4.344,4.328,4.328,4.328,4.328,4.328,4.344,4.328,4.344,4.344,4.36,4.426,4.477,4.565,4.771,4.9087499999999995,4.912,5.106,5.316,5.465,5.517,5.543,5.543,5.543,5.543,5.597,5.624,5.651,5.679,5.735,5.85,6.001,6.095,6.159,6.259,6.225,6.127,6.159,6.032,5.909,5.763,5.679,5.651,5.517,5.415,5.316,5.244,5.22,5.174,5.174,5.22,5.316,5.415,5.543,5.57,5.624,5.679,5.735,5.821,5.939,5.99825,6.032,6.159,6.327,6.396,6.432,6.432,6.432,6.396,6.396,6.225,6.127,6.032,5.909,5.792,5.707,5.651,5.57,5.517,5.389,5.22,4.912,4.851,4.791,4.713,4.657,4.565,4.477,4.41,4.376,4.344,4.328,4.328,4.328,4.328,4.312,4.312,4.328,4.328,4.328,4.328,4.328,4.328,4.328,4.328,4.328
4.891,4.83,4.713,4.53,4.376,4.296,4.249,4.158,3.868,3.829,3.804,3.792,3.792,3.78,3.78,3.78,3.78,3.792,3.792,3.792,3.792,3.804,3.804,3.804,3.804,3.804,0.0,0.0,0.0,0.0,0.0,5.244,5.517,5.597,5.651,5.651,5.651,5.651,5.679,5.679,5.707,5.735,5.763,5.792,5.821,5.909,5.939,6.032,6.032,6.095,6.127,6.127,6.159,6.159,6.159,6.159,6.159,6.159,6.159,6.127,6.127,6.095,6.032,6.032,6.032,6.095,6.095,6.095,6.127,6.127,6.159,6.159,6.159,6.159,6.159,6.225,6.225,6.225,6.259,6.259,6.327,6.327,6.327,6.327,6.327,6.361,6.361,6.327,6.327,6.327,6.225,6.225,6.159,6.159,6.159,6.127,6.159,6.127,6.127,6.159,6.159,6.159,6.159,6.159,6.159,6.159,6.159,6.159,6.159,6.127,6.127,6.095,6.032,6.032,6.001,5.939,5.939,5.939,5.939,5.939,5.909,5.909,5.909,5.909,5.85,5.85,5.85,5.821,5.821,5.821,5.821,5.821,5.821,5.821,5.821,5.821,5.85,5.85,5.909,5.909,5.909,5.939,5.939,5.939,5.939,6.001,5.939,5.939,6.001,6.032,6.032,6.032,6.095,6.095,6.127,6.127,6.159,6.159,6.159,6.225,6.225,6.225,6.259,6.259,6.259,6.225,6.225,6.159,6.127,6.095,6.032,6.001,5.909,5.85,5.85,5.821,5.792,5.792,5.763,5.792,5.763,5.763,5.763,5.763,5.735,5.735,5.735,5.707,5.707,5.707,5.679,5.679,5.651,5.651,5.651,5.624,5.597,5.597,5.597,5.57,5.57,5.57,5.543,5.543,5.543,5.543,5.543,5.543,5.517,5.543,5.543,5.543,5.543,5.543,5.543,5.57,5.57,5.57,5.543,5.543,5.543,5.543,5.543,5.543,5.517,5.491,5.491,5.465,5.44,5.415,5.415,5.389,5.34,5.316,5.316,5.268,5.268,5.244,5.268,5.268,5.268,5.316,5.389,5.389,5.44,5.465,5.491,5.517,5.517,5.543,5.543,5.543,5.517,5.517,5.491,5.491,5.415,5.34,5.316,5.268,5.244,5.22,5.174,5.174,5.174,5.174,5.174,5.22,5.22,5.244,5.244,5.268,5.268,5.316,5.316,5.34,5.34,5.34,5.34,5.34,5.34,5.316,5.268,5.244,5.244,5.22,5.22,5.22,5.22,5.22,5.22,5.22,5.22,5.22,5.174,5.174,5.151,5.151,5.106,5.106,5.106,5.106,5.106,5.106,5.106,5.106,5.106,5.106,5.084,5.084,5.084,5.084,5.084,5.04,5.018,5.018,4.996,4.996,4.996,4.996,4.996,4.996,4.996,4.996,4.996,5.018,5.018,5.018,5.018,5.04,5.04,5.04,5.018,5.018,5.018,4.996,4.975,4.975,4.954,4.954,4.933,4.954,4.954,4.954,4.954,4.954,4.954,4.954,4.954,4.954,4.954,4.954,4.975,4.975,4.975,4.975,4.954,4.954,4.954,4.954,4.954,4.933,4.933,4.933,4.933,4.912,4.912,4.912,4.912,4.912,4.912,4.912,4.912,4.912,4.891,4.891,4.891,4.891,4.891,4.891,4.891,4.871,4.871,4.851,4.871,4.851,4.851,4.851,4.851,4.83,4.83,4.83,4.83,4.81,4.81,4.791,4.791,4.771,4.752,4.732,4.732,4.713,4.713,4.713,4.713,4.713,4.713,4.732,4.752,4.771,4.771,4.752,4.752,4.732,4.713,4.694,4.657,4.638,4.583,4.583,4.565,4.565,4.53,4.512,4.512,4.512,4.512,4.512,4.477,4.477,4.477,4.477,4.477,4.477,4.46,4.41,4.393,4.41,4.36,4.344,4.344,4.328,4.328,4.328,4.328,4.328,4.344,4.344,4.36,4.36,4.46,4.638,4.752,4.986,5.22,5.491,5.597,0.0,0.0,0.0,0.0,0.0,0.0,6.1555,6.259,6.361,6.432,6.467,6.504,6.474,6.593500000000001,6.631625,6.652,6.69,6.614,6.614,6.614,6.54,6.467,6.246,6.1745,6.159,5.85,5.707,5.624,5.517,5.465,5.44,5.44,5.44,5.543,5.597,5.679,5.735,5.792,5.8767499999999995,5.909,6.032,6.127,6.259,6.361,6.396,6.467,6.504,6.504,6.54,6.467,6.432,6.396,6.225,6.127,6.001,5.85,5.763,5.679,5.624,5.543,5.465,5.34,5.018,4.912,4.851,4.81,4.752,4.694,4.601,4.53,4.426,4.393,4.376,4.344,4.328,4.328,4.328,4.328,4.312,4.328,4.328,4.328,4.328,4.328,4.328,4.328,4.328,4.328
5.174,4.891,4.81,4.657,4.477,4.344,4.28,3.973,3.868,3.829,3.804,3.792,3.792,3.78,3.78,3.78,3.78,3.792,3.792,3.792,3.792,3.804,3.804,3.804,3.804,3.804,0.0,0.0,0.0,0.0,0.0,5.465,5.624,5.651,5.679,5.679,5.679,5.679,5.707,5.735,5.763,5.792,5.821,5.85,5.909,5.939,6.032,6.095,6.127,6.127,6.127,6.159,6.159,6.225,6.225,6.225,6.159,6.159,6.159,6.159,6.127,6.127,6.095,6.095,6.095,6.095,6.095,6.127,6.127,6.127,6.159,6.159,6.127,6.159,6.159,6.159,6.225,6.225,6.259,6.327,6.327,6.327,6.361,6.361,6.361,6.361,6.361,6.361,6.361,6.361,6.327,6.259,6.259,6.225,6.225,6.225,6.159,6.159,6.159,6.159,6.159,6.159,6.159,6.159,6.159,6.159,6.159,6.159,6.127,6.095,6.095,6.032,6.001,5.939,5.939,5.909,5.909,5.939,5.909,5.909,5.909,5.939,5.939,5.909,5.909,5.909,5.909,5.85,5.939,5.909,5.909,5.909,5.85,5.85,5.85,5.85,5.909,5.909,5.909,5.939,5.939,5.939,6.001,6.001,5.939,5.939,5.939,5.939,5.939,5.939,6.001,6.001,6.001,6.001,6.032,6.095,6.095,6.095,6.095,6.127,6.127,6.127,6.159,6.159,6.159,6.127,6.127,6.095,6.095,6.032,5.939,5.909,5.909,5.85,5.821,5.792,5.792,5.792,5.792,5.763,5.763,5.763,5.763,5.763,5.763,5.763,5.735,5.735,5.735,5.707,5.679,5.679,5.679,5.651,5.651,5.624,5.597,5.597,5.57,5.57,5.57,5.543,5.543,5.517,5.517,5.517,5.517,5.517,5.517,5.517,5.543,5.543,5.543,5.57,5.57,5.57,5.57,5.57,5.57,5.57,5.543,5.543,5.543,5.543,5.543,5.517,5.517,5.491,5.465,5.44,5.44,5.415,5.389,5.34,5.34,5.316,5.316,5.316,5.316,5.316,5.34,5.389,5.389,5.44,5.44,5.465,5.491,5.517,5.517,5.517,5.543,5.517,5.491,5.491,5.491,5.465,5.415,5.34,5.316,5.268,5.244,5.22,5.22,5.174,5.174,5.22,5.22,5.22,5.244,5.268,5.268,5.316,5.34,5.389,5.389,5.389,5.389,5.415,5.415,5.415,5.389,5.389,5.34,5.316,5.268,5.268,5.268,5.244,5.244,5.244,5.244,5.244,5.22,5.22,5.22,5.22,5.174,5.174,5.151,5.151,5.151,5.151,5.151,5.151,5.151,5.151,5.106,5.106,5.106,5.106,5.106,5.084,5.084,5.04,5.04,5.018,5.018,4.996,4.996,4.975,4.975,4.975,4.975,4.996,4.996,4.996,5.018,5.018,5.018,5.018,5.018,5.018,5.018,4.996,4.996,4.975,4.975,4.975,4.954,4.954,4.954,4.954,4.954,4.954,4.975,4.975,4.996,5.018,5.018,5.018,4.975,4.975,4.996,4.996,4.975,4.975,4.975,4.975,4.975,4.975,4.954,4.954,4.954,4.933,4.933,4.933,4.933,4.912,4.912,4.912,4.912,4.912,4.912,4.912,4.912,4.891,4.891,4.891,4.891,4.891,4.891,4.891,4.871,4.871,4.871,4.851,4.851,4.851,4.851,4.83,4.83,4.83,4.81,4.81,4.81,4.791,4.771,4.752,4.732,4.713,4.694,4.694,4.657,4.657,4.657,4.694,4.713,4.713,4.732,4.732,4.752,4.732,4.732,4.713,4.713,4.657,4.638,4.601,4.583,4.583,4.53,4.53,4.512,4.477,4.477,4.512,4.512,4.53,4.53,4.512,4.53,4.53,4.512,4.512,4.477,4.41,4.393,4.41,4.393,4.393,4.344,4.328,4.328,4.328,4.328,4.376,4.344,4.344,4.376,4.46,4.645,4.83,0.0,0.0,0.0,0.0,6.263,0.0,0.0,0.0,0.0,0.0,0.0,6.768,7.0625,0.0,0.0,7.193,7.151999999999999,7.098,7.186,7.186,7.186,7.186,7.098,7.055,6.888,6.848,6.729,6.729,6.614,6.577,6.504,6.259,6.095,6.001,5.792,5.651,5.679,5.679,5.77,5.763,5.792,5.939,6.032,6.127,6.225,6.327,6.396,6.432,6.467,6.54,6.54,6.54,6.54,6.54,6.54,6.467,6.432,6.225,6.095,5.939,5.821,5.735,5.651,5.597,5.543,5.44,5.316,5.018,4.912,4.871,4.83,4.771,4.732,4.638,4.565,4.477,4.41,4.393,4.36,4.344,4.328,4.328,4.328,4.328,4.328,4.328,4.328,4.328,4.328,4.328,4.344,4.328,4.328
5.415,5.22,4.891,4.83,4.694,4.477,4.328,4.014,3.893,3.829,3.804,3.792,3.792,3.78,3.78,3.78,3.78,3.792,3.792,3.792,3.792,3.792,3.804,3.804,3.804,3.804,0.0,0.0,0.0,0.0,0.0,5.543,5.679,5.679,5.707,5.707,5.707,5.735,5.763,5.763,5.821,5.85,5.909,5.939,5.939,6.032,6.095,6.127,6.127,6.159,6.159,6.159,6.225,6.225,6.225,6.225,6.225,6.159,6.225,6.159,6.159,6.127,6.127,6.127,6.127,6.127,6.127,6.127,6.127,6.159,6.127,6.127,6.159,6.127,6.159,6.159,6.225,6.225,6.259,6.327,6.327,6.361,6.361,6.396,6.396,6.396,6.396,6.396,6.396,6.361,6.327,6.327,6.259,6.259,6.225,6.225,6.225,6.225,6.159,6.159,6.159,6.225,6.159,6.159,6.159,6.159,6.159,6.127,6.127,6.095,6.095,6.032,6.001,5.939,5.939,5.939,5.939,5.939,5.939,5.939,5.939,5.939,5.939,6.001,6.001,6.001,6.001,6.001,6.001,6.001,5.939,5.939,5.939,5.909,5.909,5.909,5.909,5.909,5.939,5.939,5.939,6.001,6.001,6.001,5.939,5.939,5.909,5.909,5.909,5.909,5.909,5.909,5.909,5.909,5.939,5.939,6.001,6.001,6.001,6.001,6.032,6.032,6.032,6.095,6.032,6.032,6.032,6.001,5.939,5.939,5.909,5.85,5.821,5.792,5.792,5.763,5.763,5.763,5.763,5.763,5.763,5.763,5.763,5.763,5.763,5.763,5.763,5.735,5.735,5.707,5.707,5.679,5.679,5.651,5.651,5.624,5.597,5.597,5.57,5.543,5.543,5.517,5.517,5.491,5.491,5.491,5.491,5.491,5.491,5.491,5.517,5.543,5.543,5.543,5.57,5.57,5.57,5.57,5.57,5.57,5.57,5.57,5.543,5.543,5.543,5.543,5.543,5.517,5.491,5.465,5.465,5.44,5.415,5.415,5.389,5.389,5.34,5.34,5.34,5.389,5.389,5.415,5.44,5.44,5.465,5.465,5.491,5.517,5.517,5.517,5.517,5.491,5.491,5.491,5.465,5.465,5.415,5.34,5.316,5.268,5.244,5.22,5.22,5.22,5.22,5.22,5.22,5.244,5.268,5.316,5.316,5.34,5.389,5.389,5.415,5.44,5.44,5.44,5.44,5.44,5.44,5.415,5.389,5.389,5.34,5.316,5.316,5.268,5.268,5.268,5.268,5.244,5.244,5.244,5.244,5.22,5.22,5.22,5.22,5.174,5.174,5.174,5.174,5.174,5.174,5.151,5.151,5.151,5.151,5.106,5.106,5.106,5.106,5.084,5.04,5.018,5.018,4.996,4.996,4.975,4.975,4.975,4.975,4.975,4.996,4.996,4.996,4.996,4.996,4.996,4.996,4.996,4.996,4.996,4.975,4.975,4.954,4.954,4.954,4.954,4.954,4.954,4.954,4.975,4.996,5.018,5.018,5.04,5.04,5.04,5.04,5.04,5.04,4.996,4.996,4.996,4.996,4.996,4.975,4.975,4.954,4.954,4.954,4.954,4.933,4.933,4.933,4.933,4.912,4.912,4.912,4.912,4.912,4.912,4.891,4.891,4.891,4.891,4.891,4.891,4.871,4.871,4.871,4.871,4.871,4.851,4.851,4.851,4.851,4.851,4.83,4.83,4.81,4.81,4.791,4.771,4.752,4.732,4.713,4.694,4.657,4.657,4.638,4.638,4.638,4.657,4.657,4.694,4.713,4.713,4.713,4.732,4.713,4.713,4.694,4.657,4.601,4.583,4.565,4.53,4.53,4.512,4.512,4.512,4.512,4.53,4.53,4.565,4.565,4.565,4.565,4.565,4.53,4.53,4.53,4.565,4.53,4.512,4.565,4.565,4.393,4.376,4.426,4.376,4.393,4.393,4.41,4.36,4.46,0.0,0.0,0.0,0.0,0.0,0.0,0.0,6.929,7.368,7.709,7.659,7.709,7.761,7.973,7.866,7.866,0.0,0.0,7.919,7.813,7.866,7.866,7.866,7.813,7.813,7.761,7.559,7.511,7.415,7.368,7.055,6.888,6.848,6.729,6.614,6.577,6.432,6.327,6.225,6.032,6.032,6.095,6.095,6.127,6.225,6.327,6.361,6.396,6.467,6.467,6.54,6.54,6.54,6.577,6.577,6.577,6.54,6.54,6.467,6.432,6.159,6.095,5.909,5.792,5.679,5.624,5.57,5.491,5.34,5.244,4.996,4.912,4.871,4.83,4.791,4.752,4.694,4.583,4.512,4.46,4.41,4.376,4.344,4.328,4.328,4.328,4.328,4.328,4.328,4.328,4.328,4.328,4.328,4.344,4.344,4.344
5.5329999999999995,5.4085,5.16025,4.912,4.851,4.694,4.426,4.07,3.933,3.855,3.817,3.804,3.792,3.78,3.78,3.78,3.78,3.792,3.792,3.792,3.792,3.792,3.804,3.804,3.804,3.804,0.0,0.0,0.0,0.0,0.0,5.543,5.707,5.707,5.735,5.735,5.763,5.763,5.792,5.821,5.909,5.909,5.939,6.001,6.032,6.127,6.159,6.159,6.225,6.225,6.225,6.225,6.225,6.259,6.259,6.259,6.225,6.259,6.225,6.225,6.225,6.159,6.159,6.159,6.159,6.159,6.159,6.159,6.159,6.159,6.159,6.159,6.159,6.127,6.127,6.159,6.225,6.225,6.259,6.327,6.361,6.361,6.396,6.396,6.432,6.432,6.432,6.396,6.396,6.361,6.361,6.361,6.327,6.327,6.327,6.259,6.259,6.225,6.225,6.225,6.159,6.225,6.159,6.127,6.127,6.127,6.095,6.095,6.032,6.032,6.001,6.001,5.939,5.909,5.909,5.909,5.909,5.939,5.939,5.939,6.001,6.001,6.032,6.095,6.095,6.095,6.095,6.032,6.032,6.032,6.032,6.001,5.939,5.939,5.939,5.939,5.939,5.909,5.939,5.939,5.939,6.001,6.001,6.001,6.001,5.939,5.939,5.909,5.85,5.85,5.85,5.85,5.821,5.821,5.85,5.909,5.909,5.909,5.909,5.909,5.939,5.939,5.939,5.939,5.939,5.939,5.939,5.909,5.85,5.821,5.821,5.792,5.763,5.763,5.735,5.735,5.735,5.735,5.735,5.763,5.763,5.763,5.763,5.763,5.763,5.763,5.763,5.763,5.735,5.707,5.707,5.679,5.679,5.651,5.651,5.597,5.597,5.57,5.57,5.543,5.517,5.517,5.465,5.465,5.465,5.44,5.44,5.465,5.465,5.491,5.491,5.517,5.543,5.543,5.543,5.57,5.57,5.57,5.57,5.57,5.57,5.57,5.57,5.543,5.543,5.543,5.543,5.517,5.517,5.491,5.491,5.465,5.44,5.44,5.44,5.415,5.415,5.415,5.415,5.415,5.415,5.44,5.44,5.44,5.465,5.465,5.491,5.491,5.491,5.491,5.491,5.491,5.465,5.465,5.465,5.415,5.389,5.34,5.316,5.268,5.268,5.244,5.22,5.22,5.22,5.244,5.268,5.268,5.316,5.316,5.34,5.389,5.389,5.415,5.44,5.44,5.44,5.44,5.44,5.44,5.44,5.415,5.415,5.389,5.34,5.34,5.316,5.316,5.316,5.268,5.268,5.268,5.268,5.268,5.244,5.244,5.244,5.22,5.22,5.22,5.22,5.22,5.22,5.174,5.174,5.174,5.174,5.151,5.151,5.151,5.106,5.106,5.106,5.084,5.04,5.018,5.018,4.996,4.996,4.975,4.975,4.975,4.975,4.975,4.996,4.996,4.996,4.996,4.975,4.975,4.975,4.975,4.975,4.975,4.954,4.933,4.933,4.933,4.933,4.933,4.933,4.954,4.975,4.975,5.018,5.04,5.04,5.084,5.084,5.084,5.084,5.084,5.084,5.04,5.018,5.018,4.996,4.996,4.975,4.975,4.954,4.954,4.954,4.933,4.933,4.912,4.912,4.912,4.912,4.912,4.891,4.891,4.891,4.891,4.891,4.891,4.871,4.871,4.871,4.871,4.871,4.871,4.871,4.851,4.851,4.851,4.851,4.851,4.851,4.851,4.83,4.83,4.81,4.81,4.791,4.752,4.732,4.713,4.694,4.638,4.601,4.583,4.583,4.583,4.583,4.601,4.601,4.657,4.657,4.694,4.713,4.694,4.657,4.657,4.638,4.638,4.583,4.565,4.565,4.53,4.53,4.53,4.53,4.53,4.565,4.583,4.583,4.601,4.601,4.583,4.601,4.601,4.583,4.565,4.601,4.752,4.83,4.891,5.04,5.268,0.0,0.0,0.0,5.8955,0.0,6.816000000000001,7.18,7.198,7.291499999999999,0.0,0.0,0.0,0.0,10.212,10.123,8.256,8.315,8.436,8.56,8.315,8.375,8.497,8.497,8.56,8.56,8.497,8.436,8.375,8.315,8.256,8.198,8.198,8.198,8.141,8.141,8.028,7.973,7.919,7.866,7.761,7.559,7.415,7.055,6.888,6.729,6.614,6.577,6.54,6.432,6.432,6.361,6.361,6.396,6.432,6.432,6.467,6.504,6.54,6.54,6.54,6.577,6.577,6.577,6.577,6.577,6.54,6.54,6.467,6.396,6.159,6.032,5.85,5.735,5.651,5.597,5.543,5.44,5.316,5.174,4.975,4.912,4.871,4.83,4.81,4.752,4.713,4.601,4.53,4.477,4.426,4.376,4.36,4.328,4.328,4.328,4.328,4.328,4.328,4.328,4.328,4.344,4.344,4.344,4.344,4.344
5.651,5.597,5.392125,5.24953125,5.151,4.83,4.601,4.36,4.014,3.893,3.829,3.804,3.804,3.792,3.792,3.792,3.78,3.792,3.792,3.792,3.792,3.792,3.792,3.792,3.804,3.804,3.906,0.0,0.0,0.0,0.0,5.44,5.679,5.735,5.735,5.763,5.792,5.821,5.85,5.909,5.939,6.032,6.095,6.127,6.159,6.225,6.259,6.259,6.327,6.259,6.259,6.259,6.259,6.327,6.327,6.327,6.327,6.327,6.327,6.327,6.259,6.259,6.259,6.259,6.225,6.225,6.259,6.225,6.225,6.225,6.225,6.159,6.159,6.159,6.159,6.159,6.225,6.259,6.327,6.361,6.396,6.396,6.432,6.467,6.432,6.467,6.432,6.432,6.432,6.396,6.396,6.361,6.361,6.327,6.327,6.259,6.259,6.225,6.259,6.225,6.225,6.225,6.159,6.127,6.127,6.095,6.032,6.032,6.001,5.939,5.939,5.939,5.939,5.909,5.909,5.909,5.939,5.939,6.001,6.001,6.001,6.095,6.095,6.127,6.159,6.159,6.127,6.127,6.095,6.095,6.095,6.032,6.001,6.001,6.001,6.001,5.939,5.939,5.939,5.939,5.939,6.001,6.001,6.001,5.939,5.939,5.909,5.85,5.85,5.85,5.821,5.821,5.821,5.821,5.821,5.85,5.85,5.85,5.85,5.85,5.909,5.909,5.909,5.909,5.85,5.85,5.85,5.821,5.821,5.792,5.763,5.735,5.735,5.707,5.707,5.707,5.707,5.735,5.735,5.735,5.763,5.763,5.763,5.763,5.763,5.763,5.735,5.735,5.735,5.707,5.707,5.679,5.679,5.651,5.624,5.597,5.597,5.57,5.543,5.543,5.517,5.491,5.44,5.44,5.415,5.415,5.415,5.415,5.44,5.44,5.465,5.491,5.517,5.543,5.543,5.57,5.57,5.57,5.57,5.57,5.57,5.57,5.57,5.57,5.57,5.543,5.543,5.543,5.543,5.517,5.491,5.491,5.465,5.44,5.44,5.44,5.44,5.44,5.44,5.44,5.44,5.44,5.465,5.465,5.465,5.465,5.491,5.491,5.491,5.465,5.465,5.465,5.465,5.465,5.415,5.415,5.389,5.34,5.34,5.316,5.268,5.268,5.268,5.268,5.268,5.268,5.316,5.316,5.316,5.34,5.389,5.389,5.415,5.44,5.44,5.44,5.465,5.465,5.465,5.44,5.44,5.415,5.415,5.389,5.389,5.34,5.34,5.316,5.316,5.316,5.316,5.316,5.268,5.268,5.268,5.268,5.268,5.244,5.244,5.22,5.22,5.22,5.22,5.174,5.174,5.174,5.174,5.151,5.151,5.151,5.106,5.106,5.106,5.084,5.084,5.04,5.018,5.018,4.996,4.996,4.975,4.975,4.975,4.975,4.996,4.996,4.996,4.996,4.975,4.975,4.975,4.975,4.954,4.954,4.933,4.912,4.912,4.912,4.912,4.933,4.933,4.954,4.975,4.996,5.018,5.084,5.106,5.151,5.151,5.151,5.151,5.106,5.106,5.04,5.04,5.018,5.018,4.996,4.996,4.975,4.975,4.954,4.954,4.933,4.933,4.912,4.912,4.912,4.912,4.891,4.891,4.891,4.891,4.891,4.871,4.871,4.851,4.851,4.851,4.851,4.851,4.851,4.851,4.851,4.851,4.851,4.851,4.851,4.851,4.83,4.83,4.81,4.81,4.771,4.752,4.732,4.694,4.657,4.638,4.601,4.565,4.53,4.53,4.565,4.565,4.565,4.583,4.638,4.638,4.657,4.657,4.657,4.657,4.657,4.638,4.601,4.583,4.583,4.565,4.565,4.565,4.565,4.565,4.583,4.583,4.601,4.638,4.657,4.638,4.638,4.638,4.638,4.657,4.657,4.752,4.851,4.912,5.084,0.0,0.0,0.0,0.0,0.0,7.415,8.327,9.239,9.95,10.036,10.123,10.212,10.212,10.302,10.212,10.212,10.123,9.95,9.701,9.464,9.542,9.464,9.542,9.783,9.783,9.865,9.783,9.701,9.542,9.313,9.239,9.024,8.955,8.819,8.753,8.56,8.497,8.315,8.256,8.198,8.141,8.028,7.973,7.866,7.813,7.322,7.055,6.888,6.729,6.69,6.614,6.54,6.54,6.54,6.54,6.54,6.54,6.54,6.54,6.54,6.577,6.577,6.577,6.577,6.577,6.577,6.577,6.54,6.504,6.467,6.396,6.127,6.032,5.85,5.707,5.624,5.57,5.491,5.389,5.244,5.018,4.954,4.912,4.871,4.851,4.81,4.771,4.732,4.638,4.565,4.477,4.426,4.393,4.36,4.344,4.328,4.328,4.328,4.328,4.328,4.328,4.328,4.344,4.344,4.344,4.344,4.344
5.792,5.679,5.624,5.543,5.3605,5.0657499999999995,4.771,4.46,4.085,3.92,3.855,3.817,3.804,3.804,3.792,3.792,3.792,3.792,3.792,3.792,3.792,3.792,3.792,3.792,3.804,3.804,3.868,0.0,0.0,0.0,0.0,5.268,5.624,5.735,5.763,5.792,5.821,5.909,5.939,6.032,6.095,6.159,6.225,6.259,6.327,6.361,6.396,6.396,6.361,6.361,6.361,6.361,6.361,6.361,6.361,6.361,6.396,6.361,6.396,6.361,6.361,6.361,6.361,6.327,6.327,6.327,6.327,6.327,6.327,6.259,6.259,6.259,6.225,6.225,6.225,6.225,6.259,6.327,6.327,6.396,6.396,6.432,6.467,6.467,6.504,6.504,6.467,6.432,6.432,6.432,6.432,6.396,6.361,6.361,6.361,6.327,6.327,6.259,6.259,6.259,6.225,6.225,6.159,6.127,6.095,6.095,6.032,6.001,5.939,5.939,5.909,5.909,5.909,5.909,5.909,5.939,5.939,6.001,6.032,6.032,6.095,6.095,6.159,6.159,6.225,6.225,6.159,6.159,6.159,6.127,6.127,6.095,6.095,6.032,6.032,6.032,6.001,6.001,6.001,6.001,6.001,6.001,6.001,5.939,5.939,5.939,5.909,5.85,5.821,5.821,5.792,5.792,5.792,5.792,5.792,5.821,5.821,5.821,5.821,5.821,5.821,5.821,5.821,5.821,5.792,5.792,5.792,5.763,5.763,5.735,5.707,5.707,5.707,5.679,5.679,5.679,5.679,5.707,5.707,5.735,5.735,5.735,5.735,5.735,5.735,5.735,5.735,5.735,5.707,5.707,5.679,5.679,5.651,5.651,5.624,5.597,5.57,5.57,5.543,5.517,5.491,5.465,5.415,5.415,5.389,5.389,5.389,5.389,5.389,5.415,5.415,5.44,5.491,5.517,5.517,5.543,5.543,5.57,5.57,5.57,5.57,5.57,5.57,5.543,5.57,5.543,5.543,5.543,5.543,5.543,5.517,5.491,5.491,5.465,5.465,5.465,5.465,5.44,5.44,5.465,5.465,5.465,5.465,5.465,5.465,5.491,5.465,5.465,5.465,5.465,5.465,5.44,5.44,5.44,5.415,5.415,5.389,5.34,5.34,5.316,5.316,5.268,5.268,5.268,5.316,5.316,5.316,5.34,5.34,5.389,5.389,5.415,5.44,5.44,5.44,5.465,5.465,5.465,5.465,5.44,5.415,5.415,5.415,5.389,5.389,5.34,5.34,5.316,5.316,5.316,5.316,5.316,5.268,5.268,5.268,5.268,5.244,5.244,5.244,5.22,5.22,5.22,5.174,5.174,5.151,5.151,5.151,5.151,5.151,5.106,5.106,5.106,5.106,5.084,5.084,5.04,5.018,5.018,5.018,4.996,4.996,4.996,4.996,4.996,4.996,4.996,4.996,4.996,4.975,4.975,4.975,4.954,4.954,4.954,4.933,4.912,4.912,4.912,4.912,4.912,4.954,4.954,4.975,5.018,5.084,5.106,5.151,5.174,5.174,5.174,5.151,5.151,5.106,5.084,5.04,5.018,4.996,4.996,4.996,4.975,4.954,4.954,4.933,4.933,4.912,4.912,4.912,4.912,4.912,4.891,4.891,4.891,4.871,4.851,4.851,4.851,4.851,4.851,4.851,4.851,4.851,4.851,4.851,4.851,4.851,4.851,4.851,4.851,4.851,4.83,4.83,4.83,4.81,4.791,4.752,4.732,4.694,4.657,4.601,4.583,4.53,4.53,4.53,4.53,4.53,4.565,4.583,4.601,4.638,4.657,4.657,4.657,4.657,4.694,4.657,4.657,4.601,4.583,4.583,4.583,4.583,4.601,4.601,4.638,4.638,4.657,4.694,4.713,4.694,4.694,4.694,4.713,4.771,4.81,4.851,4.996,5.316,0.0,0.0,0.0,0.0,7.709,8.028,8.375,8.819,9.313,9.701,9.95,10.036,10.123,10.212,10.212,10.212,10.123,10.036,9.95,9.865,9.783,9.865,9.95,9.95,10.036,10.036,10.123,10.123,10.212,10.036,10.036,9.865,9.783,9.464,9.239,9.166,8.819,8.623,8.436,8.315,8.256,8.198,8.084,8.028,7.973,7.866,7.761,7.322,7.098,6.888,6.768,6.69,6.652,6.614,6.614,6.614,6.577,6.577,6.577,6.577,6.577,6.577,6.577,6.577,6.577,6.577,6.577,6.54,6.54,6.504,6.432,6.361,6.127,6.001,5.85,5.679,5.624,5.543,5.465,5.34,5.22,5.018,4.954,4.912,4.871,4.851,4.81,4.791,4.732,4.657,4.583,4.512,4.46,4.393,4.36,4.344,4.328,4.328,4.328,4.328,4.328,4.328,4.328,4.328,4.344,4.344,4.344,4.36
5.939,5.909,5.763,5.651,5.57,5.2205,4.871,4.657,4.203,3.973,3.88,3.829,3.804,3.804,3.804,3.792,3.792,3.792,3.792,3.792,3.792,3.792,3.792,3.792,3.792,3.792,3.868,0.0,0.0,0.0,0.0,5.084,5.57,5.735,5.763,5.792,5.85,5.939,6.032,6.127,6.225,6.259499999999999,6.327,6.361,6.396,6.432,6.467,6.467,6.467,6.432,6.432,6.432,6.396,6.432,6.396,6.432,6.432,6.432,6.432,6.432,6.396,6.396,6.396,6.361,6.396,6.396,6.361,6.361,6.361,6.327,6.327,6.327,6.259,6.259,6.259,6.259,6.327,6.361,6.361,6.396,6.432,6.467,6.504,6.504,6.504,6.504,6.504,6.504,6.467,6.432,6.432,6.396,6.396,6.396,6.396,6.361,6.327,6.327,6.327,6.259,6.259,6.225,6.159,6.127,6.095,6.032,6.001,5.939,5.909,5.909,5.85,5.909,5.909,5.909,5.939,5.939,6.001,6.032,6.095,6.127,6.127,6.159,6.225,6.259,6.259,6.259,6.225,6.225,6.225,6.159,6.159,6.127,6.127,6.095,6.095,6.095,6.032,6.032,6.032,6.001,6.001,6.001,6.001,5.939,5.939,5.909,5.85,5.85,5.821,5.792,5.763,5.792,5.792,5.792,5.792,5.792,5.792,5.763,5.763,5.763,5.763,5.763,5.763,5.735,5.707,5.707,5.707,5.707,5.679,5.679,5.679,5.679,5.679,5.679,5.679,5.679,5.679,5.679,5.679,5.707,5.707,5.707,5.707,5.735,5.707,5.707,5.707,5.707,5.707,5.679,5.679,5.679,5.651,5.651,5.624,5.597,5.57,5.543,5.543,5.491,5.465,5.44,5.415,5.389,5.389,5.34,5.34,5.34,5.34,5.34,5.389,5.415,5.44,5.465,5.465,5.517,5.517,5.543,5.543,5.543,5.543,5.543,5.543,5.543,5.57,5.543,5.543,5.543,5.543,5.543,5.517,5.517,5.491,5.491,5.491,5.465,5.465,5.465,5.465,5.491,5.491,5.491,5.491,5.491,5.491,5.465,5.465,5.465,5.465,5.465,5.44,5.44,5.44,5.415,5.415,5.389,5.389,5.34,5.34,5.34,5.316,5.316,5.316,5.316,5.316,5.34,5.34,5.389,5.389,5.415,5.415,5.415,5.44,5.44,5.465,5.465,5.465,5.465,5.465,5.44,5.415,5.415,5.415,5.389,5.389,5.34,5.34,5.316,5.316,5.316,5.316,5.268,5.268,5.268,5.268,5.244,5.22,5.22,5.22,5.22,5.174,5.174,5.151,5.151,5.151,5.151,5.106,5.106,5.106,5.106,5.106,5.106,5.084,5.084,5.084,5.04,5.018,5.018,5.018,5.018,5.018,5.018,5.018,4.996,5.018,5.018,5.018,5.018,4.996,4.975,4.975,4.954,4.954,4.954,4.933,4.912,4.912,4.912,4.933,4.933,4.954,4.975,4.996,5.04,5.106,5.151,5.174,5.22,5.22,5.174,5.174,5.151,5.106,5.084,5.084,5.04,5.018,4.996,4.975,4.975,4.954,4.933,4.933,4.912,4.912,4.912,4.912,4.912,4.891,4.891,4.871,4.871,4.851,4.851,4.83,4.83,4.83,4.83,4.83,4.851,4.851,4.851,4.851,4.851,4.851,4.851,4.851,4.851,4.83,4.83,4.83,4.81,4.81,4.771,4.752,4.713,4.694,4.657,4.601,4.583,4.583,4.53,4.565,4.565,4.565,4.583,4.601,4.638,4.657,4.694,4.694,4.694,4.694,4.694,4.694,4.694,4.657,4.638,4.638,4.638,4.638,4.657,4.657,4.657,4.694,4.732,4.732,4.752,4.771,4.791,4.81,4.83,4.891,4.912,5.106,5.27125,5.44,0.0,0.0,6.54,6.768,7.426,8.084,8.256,8.56,9.024,9.464,9.701,9.865,9.95,10.036,10.123,10.036,9.95,9.95,9.865,9.783,9.865,9.865,9.95,10.036,10.123,10.123,10.212,10.212,10.212,10.212,10.123,10.036,9.95,9.865,9.542,9.313,9.024,8.819,8.56,8.436,8.315,8.198,8.141,8.084,8.028,7.973,7.813,7.659,7.231,7.055,6.888,6.808,6.729,6.69,6.69,6.652,6.614,6.614,6.614,6.614,6.577,6.577,6.577,6.577,6.577,6.54,6.54,6.54,6.504,6.467,6.396,6.327,6.127,6.001,5.821,5.679,5.597,5.543,5.44,5.316,5.22,5.018,4.975,4.912,4.891,4.851,4.83,4.791,4.752,4.657,4.583,4.53,4.46,4.41,4.376,4.344,4.328,4.328,4.328,4.328,4.328,4.328,4.328,4.344,4.344,4.344,4.344,4.344
6.127,6.095,5.909,5.763,5.651,5.385125,5.018,4.8055,4.45975,4.114,3.946,3.855,3.817,3.804,3.804,3.804,3.792,3.804,3.792,3.792,3.792,3.792,3.792,3.792,3.792,3.792,3.855,0.0,0.0,0.0,0.0,0.0,5.543,5.735,5.763,5.821,5.909,6.032,6.127,6.176,6.225,6.327,6.396,6.467,6.504,6.54,6.54,6.54,6.54,6.54,6.54,6.504,6.504,6.504,6.467,6.504,6.504,6.504,6.504,6.504,6.467,6.467,6.467,6.467,6.432,6.432,6.432,6.432,6.432,6.396,6.361,6.361,6.361,6.327,6.327,6.327,6.361,6.396,6.396,6.432,6.467,6.467,6.504,6.54,6.54,6.54,6.504,6.504,6.467,6.467,6.467,6.432,6.432,6.396,6.396,6.361,6.361,6.361,6.327,6.327,6.327,6.259,6.159,6.127,6.095,6.095,6.001,5.939,5.909,5.909,5.909,5.909,5.909,5.939,6.001,6.001,6.032,6.095,6.127,6.127,6.159,6.225,6.259,6.259,6.259,6.259,6.259,6.225,6.225,6.225,6.159,6.127,6.127,6.127,6.095,6.095,6.095,6.095,6.032,6.032,6.032,6.032,6.001,5.939,5.909,5.909,5.85,5.821,5.792,5.792,5.792,5.763,5.763,5.763,5.763,5.763,5.763,5.763,5.735,5.735,5.735,5.707,5.707,5.707,5.679,5.679,5.679,5.679,5.679,5.679,5.651,5.679,5.651,5.651,5.651,5.679,5.679,5.679,5.679,5.679,5.679,5.679,5.679,5.679,5.679,5.679,5.679,5.679,5.679,5.679,5.679,5.651,5.651,5.651,5.624,5.597,5.57,5.543,5.543,5.517,5.465,5.44,5.389,5.389,5.34,5.34,5.316,5.316,5.316,5.316,5.316,5.389,5.415,5.415,5.44,5.465,5.491,5.517,5.517,5.543,5.543,5.543,5.543,5.543,5.57,5.543,5.543,5.543,5.543,5.543,5.517,5.517,5.517,5.491,5.491,5.491,5.491,5.491,5.491,5.491,5.491,5.491,5.491,5.491,5.491,5.465,5.465,5.465,5.465,5.44,5.44,5.44,5.44,5.44,5.389,5.389,5.389,5.389,5.34,5.34,5.34,5.34,5.34,5.34,5.34,5.389,5.389,5.389,5.389,5.415,5.415,5.44,5.44,5.465,5.465,5.465,5.465,5.465,5.44,5.415,5.415,5.415,5.389,5.389,5.34,5.34,5.316,5.316,5.316,5.316,5.316,5.268,5.268,5.244,5.244,5.22,5.22,5.174,5.174,5.151,5.151,5.151,5.106,5.106,5.106,5.106,5.106,5.106,5.106,5.106,5.084,5.084,5.084,5.084,5.084,5.04,5.04,5.018,5.018,5.018,5.018,5.018,5.018,5.018,5.04,5.018,5.04,5.018,5.018,4.996,4.975,4.975,4.975,4.954,4.933,4.912,4.912,4.933,4.954,4.954,4.975,4.996,5.04,5.084,5.151,5.174,5.22,5.244,5.244,5.22,5.22,5.151,5.151,5.084,5.084,5.04,5.018,4.996,4.996,4.975,4.954,4.933,4.933,4.912,4.912,4.912,4.891,4.891,4.891,4.871,4.871,4.851,4.851,4.83,4.83,4.83,4.83,4.83,4.83,4.83,4.83,4.851,4.851,4.851,4.851,4.851,4.851,4.83,4.83,4.83,4.83,4.81,4.81,4.791,4.752,4.732,4.713,4.694,4.638,4.601,4.583,4.583,4.583,4.601,4.601,4.638,4.638,4.657,4.694,4.694,4.713,4.713,4.713,4.713,4.713,4.713,4.694,4.694,4.694,4.694,4.694,4.713,4.713,4.732,4.752,4.771,4.81,4.83,4.851,4.871,4.912,4.975,5.084,5.268,5.365,5.543,5.707,0.0,0.0,6.768,7.231,7.484500000000001,7.866,8.141,8.375,8.753,9.166,9.464,9.701,9.865,9.95,9.95,9.865,9.865,9.783,9.701,9.701,9.783,9.783,9.865,9.95,10.036,10.123,10.212,10.212,10.212,10.212,10.212,10.123,10.036,9.95,9.865,9.464,9.239,8.955,8.623,8.497,8.315,8.256,8.141,8.084,8.028,7.973,7.866,7.761,7.368,7.186,6.971,6.888,6.808,6.729,6.729,6.69,6.69,6.652,6.614,6.614,6.577,6.577,6.577,6.577,6.54,6.54,6.54,6.54,6.504,6.467,6.396,6.259,6.095,6.001,5.821,5.679,5.597,5.543,5.44,5.316,5.22,5.018,4.975,4.912,4.891,4.851,4.83,4.791,4.752,4.694,4.583,4.53,4.46,4.41,4.376,4.344,4.344,4.328,4.328,4.328,4.328,4.328,4.344,4.344,4.344,4.36,4.36,4.36
6.225,6.159,6.032,5.909,5.735,5.651,5.543,4.954,4.6601875,4.376,4.056,3.893,3.829,3.817,3.804,3.804,3.804,3.804,3.792,3.792,3.792,3.78,3.78,3.792,3.792,3.792,3.829,3.933,0.0,0.0,0.0,0.0,5.44,5.735,5.763,5.821,5.939,6.095,6.1515,6.225,6.327,6.432,6.504,6.54,6.577,6.577,6.614,6.577,6.577,6.577,6.577,6.54,6.54,6.54,6.54,6.54,6.54,6.54,6.54,6.54,6.54,6.54,6.54,6.504,6.504,6.504,6.504,6.467,6.467,6.467,6.432,6.432,6.396,6.396,6.396,6.396,6.396,6.432,6.432,6.467,6.504,6.504,6.54,6.54,6.54,6.54,6.54,6.54,6.504,6.504,6.467,6.467,6.432,6.432,6.432,6.432,6.396,6.396,6.361,6.361,6.327,6.259,6.225,6.127,6.127,6.095,6.032,6.001,5.939,5.909,5.909,5.909,5.939,6.001,6.032,6.032,6.095,6.095,6.127,6.159,6.159,6.225,6.259,6.259,6.327,6.327,6.327,6.259,6.259,6.259,6.225,6.225,6.159,6.159,6.159,6.159,6.127,6.095,6.095,6.095,6.032,6.032,6.001,5.939,5.909,5.909,5.85,5.821,5.792,5.763,5.763,5.763,5.763,5.763,5.763,5.763,5.735,5.735,5.707,5.707,5.707,5.679,5.679,5.679,5.651,5.651,5.651,5.651,5.651,5.651,5.651,5.651,5.651,5.651,5.651,5.651,5.651,5.651,5.651,5.651,5.651,5.679,5.679,5.679,5.679,5.679,5.679,5.679,5.679,5.651,5.651,5.651,5.651,5.624,5.597,5.597,5.57,5.543,5.543,5.517,5.465,5.44,5.415,5.389,5.34,5.316,5.316,5.316,5.316,5.316,5.316,5.34,5.389,5.415,5.44,5.465,5.491,5.517,5.517,5.543,5.543,5.543,5.543,5.543,5.57,5.543,5.543,5.543,5.543,5.543,5.517,5.517,5.517,5.491,5.491,5.491,5.491,5.491,5.491,5.491,5.491,5.491,5.491,5.491,5.491,5.491,5.491,5.491,5.465,5.465,5.465,5.44,5.44,5.415,5.389,5.389,5.389,5.389,5.389,5.389,5.389,5.389,5.389,5.389,5.389,5.389,5.389,5.415,5.415,5.415,5.415,5.44,5.44,5.44,5.44,5.44,5.44,5.44,5.415,5.415,5.389,5.389,5.34,5.34,5.316,5.316,5.316,5.316,5.316,5.316,5.316,5.268,5.268,5.244,5.22,5.22,5.174,5.174,5.151,5.151,5.106,5.106,5.084,5.084,5.084,5.084,5.04,5.04,5.04,5.04,5.04,5.04,5.04,5.04,5.04,5.04,5.018,5.018,5.018,5.018,5.018,5.018,5.018,5.018,5.04,5.04,5.04,5.04,5.018,4.996,4.996,4.975,4.975,4.954,4.933,4.933,4.933,4.954,4.954,4.975,4.996,5.018,5.084,5.106,5.174,5.22,5.244,5.244,5.268,5.244,5.22,5.174,5.151,5.106,5.084,5.04,5.018,5.018,4.996,4.975,4.975,4.954,4.954,4.933,4.912,4.912,4.912,4.891,4.891,4.891,4.851,4.851,4.851,4.83,4.83,4.83,4.83,4.83,4.83,4.83,4.851,4.83,4.851,4.851,4.851,4.851,4.851,4.851,4.851,4.83,4.83,4.83,4.81,4.791,4.771,4.771,4.752,4.713,4.694,4.657,4.638,4.638,4.638,4.657,4.638,4.657,4.657,4.694,4.694,4.713,4.713,4.713,4.732,4.732,4.732,4.752,4.732,4.732,4.732,4.752,4.752,4.752,4.771,4.771,4.81,4.83,4.851,4.891,4.933,4.996,5.084,5.22,5.308999999999999,5.415,5.543,5.679,6.001,6.432,6.614,6.888,7.214,7.415,7.866,8.084,8.256,8.497,8.753,9.024,9.239,9.464,9.542,9.542,9.542,9.542,9.464,9.464,9.464,9.542,9.542,9.701,9.783,9.95,10.036,10.123,10.212,10.212,10.212,10.212,10.123,10.036,10.036,9.865,9.542,9.239,9.024,8.753,8.497,8.436,8.256,8.198,8.084,8.028,7.919,7.813,7.709,7.368,7.186,7.055,6.888,6.808,6.768,6.729,6.69,6.69,6.652,6.614,6.614,6.577,6.577,6.577,6.54,6.54,6.504,6.504,6.504,6.432,6.396,6.361,6.159,6.095,5.939,5.821,5.679,5.597,5.543,5.44,5.34,5.244,5.151,4.975,4.933,4.891,4.851,4.83,4.791,4.732,4.694,4.583,4.53,4.46,4.41,4.376,4.36,4.344,4.344,4.328,4.328,4.344,4.344,4.344,4.36,4.36,4.36,4.36,4.36
6.225,6.225,6.127,6.001,5.821,5.707,5.597,5.151,4.851,0.0,0.0,3.946,3.855,3.817,3.817,3.804,3.804,3.804,3.804,3.792,3.792,3.78,3.78,3.78,3.78,3.792,3.817,3.868,0.0,0.0,0.0,0.0,5.22,5.679,5.792,5.85,6.032,6.0954999999999995,6.159,6.259,6.396,6.504,6.54,6.577,6.614,6.614,6.652,6.614,6.614,6.614,6.614,6.577,6.577,6.577,6.577,6.577,6.577,6.577,6.577,6.577,6.577,6.577,6.577,6.54,6.54,6.54,6.54,6.54,6.54,6.54,6.504,6.504,6.467,6.432,6.432,6.432,6.467,6.467,6.504,6.504,6.54,6.54,6.54,6.54,6.54,6.54,6.54,6.54,6.54,6.54,6.504,6.504,6.467,6.467,6.467,6.432,6.432,6.432,6.396,6.361,6.361,6.327,6.259,6.225,6.159,6.095,6.095,6.001,6.001,5.939,5.939,5.939,6.001,6.001,6.032,6.032,6.095,6.127,6.127,6.159,6.159,6.225,6.259,6.259,6.327,6.327,6.327,6.327,6.327,6.327,6.259,6.225,6.225,6.225,6.225,6.159,6.159,6.127,6.127,6.095,6.032,6.032,6.001,5.939,5.909,5.85,5.85,5.792,5.792,5.763,5.763,5.735,5.735,5.735,5.735,5.735,5.735,5.735,5.707,5.679,5.679,5.679,5.679,5.651,5.651,5.651,5.651,5.651,5.651,5.624,5.637499999999999,5.651,5.651,5.651,5.651,5.651,5.651,5.651,5.651,5.651,5.651,5.651,5.651,5.651,5.651,5.651,5.651,5.651,5.651,5.651,5.651,5.651,5.624,5.624,5.597,5.597,5.57,5.57,5.543,5.517,5.491,5.465,5.44,5.415,5.389,5.34,5.34,5.316,5.316,5.34,5.34,5.389,5.389,5.415,5.44,5.465,5.491,5.491,5.491,5.517,5.543,5.543,5.543,5.543,5.543,5.543,5.543,5.543,5.543,5.543,5.543,5.517,5.517,5.491,5.491,5.491,5.491,5.491,5.491,5.491,5.491,5.491,5.491,5.491,5.491,5.491,5.491,5.491,5.465,5.465,5.465,5.44,5.44,5.415,5.415,5.389,5.389,5.415,5.415,5.389,5.389,5.389,5.389,5.389,5.389,5.415,5.415,5.415,5.415,5.415,5.415,5.415,5.415,5.44,5.44,5.44,5.44,5.415,5.415,5.389,5.34,5.34,5.34,5.316,5.316,5.316,5.316,5.316,5.316,5.316,5.316,5.268,5.244,5.22,5.22,5.174,5.174,5.151,5.106,5.106,5.106,5.084,5.04,5.04,5.04,5.04,5.04,5.04,5.04,5.04,5.04,5.04,5.04,5.018,5.018,5.018,5.018,5.018,4.996,4.996,4.996,5.018,5.018,5.018,5.04,5.04,5.04,5.04,5.018,4.996,4.996,4.996,4.996,4.954,4.954,4.954,4.954,4.954,4.975,4.996,5.018,5.04,5.106,5.151,5.22,5.244,5.268,5.268,5.268,5.268,5.244,5.22,5.174,5.151,5.106,5.084,5.04,5.04,5.018,5.018,4.996,4.975,4.954,4.933,4.912,4.912,4.912,4.912,4.891,4.891,4.871,4.871,4.851,4.851,4.851,4.83,4.83,4.83,4.83,4.851,4.851,4.851,4.851,4.851,4.851,4.851,4.851,4.851,4.851,4.851,4.851,4.83,4.83,4.81,4.81,4.791,4.791,4.752,4.732,4.732,4.713,4.694,4.694,4.713,4.694,4.694,4.694,4.713,4.713,4.713,4.732,4.732,4.732,4.752,4.752,4.752,4.752,4.752,4.771,4.771,4.771,4.791,4.791,4.81,4.83,4.871,4.912,4.975,5.084,5.22,5.2772499999999996,5.34,5.517,5.597,5.726,5.97225,6.259,6.577,6.729,6.929,7.322,7.5415,7.761,7.973,8.084,8.256,8.375,8.623,8.753,9.024,9.166,9.239,9.166,9.166,9.166,9.166,9.166,9.313,9.313,9.464,9.701,9.783,9.95,10.036,10.123,10.212,10.123,10.123,10.036,10.036,9.95,9.95,9.542,9.313,9.166,8.955,8.56,8.436,8.315,8.198,8.084,8.028,7.919,7.761,7.659,7.322,7.098,6.971,6.888,6.808,6.768,6.729,6.729,6.69,6.69,6.614,6.614,6.577,6.577,6.54,6.54,6.467,6.467,6.432,6.432,6.396,6.361,6.159,6.127,6.001,5.909,5.792,5.679,5.597,5.543,5.465,5.34,5.244,5.151,4.975,4.912,4.891,4.851,4.81,4.791,4.732,4.657,4.583,4.512,4.46,4.41,4.393,4.36,4.344,4.344,4.344,4.344,4.344,4.36,4.36,4.36,4.376,4.376,4.376,4.376
