3.78,3.792,3.804,3.817,3.817,3.829,3.829,3.842,3.855,3.855,3.868,3.88,3.893,3.906,3.92,3.946,3.973,3.987,3.987,4.014,4.014,4.028,4.028,4.028,4.028,4.056,4.056,4.07,4.085,4.085,4.085,4.114,4.128,4.128,4.128,4.128,4.158,4.158,4.173,4.188,4.188,4.203,4.203,4.218,4.218,4.218,4.233,4.233,4.249,4.249,4.264,4.264,4.28,4.28,4.28,4.312,4.312,4.328,4.344,4.376,4.41,4.477,4.583,4.694,4.81,4.891,5.018,5.1735,5.34,5.57,5.735,5.909,5.909,5.85,5.763,5.6005,5.415,5.151,4.954,4.891,4.851,4.81,4.732,4.657,4.583,4.583,4.565,4.565,4.565,4.583,4.583,4.638,4.657,4.732,4.771,4.81,4.83,4.851,4.891,4.912,4.912,4.912,4.912,4.912,4.891,4.891,4.891,4.871,4.851,4.851,4.851,4.851,4.83,4.83,4.83,4.81,4.81,4.81,4.791,4.791,4.771,4.752,4.732,4.713,4.694,4.638,4.601,4.583,4.477,4.41,4.36,4.328,4.312,4.28,4.249,4.218,0.0,0.0,0.0,0.0,0.0,0.0,0.0,0.0,0.0,0.0,0.0,0.0,0.876,0.878,0.8795,0.881,0.885,0.889,0.894,0.896,0.898,0.898,0.899,0.9,0.9,0.9,0.9,0.9,0.9,0.9,0.9,0.9,0.9,0.9,0.9,0.9,0.9,0.899,0.898,0.897,0.896,0.895,0.895,0.894,0.888,0.888,0.885,0.882,0.881,0.881,0.879,0.878,0.878,0.878,0.877,0.878,0.877,0.877,0.877,0.877,0.876,0.875,0.874,0.873,0.872,0.87,0.869,0.867,0.867,0.868,0.867,0.867,0.867,0.865,0.86,0.858,0.855,0.853,0.849,0.8537499999999999,0.855,0.854,0.853,0.852,0.851,0.851,0.85,0.85,0.85,0.85,0.85,0.85,0.851,0.849,0.849,0.849,0.847,0.845,0.845,0.844,0.841,0.0,0.0,0.0,0.0,0.0,0.0,0.0,0.0,0.0,0.0,0.0,0.0,0.0,0.0,0.0,0.0,0.0,0.0,0.0,0.0,0.0,0.0,0.0,0.0,0.417,0.417,0.416,0.416,0.416,0.415,0.415,0.415,0.414,0.413,0.412,0.411,0.411,0.411,0.41,0.41,0.41,0.409,0.409,0.409,0.409,0.409,0.409,0.409,0.409,0.409,0.408,0.408,0.407,0.407,0.407,0.407,0.407,0.407,0.407,0.406,0.406,0.406,0.406,0.406,0.406,0.406,0.406,0.406,0.407,0.407,0.406,0.406,0.406,0.406,0.406,0.406,0.406,0.406,0.405,0.405,0.404,0.404,0.404,0.403,0.403,0.403,0.403,0.402,0.402,0.402,0.402,0.402,0.402,0.402,0.402,0.402,0.402,0.402,0.402,0.402,0.401,0.401,0.401,0.401,0.401,0.401,0.401,0.401,0.4,0.4,0.4,0.4,0.4,0.399,0.399,0.399,0.399,0.399,0.398,0.398,0.398,0.398,0.398,0.398,0.398,0.397,0.397,0.397,0.397,0.397,0.397,0.397,0.396,0.396,0.396,0.396,0.396,0.396,0.396,0.396,0.396,0.396,0.396,0.396,0.3965,0.397,0.397,0.397,0.397,0.397,0.3975000000000001,0.398,0.398,0.398,0.399,0.399,0.399,0.4,0.401,0.401,0.402,0.402,0.402,0.402,0.403,0.403,0.404,0.404,0.404,0.405,0.405,0.405,0.406,0.406,0.406,0.406,0.406,0.406,0.406,0.406,0.406,0.407,0.407,0.407,0.407,0.407,0.407,0.408,0.408,0.408,0.409,0.409,0.409,0.409,0.409,0.409,0.41,0.41,0.411,0.411,0.411,0.411,0.411,0.411,0.412,0.412,0.412,0.412,0.412,0.413,0.413,0.413,0.414,0.414,0.414,0.415,0.415,0.415,0.415,0.415,0.416,0.416,0.416,0.416,0.417,0.417,0.417,0.418,0.418,0.4185,0.419,0.419,0.419,0.42,0.42,0.4195,0.41962499999999997,0.42,0.42,0.42,0.42,0.42,0.42,0.421,0.421,0.421,0.421,0.421,0.421,0.421,0.421,0.421,0.421,0.421,0.421,0.421,0.422,0.422,0.422,0.422,0.422,0.422,0.423,0.423,0.424,0.424,0.424,0.425,0.425,0.425,0.425,0.426,0.426,0.426,0.426,0.426,0.426,0.426,0.427,0.0,0.0,0.0,0.0,0.0,0.0,0.0,0.0,0.0,0.0,0.0,0.0,0.0,0.0,0.0,0.0,0.0,0.0,0.0,0.0,0.0,0.0,0.0,0.0,0.0,0.0,0.0,0.0,0.0
3.78,3.792,3.804,3.817,3.817,3.829,3.829,3.842,3.855,3.868,3.868,3.88,3.893,3.92,3.946,3.973,3.987,4.014,4.028,4.028,4.028,4.028,4.056,4.028,4.028,4.056,4.056,4.056,4.07,4.085,4.085,4.114,4.114,4.128,4.128,4.128,4.158,4.158,4.173,4.173,4.188,4.188,4.188,4.203,4.203,4.218,4.218,4.233,4.249,4.249,4.249,4.264,4.264,4.28,4.28,4.296,4.312,4.312,4.328,4.344,4.36,4.41,4.477,4.565,4.694,4.81,4.891,4.996,5.179,5.384,5.543,5.597,5.624,5.597,5.57,5.389,5.174,4.996,4.891,4.851,4.81,4.771,4.713,4.601,4.583,4.565,4.53,4.53,4.53,4.565,4.565,4.583,4.601,4.657,4.713,4.732,4.771,4.791,4.81,4.83,4.83,4.83,4.83,4.83,4.83,4.83,4.83,4.83,4.83,4.83,4.81,4.81,4.81,4.81,4.791,4.791,4.771,4.771,4.752,4.752,4.732,4.732,4.713,4.694,4.657,4.638,4.583,4.565,4.46,4.41,4.376,0.0,0.0,0.0,0.0,0.0,0.0,0.0,0.0,0.0,0.0,0.0,0.0,0.0,0.0,0.858,0.862,0.867,0.871,0.875,0.877,0.879,0.88025,0.881,0.883,0.887,0.889,0.891,0.893,0.893,0.893,0.891,0.891,0.891,0.891,0.891,0.891,0.893,0.893,0.893,0.894,0.895,0.893,0.893,0.886,0.885,0.882,0.881,0.88,0.878,0.877,0.877,0.876,0.875,0.873,0.872,0.87,0.868,0.867,0.867,0.866,0.866,0.865,0.864,0.8644999999999999,0.863,0.862,0.861,0.861,0.861,0.861,0.861,0.862,0.862,0.862,0.862,0.86,0.858,0.857,0.855,0.853,0.848,0.841,0.838,0.836,0.835,0.833,0.83,0.839,0.839,0.838,0.839,0.839,0.839,0.839,0.838,0.838,0.839,0.839,0.838,0.838,0.838,0.836,0.8335,0.834,0.834,0.832,0.0,0.0,0.0,0.0,0.0,0.0,0.0,0.0,0.0,0.0,0.0,0.0,0.0,0.0,0.0,0.0,0.0,0.0,0.0,0.0,0.0,0.0,0.0,0.418,0.418,0.417,0.417,0.416,0.416,0.415,0.415,0.414,0.413,0.412,0.411,0.411,0.41,0.41,0.409,0.409,0.409,0.408,0.408,0.408,0.408,0.408,0.408,0.408,0.408,0.407,0.407,0.407,0.407,0.4065,0.40637500000000004,0.406,0.406,0.406,0.406,0.406,0.406,0.406,0.406,0.406,0.406,0.406,0.406,0.406,0.406,0.406,0.406,0.406,0.406,0.406,0.406,0.406,0.406,0.405,0.405,0.404,0.404,0.404,0.403,0.403,0.403,0.402,0.402,0.402,0.402,0.402,0.402,0.402,0.402,0.402,0.402,0.402,0.402,0.402,0.402,0.402,0.401,0.401,0.401,0.401,0.4,0.4,0.4,0.4,0.4,0.4,0.399,0.399,0.399,0.399,0.399,0.399,0.398,0.398,0.398,0.398,0.398,0.398,0.397,0.397,0.397,0.397,0.397,0.397,0.397,0.396,0.396,0.396,0.395,0.395,0.395,0.395,0.395,0.395,0.395,0.395,0.395,0.395,0.396,0.396,0.396,0.396,0.396,0.3965,0.397,0.397,0.397,0.397,0.3975000000000001,0.398,0.398,0.398,0.398,0.399,0.399,0.4,0.401,0.401,0.401,0.402,0.402,0.402,0.403,0.403,0.403,0.404,0.404,0.404,0.405,0.405,0.405,0.406,0.406,0.406,0.406,0.406,0.406,0.406,0.406,0.407,0.407,0.407,0.407,0.407,0.407,0.407,0.408,0.408,0.408,0.408,0.408,0.409,0.409,0.409,0.41,0.41,0.411,0.411,0.411,0.411,0.411,0.411,0.412,0.412,0.412,0.412,0.412,0.413,0.413,0.413,0.414,0.414,0.414,0.415,0.415,0.415,0.415,0.415,0.416,0.416,0.416,0.416,0.417,0.417,0.417,0.418,0.418,0.418,0.419,0.418,0.419,0.419,0.419,0.42,0.42,0.42,0.42,0.42,0.42,0.42,0.42,0.42,0.421,0.421,0.421,0.421,0.421,0.421,0.421,0.421,0.421,0.421,0.421,0.421,0.422,0.422,0.422,0.422,0.422,0.423,0.423,0.424,0.424,0.425,0.425,0.425,0.425,0.425,0.425,0.426,0.426,0.426,0.426,0.426,0.426,0.0,0.0,0.0,0.0,0.0,0.0,0.0,0.0,0.0,0.0,0.0,0.0,0.0,0.0,0.0,0.0,0.0,0.0,0.0,0.0,0.0,0.0,0.0,0.0,0.0,0.0,0.0,0.0,0.0
3.767,3.792,3.804,3.804,3.817,3.829,3.829,3.842,3.855,3.868,3.868,3.88,3.906,3.933,3.946,3.973,4.014,4.014,4.028,4.056,4.056,4.056,4.056,4.028,4.028,4.056,4.056,4.056,4.07,4.085,4.085,4.085,4.114,4.128,4.128,4.128,4.158,4.158,4.173,4.173,4.188,4.188,4.188,4.203,4.203,4.203,4.218,4.233,4.233,4.249,4.249,4.264,4.264,4.28,4.28,4.28,4.296,4.312,4.312,4.328,4.328,4.36,4.41,4.477,4.583,4.713,4.791,4.891,5.018,5.244,5.293,5.389,5.389,5.316,5.244,5.106,4.996,4.891,4.83,4.81,4.771,4.732,4.694,4.583,4.565,4.53,4.53,4.512,4.512,4.53,4.53,4.565,4.565,4.583,4.601,4.657,4.694,4.713,4.732,4.732,4.752,4.771,4.771,4.791,4.791,4.791,4.791,4.791,4.791,4.791,4.791,4.771,4.771,4.771,4.752,4.752,4.752,4.732,4.732,4.713,4.713,4.694,4.657,4.638,4.601,4.601,4.565,0.0,0.0,0.0,0.0,0.0,0.0,0.0,0.0,0.0,0.0,0.0,0.0,0.0,0.0,0.849,0.852,0.853,0.855,0.856,0.858,0.86,0.866,0.868,0.872,0.875,0.876,0.87575,0.878,0.879,0.879,0.879,0.879,0.879,0.879,0.878,0.878,0.878,0.878,0.878,0.878,0.878,0.878,0.879,0.879,0.8815,0.880125,0.878,0.877,0.877,0.876,0.875,0.873,0.869,0.867,0.863,0.861,0.859,0.858,0.856,0.856,0.856,0.856,0.855,0.855,0.853,0.8525,0.853,0.854,0.853,0.853,0.854,0.855,0.855,0.856,0.857,0.857,0.857,0.857,0.855,0.855,0.852,0.848,0.842,0.838,0.836,0.829,0.826,0.824,0.822,0.822,0.822,0.821,0.822,0.832,0.833,0.834,0.835,0.834,0.834,0.833,0.833,0.83,0.83,0.827,0.824,0.821,0.819,0.819,0.818,0.0,0.0,0.0,0.0,0.0,0.0,0.0,0.0,0.0,0.0,0.0,0.0,0.0,0.0,0.0,0.0,0.0,0.0,0.0,0.0,0.0,0.0,0.42,0.42,0.42,0.419,0.418,0.417,0.417,0.416,0.415,0.415,0.414,0.413,0.412,0.411,0.41,0.41,0.409,0.409,0.408,0.408,0.407,0.407,0.407,0.407,0.407,0.407,0.407,0.407,0.407,0.406,0.406,0.406,0.406,0.406,0.406,0.406,0.405,0.406,0.405,0.405,0.406,0.406,0.406,0.406,0.406,0.406,0.406,0.406,0.406,0.406,0.406,0.406,0.406,0.406,0.405,0.405,0.404,0.404,0.404,0.403,0.403,0.403,0.402,0.402,0.402,0.402,0.402,0.402,0.402,0.402,0.402,0.402,0.402,0.402,0.402,0.402,0.402,0.401,0.401,0.401,0.401,0.4,0.4,0.4,0.4,0.4,0.4,0.399,0.399,0.399,0.399,0.399,0.399,0.398,0.398,0.398,0.398,0.398,0.398,0.397,0.397,0.397,0.397,0.397,0.397,0.397,0.396,0.396,0.396,0.395,0.395,0.395,0.395,0.395,0.395,0.394,0.394,0.394,0.394,0.395,0.395,0.395,0.395,0.395,0.395,0.396,0.396,0.397,0.397,0.397,0.397,0.397,0.3975,0.3975,0.397625,0.398,0.398,0.3985,0.399,0.399,0.4,0.401,0.401,0.402,0.402,0.402,0.402,0.403,0.403,0.404,0.404,0.404,0.405,0.405,0.405,0.405,0.405,0.406,0.406,0.406,0.406,0.406,0.406,0.406,0.406,0.406,0.407,0.407,0.407,0.407,0.407,0.407,0.407,0.408,0.408,0.408,0.409,0.409,0.41,0.41,0.41,0.411,0.411,0.411,0.411,0.411,0.411,0.412,0.412,0.412,0.412,0.412,0.413,0.413,0.414,0.414,0.414,0.414,0.415,0.415,0.415,0.415,0.416,0.416,0.416,0.416,0.417,0.417,0.417,0.417,0.418,0.418,0.418,0.418,0.418,0.418,0.419,0.419,0.419,0.42,0.42,0.42,0.42,0.42,0.42,0.42,0.42,0.42,0.421,0.421,0.421,0.421,0.421,0.421,0.421,0.421,0.421,0.421,0.422,0.422,0.422,0.422,0.422,0.423,0.423,0.424,0.424,0.425,0.425,0.425,0.425,0.425,0.425,0.425,0.425,0.425,0.425,0.425,0.0,0.0,0.0,0.0,0.0,0.0,0.0,0.0,0.0,0.0,0.0,0.0,0.0,0.0,0.0,0.0,0.0,0.0,0.0,0.0,0.0,0.0,0.0,0.0,0.0,0.0,0.0,0.0,0.0
3.767,3.78,3.804,3.804,3.817,3.817,3.829,3.842,3.855,3.868,3.868,3.88,3.906,3.933,3.946,3.987,4.014,4.028,4.028,4.056,4.056,4.056,4.056,4.028,4.028,4.028,4.028,4.056,4.056,4.07,4.085,4.085,4.114,4.128,4.128,4.128,4.158,4.158,4.158,4.173,4.173,4.188,4.188,4.188,4.188,4.203,4.203,4.218,4.233,4.233,4.249,4.249,4.264,4.264,4.28,4.28,4.296,4.312,4.312,4.328,4.328,4.344,4.393,4.46,4.53,4.601,4.713,4.81,4.891,4.933,4.996,5.018,5.018,4.996,4.975,4.912,4.891,4.83,4.791,4.771,4.752,4.713,4.583,4.565,4.53,4.512,4.512,4.477,4.477,4.512,4.512,4.512,4.53,4.53,4.565,4.565,4.583,4.601,4.601,4.638,4.638,4.657,4.694,4.713,4.713,4.732,4.732,4.732,4.752,4.752,4.752,4.732,4.732,4.732,4.732,4.732,4.713,4.694,4.694,4.657,4.638,4.601,4.601,4.583,4.565,0.0,0.0,0.0,0.0,0.0,0.0,0.0,0.0,0.0,0.0,0.0,0.0,0.0,0.84,0.841,0.843,0.845,0.847,0.848,0.852,0.853,0.855,0.857,0.858,0.86,0.862,0.865,0.867,0.868,0.871,0.871,0.871,0.871,0.872,0.871,0.8692500000000001,0.869,0.868,0.867,0.867,0.867,0.867,0.867,0.867,0.867,0.869,0.868,0.868,0.867,0.864,0.862,0.861,0.859,0.857,0.855,0.853,0.853,0.851,0.848,0.847,0.845,0.845,0.843,0.842,0.841,0.841,0.84,0.839,0.839,0.839,0.839,0.84,0.841,0.843,0.847,0.851,0.853,0.855,0.855,0.855,0.853,0.851,0.844,0.841,0.826,0.822,0.819,0.818,0.817,0.816,0.816,0.816,0.817,0.817,0.817,0.818,0.817,0.817,0.824,0.823,0.822,0.82,0.82,0.819,0.818,0.816,0.815,0.811,0.81,0.809,0.806,0.0,0.0,0.0,0.0,0.0,0.0,0.0,0.0,0.0,0.0,0.0,0.0,0.0,0.0,0.0,0.0,0.0,0.0,0.0,0.0,0.0,0.0,0.421,0.42,0.42,0.42,0.418,0.417,0.417,0.416,0.416,0.415,0.414,0.413,0.412,0.411,0.41,0.409,0.408,0.408,0.407,0.407,0.407,0.407,0.407,0.407,0.407,0.407,0.407,0.406,0.406,0.406,0.406,0.406,0.405,0.405,0.405,0.405,0.405,0.405,0.405,0.405,0.405,0.405,0.405,0.406,0.406,0.406,0.406,0.406,0.406,0.406,0.406,0.406,0.406,0.405,0.404,0.404,0.404,0.403,0.403,0.403,0.403,0.402,0.402,0.402,0.402,0.402,0.402,0.402,0.402,0.402,0.402,0.402,0.402,0.402,0.401,0.401,0.401,0.401,0.401,0.401,0.4,0.4,0.4,0.4,0.399,0.399,0.399,0.399,0.399,0.399,0.399,0.398,0.398,0.398,0.398,0.398,0.398,0.398,0.397,0.397,0.397,0.397,0.397,0.397,0.397,0.396,0.396,0.396,0.395,0.395,0.394,0.394,0.394,0.394,0.394,0.394,0.394,0.394,0.394,0.394,0.394,0.394,0.394,0.395,0.395,0.395,0.395,0.396,0.396,0.396,0.396,0.397,0.397,0.397,0.397,0.397,0.398,0.398,0.398,0.3985,0.399,0.399,0.4,0.401,0.402,0.402,0.402,0.402,0.403,0.403,0.403,0.404,0.404,0.404,0.404,0.404,0.405,0.405,0.405,0.405,0.406,0.406,0.406,0.406,0.406,0.406,0.406,0.406,0.407,0.407,0.407,0.407,0.407,0.407,0.407,0.408,0.408,0.409,0.409,0.41,0.41,0.411,0.411,0.411,0.411,0.411,0.411,0.411,0.411,0.412,0.412,0.412,0.412,0.413,0.413,0.413,0.414,0.414,0.415,0.415,0.415,0.415,0.415,0.416,0.416,0.416,0.416,0.416,0.417,0.417,0.417,0.417,0.417,0.417,0.418,0.418,0.418,0.419,0.419,0.419,0.419,0.42,0.42,0.42,0.42,0.42,0.42,0.42,0.421,0.421,0.421,0.421,0.421,0.421,0.421,0.421,0.421,0.421,0.422,0.422,0.422,0.422,0.422,0.423,0.423,0.424,0.424,0.424,0.425,0.425,0.425,0.425,0.425,0.425,0.425,0.425,0.425,0.425,0.0,0.0,0.0,0.0,0.0,0.0,0.0,0.0,0.0,0.0,0.0,0.0,0.0,0.0,0.0,0.0,0.0,0.0,0.0,0.0,0.0,0.0,0.0,0.0,0.0,0.0,0.0,0.0,0.0
3.755,3.78,3.792,3.804,3.817,3.817,3.829,3.842,3.855,3.868,3.868,3.893,3.906,3.933,3.946,3.987,4.014,4.028,4.028,4.056,4.056,4.028,4.028,4.028,4.028,4.014,4.028,4.056,4.056,4.07,4.085,4.085,4.114,4.128,4.128,4.128,4.158,4.158,4.158,4.173,4.173,4.188,4.188,4.188,4.188,4.188,4.203,4.218,4.218,4.233,4.249,4.249,4.264,4.264,4.28,4.28,4.296,4.312,4.312,4.312,4.328,4.344,4.393,4.426,4.512,4.565,4.638,4.752,4.83,4.851,4.891,4.891,4.891,4.891,4.871,4.851,4.83,4.791,4.732,4.732,4.694,4.657,4.565,4.512,4.477,4.477,4.46,4.46,4.46,4.46,4.46,4.46,4.46,4.46,4.477,4.477,4.512,4.512,4.53,4.53,4.565,4.565,4.601,4.601,4.638,4.657,4.657,4.694,4.713,4.713,4.713,4.713,4.713,4.713,4.713,4.694,4.694,4.657,4.638,4.601,4.583,4.565,4.565,4.53,0.0,0.0,0.0,0.0,0.0,0.0,0.0,0.0,0.0,0.0,0.0,0.0,0.837,0.8374999999999999,0.838,0.838,0.84,0.842,0.84325,0.845,0.847,0.85,0.852,0.853,0.855,0.855,0.856,0.857,0.857,0.858,0.859,0.859,0.859,0.859,0.859,0.858,0.858,0.857,0.857,0.856,0.856,0.856,0.855,0.855,0.855,0.856,0.855,0.855,0.855,0.852,0.851,0.851,0.847,0.845,0.843,0.842,0.84,0.839,0.838,0.836,0.836,0.836,0.836,0.8325,0.8316250000000001,0.833,0.832,0.83,0.83,0.83,0.83,0.83,0.832,0.833,0.835,0.836,0.837,0.843,0.849,0.851,0.852,0.85,0.0,0.8265,0.818,0.816,0.815,0.814,0.812,0.81,0.809,0.809,0.81,0.811,0.811,0.811,0.811,0.81,0.809,0.808,0.806,0.803,0.802,0.811,0.809,0.806,0.804,0.801,0.801,0.801,0.801,0.8,0.8,0.0,0.0,0.0,0.0,0.0,0.0,0.0,0.0,0.0,0.0,0.0,0.0,0.0,0.0,0.0,0.0,0.0,0.0,0.0,0.421,0.421,0.42,0.42,0.42,0.42,0.418,0.417,0.417,0.416,0.416,0.415,0.414,0.413,0.412,0.411,0.41,0.409,0.408,0.407,0.407,0.407,0.407,0.407,0.406,0.406,0.406,0.406,0.406,0.406,0.406,0.406,0.405,0.405,0.405,0.404,0.404,0.404,0.404,0.404,0.404,0.4045,0.405,0.405,0.405,0.405,0.405,0.406,0.406,0.406,0.406,0.406,0.405,0.404,0.404,0.404,0.404,0.403,0.403,0.403,0.403,0.402,0.402,0.402,0.402,0.402,0.402,0.402,0.402,0.401,0.401,0.401,0.401,0.401,0.401,0.401,0.401,0.401,0.401,0.401,0.401,0.4,0.4,0.4,0.399,0.399,0.399,0.399,0.399,0.399,0.399,0.399,0.398,0.398,0.398,0.398,0.398,0.398,0.398,0.397,0.397,0.397,0.397,0.397,0.397,0.396,0.396,0.396,0.396,0.395,0.395,0.394,0.394,0.394,0.394,0.394,0.394,0.394,0.394,0.394,0.394,0.394,0.394,0.394,0.394,0.394,0.394,0.395,0.395,0.395,0.396,0.395,0.396,0.396,0.396,0.397,0.397,0.397,0.397,0.398,0.398,0.398,0.3985,0.399,0.399,0.4,0.401,0.401,0.402,0.402,0.402,0.403,0.403,0.403,0.404,0.404,0.404,0.404,0.404,0.404,0.405,0.405,0.405,0.405,0.405,0.406,0.406,0.406,0.406,0.406,0.406,0.406,0.406,0.407,0.407,0.407,0.407,0.407,0.407,0.408,0.409,0.409,0.41,0.41,0.411,0.411,0.411,0.411,0.411,0.411,0.411,0.411,0.412,0.412,0.412,0.412,0.413,0.413,0.414,0.414,0.414,0.415,0.415,0.415,0.415,0.415,0.416,0.416,0.416,0.416,0.416,0.416,0.416,0.416,0.417,0.417,0.417,0.417,0.418,0.418,0.419,0.419,0.419,0.42,0.42,0.42,0.42,0.42,0.42,0.42,0.42,0.421,0.421,0.421,0.421,0.421,0.421,0.421,0.421,0.421,0.422,0.422,0.422,0.422,0.422,0.423,0.423,0.423,0.424,0.424,0.424,0.424,0.425,0.425,0.425,0.425,0.425,0.425,0.425,0.425,0.0,0.0,0.0,0.0,0.0,0.0,0.0,0.0,0.0,0.0,0.0,0.0,0.0,0.0,0.0,0.0,0.0,0.0,0.0,0.0,0.0,0.0,0.0,0.0,0.0,0.0,0.0,0.0,0.0
3.755,3.767,3.78,3.804,3.804,3.817,3.829,3.842,3.855,3.868,3.868,3.893,3.906,3.933,3.946,3.973,4.014,4.028,4.028,4.056,4.028,4.028,4.014,4.014,4.014,4.014,4.014,4.028,4.056,4.056,4.085,4.085,4.114,4.128,4.128,4.158,4.158,4.158,4.173,4.173,4.173,4.188,4.188,4.188,4.188,4.188,4.203,4.203,4.218,4.233,4.249,4.249,4.264,4.264,4.28,4.28,4.296,4.312,4.312,4.312,4.328,4.344,4.376,4.41,4.46,4.512,4.583,4.638,4.732,4.771,4.81,4.81,4.81,4.81,4.81,4.791,4.771,4.732,4.694,4.657,4.601,4.53,4.512,4.477,4.46,4.426,4.426,4.41,4.41,4.41,4.41,4.41,4.41,4.41,4.41,4.41,4.41,4.426,4.426,4.46,4.46,4.512,4.512,4.53,4.565,4.583,4.601,4.638,4.657,4.657,4.657,4.657,4.657,4.657,4.657,4.657,4.638,4.601,4.583,0.0,0.0,0.0,0.0,0.0,0.0,0.0,0.0,0.0,0.0,0.0,0.0,0.0,0.0,0.0,0.828,0.832,0.833,0.835,0.835,0.836,0.838,0.838,0.839,0.841,0.841,0.843,0.843,0.845,0.8462500000000001,0.847,0.847,0.849,0.849,0.851,0.852,0.852,0.852,0.852,0.852,0.848,0.847,0.847,0.845,0.844,0.843,0.843,0.842,0.84,0.84,0.839,0.838,0.838,0.838,0.836,0.836,0.836,0.836,0.836,0.835,0.835,0.833,0.833,0.832,0.83,0.829,0.828,0.824,0.822,0.819,0.819,0.819,0.819,0.819,0.818,0.819,0.819,0.82,0.822,0.823,0.823,0.827,0.828,0.832,0.844,0.83,0.0,0.0,0.809,0.805,0.802,0.802,0.801,0.801,0.801,0.801,0.801,0.801,0.801,0.801,0.801,0.801,0.8,0.8,0.799,0.798,0.797,0.797,0.794,0.792,0.792,0.797,0.796,0.796,0.796,0.796,0.796,0.0,0.0,0.0,0.0,0.0,0.0,0.0,0.0,0.0,0.0,0.0,0.0,0.0,0.0,0.0,0.0,0.0,0.0,0.0,0.421,0.421,0.42,0.42,0.42,0.42,0.42,0.418,0.418,0.417,0.416,0.416,0.415,0.414,0.413,0.412,0.41,0.409,0.408,0.408,0.407,0.407,0.407,0.406,0.406,0.406,0.406,0.406,0.406,0.406,0.406,0.406,0.405,0.405,0.405,0.404,0.404,0.404,0.404,0.404,0.404,0.404,0.404,0.404,0.4045,0.405,0.405,0.405,0.405,0.405,0.405,0.404,0.404,0.404,0.404,0.404,0.403,0.403,0.403,0.403,0.403,0.402,0.402,0.402,0.402,0.402,0.402,0.402,0.401,0.401,0.401,0.401,0.401,0.401,0.401,0.401,0.401,0.401,0.401,0.401,0.401,0.4,0.4,0.4,0.399,0.399,0.399,0.399,0.399,0.399,0.398,0.398,0.398,0.398,0.398,0.398,0.398,0.398,0.397,0.397,0.397,0.397,0.397,0.397,0.397,0.397,0.396,0.396,0.395,0.395,0.395,0.394,0.394,0.394,0.394,0.394,0.394,0.394,0.394,0.394,0.394,0.394,0.394,0.394,0.394,0.394,0.394,0.394,0.394,0.394,0.395,0.395,0.394,0.395,0.395,0.396,0.396,0.396,0.397,0.397,0.397,0.398,0.398,0.398,0.3985,0.399,0.39949999999999997,0.4,0.401,0.401,0.402,0.402,0.402,0.402,0.403,0.403,0.403,0.403,0.403,0.404,0.404,0.404,0.404,0.404,0.405,0.405,0.405,0.405,0.406,0.406,0.406,0.406,0.406,0.406,0.406,0.406,0.406,0.407,0.407,0.407,0.408,0.408,0.409,0.409,0.41,0.41,0.411,0.411,0.411,0.411,0.411,0.411,0.411,0.411,0.411,0.412,0.412,0.412,0.413,0.413,0.413,0.414,0.414,0.414,0.415,0.415,0.415,0.415,0.416,0.416,0.416,0.416,0.416,0.416,0.416,0.416,0.417,0.417,0.417,0.418,0.418,0.418,0.419,0.419,0.419,0.42,0.42,0.42,0.42,0.42,0.42,0.421,0.421,0.421,0.421,0.421,0.421,0.421,0.421,0.421,0.422,0.422,0.422,0.422,0.422,0.422,0.423,0.423,0.423,0.424,0.424,0.424,0.424,0.425,0.425,0.425,0.425,0.425,0.425,0.425,0.425,0.0,0.0,0.0,0.0,0.0,0.0,0.0,0.0,0.0,0.0,0.0,0.0,0.0,0.0,0.0,0.0,0.0,0.0,0.0,0.0,0.0,0.0,0.0,0.0,0.0,0.0,0.0,0.0,0.0
3.743,3.755,3.78,3.792,3.804,3.817,3.829,3.842,3.855,3.855,3.868,3.88,3.906,3.933,3.946,3.973,3.987,4.014,4.028,4.028,4.028,4.028,4.014,3.987,3.987,4.014,4.014,4.014,4.056,4.056,4.085,4.085,4.114,4.128,4.128,4.158,4.158,4.173,4.173,4.173,4.173,4.173,4.188,4.188,4.188,4.188,4.188,4.203,4.218,4.233,4.249,4.249,4.264,4.264,4.28,4.28,4.296,4.312,4.312,4.328,4.328,4.344,4.376,4.41,4.426,4.477,4.53,4.565,4.638,4.657,4.694,4.713,4.694,4.694,4.694,4.657,4.638,4.638,4.601,4.583,4.512,4.477,4.46,4.426,4.426,4.41,4.41,4.393,4.393,4.393,4.393,4.376,4.36,4.36,4.36,4.344,4.344,4.36,4.36,4.376,4.393,4.41,4.426,4.46,4.512,4.53,4.565,4.583,4.601,4.601,4.601,4.638,4.638,4.638,4.638,4.601,4.601,0.0,0.0,0.0,0.0,0.0,0.0,0.0,0.0,0.0,0.0,0.0,0.0,0.0,0.0,0.821,0.822,0.822,0.823,0.826,0.828,0.83,0.832,0.833,0.835,0.836,0.836,0.837,0.838,0.838,0.838,0.838,0.838,0.838,0.838,0.838,0.838,0.838,0.839,0.838,0.838,0.839,0.839,0.839,0.838,0.838,0.838,0.838,0.837,0.836,0.835,0.833,0.832,0.83,0.828,0.826,0.826,0.826,0.824,0.823,0.823,0.822,0.822,0.82,0.819,0.819,0.818,0.818,0.818,0.816,0.816,0.815,0.815,0.813,0.813,0.814,0.814,0.815,0.815,0.815,0.816,0.816,0.815,0.814,0.813,0.81,0.8035,0.806125,0.802,0.8,0.798,0.796,0.794,0.794,0.794,0.794,0.794,0.792,0.794,0.795,0.794,0.794,0.794,0.794,0.792,0.791,0.79,0.789,0.787,0.787,0.787,0.786,0.785,0.786,0.785,0.786,0.787,0.787,0.792,0.792,0.0,0.0,0.0,0.0,0.0,0.0,0.0,0.0,0.0,0.0,0.0,0.0,0.0,0.0,0.0,0.0,0.0,0.0,0.421,0.421,0.42,0.42,0.42,0.42,0.42,0.419,0.418,0.417,0.417,0.416,0.415,0.415,0.414,0.412,0.411,0.41,0.409,0.408,0.408,0.407,0.407,0.407,0.406,0.406,0.406,0.406,0.406,0.406,0.406,0.405,0.405,0.405,0.405,0.404,0.404,0.404,0.404,0.404,0.403,0.404,0.404,0.404,0.404,0.404,0.404,0.404,0.404,0.404,0.404,0.404,0.404,0.404,0.404,0.403,0.403,0.403,0.402,0.402,0.402,0.402,0.402,0.402,0.402,0.402,0.402,0.401,0.401,0.401,0.401,0.401,0.401,0.401,0.401,0.401,0.401,0.4,0.4,0.4,0.4,0.4,0.4,0.399,0.399,0.399,0.399,0.399,0.398,0.398,0.398,0.398,0.398,0.398,0.398,0.398,0.398,0.398,0.397,0.397,0.397,0.397,0.397,0.397,0.397,0.396,0.396,0.396,0.396,0.395,0.395,0.394,0.394,0.394,0.394,0.394,0.394,0.394,0.394,0.394,0.394,0.394,0.394,0.394,0.394,0.394,0.394,0.394,0.394,0.394,0.394,0.394,0.394,0.394,0.394,0.394,0.395,0.395,0.395,0.396,0.397,0.397,0.397,0.397,0.398,0.398,0.399,0.399,0.3995,0.4,0.401,0.401,0.402,0.402,0.402,0.402,0.403,0.403,0.403,0.403,0.403,0.404,0.404,0.404,0.404,0.404,0.404,0.404,0.405,0.405,0.405,0.406,0.406,0.406,0.406,0.406,0.406,0.406,0.406,0.407,0.407,0.407,0.407,0.408,0.409,0.409,0.41,0.41,0.411,0.411,0.411,0.411,0.411,0.411,0.411,0.411,0.412,0.412,0.412,0.412,0.412,0.413,0.413,0.414,0.414,0.415,0.415,0.415,0.415,0.415,0.416,0.416,0.416,0.416,0.416,0.416,0.416,0.416,0.417,0.417,0.417,0.418,0.418,0.418,0.419,0.419,0.42,0.42,0.42,0.42,0.42,0.42,0.42,0.421,0.421,0.421,0.421,0.421,0.421,0.421,0.421,0.422,0.422,0.422,0.422,0.422,0.422,0.423,0.423,0.423,0.423,0.424,0.424,0.424,0.424,0.425,0.425,0.425,0.425,0.425,0.425,0.425,0.0,0.0,0.0,0.0,0.0,0.0,0.0,0.0,0.0,0.0,0.0,0.0,0.0,0.0,0.0,0.0,0.0,0.0,0.0,0.0,0.0,0.0,0.0,0.0,0.0,0.0,0.0,0.0,0.0
3.743,3.755,3.767,3.792,3.804,3.817,3.829,3.829,3.855,3.855,3.868,3.88,3.893,3.92,3.933,3.973,3.987,3.987,4.014,4.014,4.014,4.014,4.014,3.987,3.987,4.014,4.014,4.014,4.056,4.056,4.085,4.085,4.114,4.128,4.158,4.158,4.173,4.173,4.173,4.188,4.188,4.188,4.188,4.188,4.188,4.203,4.203,4.203,4.218,4.233,4.249,4.249,4.264,4.264,4.28,4.28,4.296,4.312,4.312,4.328,4.328,4.328,4.36,4.393,4.41,4.46,4.477,4.53,4.565,4.583,4.601,4.601,4.601,4.601,4.601,4.583,4.565,4.565,4.53,4.477,4.46,4.426,4.426,4.41,4.393,4.393,4.376,4.376,4.36,4.36,4.344,4.344,4.328,4.328,4.328,4.312,4.312,4.312,4.312,4.312,4.328,4.344,4.36,4.393,4.41,4.46,4.512,4.53,4.565,4.583,4.583,4.601,4.601,4.601,0.0,0.0,0.0,0.0,0.0,0.0,0.0,0.0,0.0,0.0,0.0,0.0,0.0,0.0,0.816,0.816,0.818,0.818,0.819,0.819,0.82,0.822,0.824,0.824,0.826,0.828,0.83,0.83,0.832,0.833,0.832,0.832,0.832,0.832,0.832,0.832,0.832,0.832,0.833,0.833,0.833,0.835,0.835,0.835,0.835,0.835,0.835,0.833,0.833,0.832,0.832,0.83,0.827,0.826,0.824,0.82,0.819,0.819,0.819,0.819,0.818,0.816,0.815,0.813,0.812,0.81,0.806,0.804,0.803,0.803,0.803,0.802,0.802,0.802,0.802,0.802,0.802,0.803,0.803,0.804,0.804,0.803,0.802,0.801,0.801,0.8,0.7909999999999999,0.78625,0.775,0.775,0.775,0.776,0.779,0.781,0.781,0.782,0.782,0.783,0.783,0.783,0.783,0.783,0.783,0.783,0.783,0.782,0.782,0.782,0.782,0.781,0.781,0.781,0.782,0.782,0.781,0.781,0.781,0.782,0.782,0.783,0.787,0.787,0.0,0.0,0.0,0.0,0.0,0.0,0.0,0.0,0.0,0.0,0.0,0.0,0.0,0.0,0.0,0.0,0.0,0.0,0.42,0.42,0.42,0.42,0.42,0.42,0.42,0.418,0.417,0.417,0.416,0.416,0.415,0.414,0.413,0.412,0.411,0.41,0.409,0.408,0.407,0.407,0.407,0.407,0.406,0.406,0.406,0.406,0.406,0.406,0.405,0.405,0.405,0.404,0.404,0.404,0.404,0.403,0.403,0.403,0.403,0.403,0.403,0.403,0.403,0.403,0.403,0.403,0.404,0.404,0.403,0.403,0.403,0.403,0.403,0.403,0.402,0.402,0.402,0.402,0.402,0.402,0.402,0.402,0.402,0.402,0.401,0.401,0.401,0.401,0.401,0.4,0.4,0.4,0.4,0.4,0.4,0.4,0.4,0.4,0.4,0.4,0.399,0.399,0.399,0.399,0.399,0.398,0.398,0.398,0.398,0.398,0.398,0.398,0.398,0.398,0.397,0.397,0.397,0.397,0.397,0.397,0.397,0.396,0.396,0.396,0.396,0.396,0.395,0.395,0.394,0.394,0.394,0.394,0.394,0.394,0.394,0.394,0.394,0.394,0.394,0.394,0.394,0.394,0.394,0.394,0.394,0.394,0.394,0.394,0.394,0.394,0.394,0.394,0.394,0.394,0.394,0.395,0.395,0.396,0.396,0.396,0.397,0.397,0.397,0.398,0.398,0.399,0.39937500000000004,0.4,0.4,0.401,0.401,0.402,0.402,0.402,0.402,0.402,0.403,0.403,0.403,0.403,0.403,0.403,0.404,0.404,0.404,0.404,0.405,0.405,0.405,0.405,0.405,0.405,0.406,0.406,0.406,0.406,0.406,0.406,0.407,0.407,0.407,0.408,0.408,0.409,0.409,0.41,0.41,0.411,0.411,0.411,0.411,0.411,0.411,0.411,0.411,0.411,0.412,0.412,0.412,0.413,0.413,0.413,0.414,0.414,0.415,0.415,0.415,0.415,0.415,0.416,0.416,0.416,0.416,0.416,0.416,0.416,0.417,0.417,0.417,0.418,0.418,0.418,0.418,0.419,0.419,0.42,0.42,0.42,0.42,0.42,0.42,0.421,0.421,0.421,0.421,0.421,0.421,0.421,0.422,0.422,0.422,0.422,0.422,0.422,0.422,0.423,0.423,0.423,0.423,0.423,0.424,0.424,0.424,0.425,0.424,0.425,0.425,0.425,0.425,0.425,0.0,0.0,0.0,0.0,0.0,0.0,0.0,0.0,0.0,0.0,0.0,0.0,0.0,0.0,0.0,0.0,0.0,0.0,0.0,0.0,0.0,0.0,0.0,0.0,0.0,0.0,0.0,0.0,0.0
3.743,3.755,3.78,3.792,3.804,3.817,3.829,3.829,3.842,3.855,3.868,3.868,3.893,3.906,3.92,3.933,3.946,3.973,3.987,3.987,3.987,3.987,3.987,3.987,3.987,3.987,4.014,4.014,4.056,4.056,4.085,4.085,4.128,4.128,4.158,4.173,4.173,4.173,4.173,4.188,4.188,4.188,4.188,4.188,4.203,4.203,4.203,4.218,4.218,4.233,4.249,4.249,4.264,4.264,4.28,4.28,4.296,4.312,4.312,4.312,4.328,4.328,4.344,4.376,4.41,4.426,4.46,4.477,4.512,4.53,4.53,4.53,4.53,4.53,4.53,4.512,4.512,4.46,4.46,4.426,4.41,4.393,4.393,4.376,4.376,4.36,4.36,4.344,4.344,4.328,4.328,4.312,4.312,4.296,4.28,4.28,4.28,4.28,4.28,4.28,4.296,4.312,4.328,4.344,4.376,4.41,4.46,4.477,4.512,4.565,4.565,4.583,4.583,0.0,0.0,0.0,0.0,0.0,0.0,0.0,0.0,0.0,0.0,0.0,0.0,0.0,0.0,0.807,0.8107500000000001,0.813,0.815,0.816,0.817,0.817,0.818,0.819,0.819,0.82,0.82,0.82,0.822,0.822,0.823,0.822,0.823,0.822,0.822,0.821,0.821,0.82,0.82,0.821,0.822,0.822,0.824,0.826,0.826,0.826,0.828,0.828,0.827,0.826,0.824,0.823,0.82,0.819,0.818,0.817,0.816,0.815,0.814,0.814,0.813,0.811,0.808,0.806,0.803,0.802,0.801,0.799,0.796,0.795,0.794,0.794,0.794,0.795,0.796,0.796,0.796,0.796,0.797,0.797,0.797,0.797,0.794,0.791,0.79,0.787,0.785,0.78,0.769,0.769,0.769,0.769,0.769,0.772,0.772,0.773,0.773,0.775,0.777,0.778,0.778,0.777,0.777,0.777,0.775,0.773,0.77275,0.772,0.771,0.77,0.769,0.77,0.77,0.771,0.772,0.769,0.77,0.77,0.7727499999999999,0.775,0.767,0.0,0.0,0.0,0.0,0.0,0.0,0.0,0.0,0.0,0.0,0.0,0.0,0.0,0.0,0.0,0.0,0.0,0.0,0.0,0.0,0.42,0.42,0.42,0.42,0.42,0.42,0.42,0.418,0.417,0.417,0.416,0.416,0.415,0.415,0.414,0.412,0.412,0.411,0.41,0.409,0.408,0.407,0.407,0.407,0.407,0.406,0.406,0.406,0.406,0.406,0.405,0.405,0.405,0.404,0.404,0.403,0.403,0.403,0.403,0.403,0.403,0.403,0.403,0.403,0.403,0.403,0.403,0.403,0.403,0.403,0.403,0.403,0.403,0.402,0.402,0.402,0.402,0.402,0.402,0.402,0.402,0.402,0.402,0.402,0.402,0.401,0.401,0.401,0.401,0.401,0.4,0.4,0.4,0.4,0.4,0.4,0.4,0.4,0.4,0.4,0.399,0.399,0.399,0.399,0.399,0.399,0.399,0.398,0.398,0.398,0.398,0.398,0.398,0.398,0.398,0.398,0.397,0.397,0.397,0.397,0.397,0.397,0.397,0.396,0.396,0.396,0.396,0.395,0.395,0.395,0.394,0.394,0.394,0.394,0.394,0.394,0.394,0.394,0.394,0.394,0.394,0.394,0.394,0.394,0.394,0.394,0.394,0.394,0.394,0.394,0.394,0.394,0.394,0.394,0.394,0.394,0.394,0.394,0.394,0.394,0.395,0.396,0.396,0.396,0.397,0.397,0.398,0.398,0.398,0.399,0.39949999999999997,0.4,0.4,0.401,0.402,0.402,0.402,0.402,0.402,0.402,0.402,0.402,0.403,0.403,0.403,0.403,0.404,0.404,0.404,0.404,0.404,0.405,0.405,0.405,0.405,0.405,0.405,0.406,0.406,0.406,0.406,0.406,0.407,0.407,0.407,0.408,0.408,0.409,0.409,0.41,0.41,0.41,0.411,0.411,0.411,0.411,0.411,0.411,0.411,0.411,0.412,0.412,0.412,0.412,0.413,0.413,0.414,0.414,0.415,0.415,0.415,0.415,0.416,0.416,0.416,0.416,0.416,0.416,0.416,0.417,0.417,0.417,0.417,0.418,0.418,0.418,0.419,0.419,0.42,0.42,0.42,0.42,0.42,0.421,0.421,0.421,0.421,0.421,0.421,0.421,0.421,0.422,0.422,0.422,0.422,0.422,0.422,0.422,0.423,0.423,0.423,0.423,0.423,0.424,0.424,0.424,0.424,0.425,0.425,0.425,0.425,0.424,0.425,0.0,0.0,0.0,0.0,0.0,0.0,0.0,0.0,0.0,0.0,0.0,0.0,0.0,0.0,0.0,0.0,0.0,0.0,0.0,0.0,0.0,0.0,0.0,0.0,0.0,0.0,0.0,0.0,0.0
3.743,3.755,3.78,3.792,3.804,3.817,3.829,3.829,3.842,3.855,3.868,3.868,3.88,3.893,3.92,3.933,3.946,3.946,3.973,3.973,3.987,3.987,3.973,3.987,3.987,4.014,4.014,4.028,4.056,4.07,4.085,4.114,4.128,4.128,4.158,4.173,4.173,4.173,4.188,4.188,4.188,4.188,4.203,4.203,4.203,4.203,4.218,4.218,4.233,4.233,4.249,4.249,4.264,4.264,4.28,4.28,4.28,4.296,4.312,4.312,4.312,4.328,4.328,4.344,4.376,4.393,4.41,4.41,4.426,4.46,4.46,4.46,4.46,4.46,4.426,4.426,4.41,4.41,4.41,4.393,4.376,4.376,4.36,4.36,4.344,4.344,4.328,4.328,4.312,4.312,4.296,4.28,4.28,4.264,4.264,4.249,4.249,4.249,4.249,4.264,4.264,4.28,4.296,4.312,4.344,4.376,4.41,4.426,4.477,4.53,4.53,0.0,0.0,0.0,0.0,0.0,0.0,0.0,0.0,0.0,0.0,0.0,0.0,0.0,0.0,0.0,0.802,0.804,0.807,0.80925,0.811,0.814,0.815,0.815,0.816,0.817,0.817,0.817,0.818,0.818,0.818,0.818,0.818,0.818,0.817,0.817,0.817,0.816,0.816,0.816,0.816,0.816,0.817,0.817,0.818,0.818,0.819,0.819,0.819,0.819,0.818,0.818,0.816,0.815,0.813,0.811,0.809,0.808,0.806,0.805,0.803,0.802,0.801,0.801,0.8,0.799,0.794,0.791,0.789,0.7870000000000001,0.784,0.784,0.784,0.783,0.784,0.784,0.785,0.785,0.785,0.785,0.786,0.786,0.786,0.784,0.783,0.782,0.781,0.779,0.769,0.766,0.765,0.765,0.765,0.765,0.765,0.766,0.766,0.766,0.766,0.766,0.766,0.766,0.766,0.766,0.765,0.765,0.764,0.764,0.763,0.762,0.762,0.76,0.757,0.758,0.759,0.76,0.761,0.76,0.762,0.764,0.765,0.763,0.755,0.0,0.0,0.0,0.0,0.0,0.0,0.0,0.0,0.0,0.0,0.0,0.0,0.0,0.0,0.0,0.0,0.0,0.0,0.419,0.418,0.42,0.419,0.419,0.419,0.42,0.419,0.418,0.417,0.417,0.416,0.416,0.416,0.415,0.414,0.413,0.41175,0.411,0.41,0.409,0.409,0.408,0.407,0.407,0.407,0.407,0.406,0.406,0.406,0.406,0.405,0.405,0.404,0.404,0.404,0.403,0.403,0.403,0.403,0.403,0.403,0.403,0.402,0.402,0.402,0.402,0.402,0.402,0.402,0.402,0.402,0.402,0.402,0.402,0.402,0.402,0.402,0.402,0.402,0.402,0.402,0.402,0.402,0.402,0.401,0.401,0.401,0.401,0.401,0.401,0.4,0.4,0.4,0.4,0.399,0.399,0.399,0.399,0.399,0.399,0.399,0.399,0.399,0.399,0.399,0.399,0.399,0.398,0.398,0.398,0.398,0.398,0.398,0.398,0.398,0.398,0.397,0.397,0.397,0.397,0.397,0.397,0.397,0.396,0.396,0.396,0.395,0.395,0.395,0.395,0.394,0.394,0.394,0.394,0.394,0.394,0.394,0.394,0.394,0.394,0.394,0.394,0.394,0.394,0.394,0.394,0.394,0.393,0.393,0.393,0.393,0.393,0.393,0.393,0.394,0.394,0.394,0.394,0.394,0.394,0.394,0.395,0.395,0.396,0.396,0.397,0.397,0.397,0.398,0.398,0.398,0.399,0.39949999999999997,0.4,0.4,0.401,0.401,0.402,0.402,0.402,0.402,0.402,0.402,0.402,0.403,0.403,0.403,0.403,0.403,0.404,0.404,0.404,0.404,0.404,0.404,0.405,0.405,0.405,0.405,0.406,0.406,0.406,0.406,0.407,0.407,0.407,0.407,0.408,0.408,0.409,0.41,0.41,0.41,0.41,0.411,0.411,0.411,0.411,0.411,0.411,0.411,0.411,0.412,0.412,0.412,0.413,0.413,0.414,0.414,0.415,0.415,0.415,0.415,0.415,0.416,0.416,0.416,0.416,0.416,0.416,0.417,0.417,0.417,0.418,0.418,0.418,0.419,0.419,0.419,0.42,0.42,0.42,0.42,0.42,0.421,0.421,0.421,0.421,0.421,0.421,0.421,0.422,0.422,0.422,0.422,0.423,0.423,0.423,0.423,0.423,0.423,0.423,0.423,0.424,0.424,0.424,0.424,0.424,0.424,0.424,0.425,0.424,0.424,0.425,0.0,0.0,0.0,0.0,0.0,0.0,0.0,0.0,0.0,0.0,0.0,0.0,0.0,0.0,0.0,0.0,0.0,0.0,0.0,0.0,0.0,0.0,0.0,0.0,0.0,0.0,0.0,0.0,0.0
3.743,3.755,3.767,3.792,3.804,3.817,3.817,3.829,3.829,3.855,3.855,3.868,3.868,3.88,3.906,3.906,3.92,3.933,3.946,3.973,3.973,3.973,3.973,3.987,3.987,4.014,4.014,4.028,4.056,4.07,4.085,4.114,4.128,4.158,4.173,4.173,4.173,4.188,4.188,4.188,4.203,4.203,4.203,4.203,4.218,4.218,4.218,4.233,4.233,4.233,4.249,4.249,4.264,4.264,4.28,4.28,4.28,4.296,4.296,4.312,4.312,4.312,4.328,4.328,4.328,4.344,4.344,4.36,4.376,4.376,4.393,4.393,4.376,4.376,4.376,4.376,4.376,4.376,4.376,4.36,4.36,4.344,4.344,4.328,4.328,4.328,4.312,4.312,4.296,4.28,4.28,4.264,4.249,4.249,4.233,4.218,4.203,4.203,4.203,4.218,4.249,4.249,4.264,4.296,4.312,4.344,4.376,4.41,4.426,0.0,0.0,0.0,0.0,0.0,0.0,0.0,0.0,0.0,0.0,0.0,0.0,0.0,0.0,0.787,0.792,0.796,0.799,0.801,0.803,0.806,0.808,0.80875,0.81,0.81,0.812,0.813,0.813,0.813,0.813,0.814,0.812,0.812,0.811,0.81,0.81,0.809,0.808,0.808,0.808,0.807,0.808,0.808,0.81,0.811,0.812,0.813,0.813,0.813,0.811,0.81,0.808,0.806,0.803,0.802,0.801,0.801,0.8,0.8,0.8,0.799,0.798,0.796,0.791,0.787,0.784,0.782,0.7805,0.779,0.777,0.776,0.776,0.777,0.777,0.777,0.778,0.779,0.779,0.78,0.78,0.779,0.78,0.779,0.779,0.0,0.774,0.771,0.766,0.765,0.764,0.763,0.762,0.76,0.76,0.759,0.76,0.761,0.76,0.758,0.757,0.757,0.755,0.754,0.754,0.754,0.753,0.752,0.751,0.751,0.75,0.75,0.75,0.749,0.749,0.749,0.749,0.749,0.75,0.75,0.0,0.7495,0.7495,0.7462500000000001,0.743,0.0,0.0,0.0,0.0,0.0,0.0,0.0,0.0,0.0,0.0,0.0,0.0,0.0,0.0,0.0,0.0,0.0,0.418,0.417,0.417,0.417,0.417,0.417,0.417,0.417,0.417,0.416,0.416,0.415,0.416,0.414,0.413,0.412,0.411,0.411,0.411,0.41,0.409,0.409,0.408,0.408,0.407,0.407,0.407,0.407,0.406,0.406,0.406,0.406,0.405,0.405,0.404,0.404,0.403,0.403,0.403,0.403,0.403,0.403,0.402,0.402,0.402,0.402,0.402,0.402,0.402,0.402,0.402,0.402,0.402,0.402,0.402,0.402,0.402,0.402,0.402,0.402,0.402,0.402,0.402,0.401,0.401,0.401,0.401,0.401,0.401,0.401,0.4,0.4,0.4,0.4,0.4,0.4,0.399,0.399,0.399,0.399,0.399,0.399,0.399,0.399,0.399,0.399,0.399,0.398,0.398,0.398,0.398,0.398,0.398,0.398,0.398,0.398,0.397,0.397,0.397,0.397,0.397,0.397,0.397,0.397,0.396,0.396,0.395,0.395,0.395,0.395,0.395,0.394,0.394,0.394,0.394,0.394,0.394,0.394,0.394,0.394,0.394,0.394,0.394,0.394,0.393,0.393,0.393,0.393,0.393,0.393,0.393,0.393,0.393,0.393,0.393,0.393,0.393,0.393,0.393,0.393,0.394,0.394,0.394,0.394,0.395,0.395,0.396,0.397,0.397,0.397,0.398,0.398,0.398,0.399,0.399,0.39949999999999997,0.4,0.4005,0.401,0.401,0.402,0.402,0.402,0.402,0.402,0.402,0.402,0.403,0.403,0.403,0.403,0.403,0.404,0.404,0.404,0.404,0.404,0.404,0.405,0.405,0.405,0.405,0.406,0.406,0.406,0.407,0.407,0.407,0.407,0.408,0.408,0.409,0.409,0.41,0.41,0.41,0.411,0.411,0.411,0.411,0.411,0.411,0.411,0.411,0.411,0.412,0.412,0.412,0.413,0.413,0.414,0.414,0.415,0.415,0.415,0.416,0.416,0.416,0.416,0.416,0.416,0.416,0.417,0.417,0.417,0.418,0.418,0.418,0.419,0.419,0.42,0.42,0.42,0.42,0.42,0.421,0.421,0.421,0.421,0.421,0.421,0.422,0.422,0.422,0.422,0.423,0.423,0.423,0.423,0.423,0.423,0.423,0.423,0.423,0.423,0.424,0.424,0.424,0.424,0.425,0.425,0.425,0.425,0.425,0.424,0.425,0.0,0.0,0.0,0.0,0.0,0.0,0.0,0.0,0.0,0.0,0.0,0.0,0.0,0.0,0.0,0.0,0.0,0.0,0.0,0.0,0.0,0.0,0.0,0.0,0.0,0.0,0.0,0.0,0.0
3.743,3.755,3.767,3.792,3.804,3.804,3.817,3.829,3.829,3.842,3.855,3.855,3.868,3.88,3.893,3.906,3.92,3.933,3.946,3.946,3.946,3.973,3.973,3.987,3.987,4.014,4.028,4.056,4.056,4.085,4.085,4.114,4.128,4.158,4.173,4.173,4.173,4.188,4.203,4.203,4.203,4.218,4.218,4.218,4.218,4.218,4.218,4.233,4.233,4.249,4.249,4.249,4.264,4.264,4.28,4.28,4.28,4.28,4.296,4.296,4.296,4.312,4.312,4.312,4.312,4.312,4.328,4.328,4.328,4.328,4.328,4.328,4.328,4.344,4.344,4.344,4.344,4.344,4.344,4.328,4.328,4.328,4.328,4.328,4.312,4.312,4.296,4.28,4.28,4.264,4.264,4.249,4.218,4.203,4.188,4.173,4.173,4.158,4.173,4.173,4.203,4.218,4.249,4.264,4.28,4.312,4.344,0.0,0.0,0.0,0.0,0.0,0.0,0.0,0.0,0.0,0.0,0.0,0.0,0.0,0.0,0.0,0.0,0.784,0.786,0.791,0.795,0.798,0.8,0.801,0.802,0.803,0.803,0.805,0.806,0.806,0.806,0.806,0.806,0.805,0.803,0.803,0.802,0.802,0.802,0.801,0.801,0.801,0.801,0.801,0.801,0.801,0.801,0.802,0.802,0.802,0.802,0.802,0.801,0.8,0.798,0.798,0.796,0.794,0.792,0.792,0.792,0.792,0.79,0.787,0.785,0.783,0.782,0.78,0.776,0.77,0.767,0.766,0.765,0.765,0.766,0.765,0.766,0.766,0.767,0.767,0.768,0.768,0.768,0.769,0.768,0.768,0.767,0.766,0.765,0.764,0.76,0.757,0.755,0.754,0.753,0.752,0.752,0.751,0.751,0.751,0.751,0.75,0.75,0.749,0.747,0.747,0.746,0.744,0.742,0.741,0.741,0.739,0.739,0.739,0.738,0.737,0.738,0.737,0.737,0.737,0.737,0.7384999999999999,0.73675,0.735,0.734,0.7326250000000001,0.0,0.0,0.0,0.0,0.0,0.0,0.0,0.0,0.0,0.0,0.0,0.0,0.0,0.0,0.0,0.0,0.0,0.417,0.417,0.417,0.417,0.416,0.417,0.416,0.416,0.416,0.416,0.416,0.415,0.414,0.4135,0.412,0.412,0.411,0.411,0.41,0.41,0.409,0.409,0.408,0.408,0.407,0.407,0.407,0.407,0.406,0.406,0.406,0.406,0.406,0.405,0.405,0.404,0.403,0.403,0.403,0.403,0.403,0.402,0.402,0.402,0.402,0.402,0.402,0.402,0.402,0.402,0.402,0.402,0.402,0.402,0.402,0.402,0.402,0.402,0.402,0.402,0.401,0.401,0.401,0.401,0.401,0.401,0.401,0.401,0.401,0.4,0.4,0.4,0.4,0.4,0.4,0.4,0.399,0.399,0.399,0.399,0.399,0.399,0.399,0.399,0.399,0.399,0.398,0.398,0.398,0.398,0.398,0.398,0.398,0.398,0.398,0.397,0.397,0.397,0.397,0.397,0.397,0.397,0.397,0.396,0.396,0.396,0.396,0.395,0.395,0.395,0.394,0.394,0.394,0.394,0.394,0.394,0.394,0.394,0.394,0.394,0.394,0.393,0.393,0.393,0.393,0.393,0.393,0.393,0.393,0.393,0.393,0.393,0.393,0.393,0.393,0.393,0.393,0.393,0.393,0.393,0.393,0.393,0.394,0.394,0.394,0.395,0.395,0.396,0.396,0.397,0.397,0.397,0.398,0.398,0.398,0.399,0.399,0.4,0.4,0.4005,0.401,0.401,0.402,0.402,0.402,0.402,0.402,0.402,0.402,0.403,0.403,0.403,0.403,0.403,0.404,0.404,0.404,0.404,0.404,0.404,0.405,0.405,0.405,0.406,0.406,0.406,0.407,0.407,0.407,0.407,0.408,0.408,0.409,0.409,0.41,0.41,0.41,0.411,0.411,0.411,0.411,0.411,0.411,0.411,0.411,0.411,0.412,0.412,0.412,0.412,0.413,0.414,0.414,0.415,0.415,0.415,0.415,0.416,0.416,0.416,0.416,0.416,0.417,0.417,0.417,0.418,0.418,0.418,0.419,0.419,0.42,0.42,0.42,0.42,0.42,0.421,0.421,0.421,0.421,0.421,0.421,0.422,0.422,0.422,0.423,0.423,0.423,0.423,0.423,0.423,0.423,0.423,0.424,0.424,0.424,0.424,0.424,0.424,0.424,0.424,0.425,0.425,0.425,0.424,0.425,0.424,0.425,0.0,0.0,0.0,0.0,0.0,0.0,0.0,0.0,0.0,0.0,0.0,0.0,0.0,0.0,0.0,0.0,0.0,0.0,0.0,0.0,0.0,0.0,0.0,0.0,0.0,0.0,0.0,0.0,0.0
3.743,3.755,3.78,3.792,3.804,3.804,3.817,3.829,3.829,3.842,3.855,3.855,3.868,3.868,3.88,3.893,3.906,3.92,3.933,3.933,3.946,3.973,3.973,3.987,3.987,4.014,4.028,4.056,4.07,4.085,4.085,4.128,4.128,4.158,4.173,4.173,4.188,4.188,4.203,4.203,4.218,4.218,4.218,4.218,4.218,4.233,4.233,4.233,4.249,4.249,4.249,4.264,4.264,4.264,4.264,4.28,4.28,4.28,4.28,4.28,4.28,4.296,4.296,4.28,4.296,4.296,4.296,4.296,4.296,4.312,4.312,4.312,4.312,4.328,4.328,4.328,4.328,4.328,4.328,4.328,4.312,4.312,4.312,4.312,4.312,4.296,4.28,4.28,4.264,4.249,4.249,4.233,4.203,4.173,4.158,4.128,4.114,4.114,4.114,4.114,4.158,4.173,4.203,4.249,4.264,0.0,0.0,0.0,0.0,0.0,0.0,0.0,0.0,0.0,0.0,0.0,0.0,0.0,0.0,0.771,0.774,0.7765,0.779,0.781,0.783,0.784,0.787,0.79,0.794,0.796,0.798,0.799,0.8,0.8,0.801,0.801,0.801,0.801,0.801,0.801,0.8,0.8,0.799,0.799,0.799,0.798,0.798,0.797,0.796,0.797,0.797,0.796,0.797,0.797,0.797,0.797,0.796,0.795,0.792,0.788,0.786,0.784,0.783,0.782,0.782,0.782,0.782,0.782,0.781,0.779,0.777,0.774,0.7695000000000001,0.765,0.762,0.759,0.756,0.754,0.753,0.753,0.753,0.754,0.754,0.757,0.76,0.76,0.762,0.762,0.762,0.762,0.761,0.761,0.76,0.7562500000000001,0.756,0.753,0.752,0.751,0.75,0.75,0.749,0.748,0.745,0.744,0.744,0.743,0.742,0.74,0.738,0.737,0.736,0.736,0.735,0.735,0.734,0.734,0.734,0.733,0.733,0.733,0.732,0.732,0.731,0.73,0.728,0.728,0.727,0.727,0.724,0.721,0.721,0.719,0.0,0.0,0.0,0.0,0.0,0.0,0.0,0.0,0.0,0.0,0.0,0.0,0.0,0.0,0.0,0.0,0.0,0.417,0.417,0.416,0.416,0.416,0.416,0.416,0.416,0.416,0.415,0.415,0.414,0.41274999999999995,0.412,0.411,0.411,0.41,0.41,0.409,0.409,0.409,0.408,0.407,0.407,0.407,0.407,0.407,0.406,0.406,0.406,0.406,0.406,0.405,0.405,0.404,0.403,0.403,0.403,0.403,0.402,0.402,0.402,0.402,0.402,0.402,0.402,0.402,0.402,0.402,0.402,0.402,0.402,0.402,0.402,0.402,0.402,0.401,0.401,0.401,0.401,0.401,0.401,0.401,0.4,0.401,0.4,0.4,0.4,0.4,0.4,0.4,0.4,0.4,0.399,0.399,0.399,0.399,0.399,0.399,0.399,0.399,0.399,0.399,0.399,0.398,0.398,0.398,0.398,0.398,0.398,0.398,0.398,0.398,0.398,0.398,0.397,0.397,0.397,0.397,0.397,0.397,0.397,0.397,0.396,0.396,0.396,0.395,0.395,0.394,0.394,0.394,0.394,0.394,0.394,0.394,0.394,0.394,0.394,0.394,0.393,0.393,0.393,0.393,0.393,0.393,0.393,0.393,0.393,0.393,0.393,0.393,0.393,0.393,0.393,0.393,0.393,0.393,0.393,0.393,0.393,0.393,0.393,0.393,0.394,0.394,0.394,0.395,0.396,0.396,0.397,0.397,0.397,0.398,0.398,0.398,0.398,0.399,0.399,0.4,0.4,0.4005,0.401,0.401,0.401,0.402,0.402,0.402,0.402,0.402,0.402,0.403,0.403,0.403,0.403,0.403,0.403,0.404,0.404,0.404,0.404,0.404,0.405,0.405,0.406,0.406,0.406,0.406,0.407,0.407,0.407,0.407,0.408,0.408,0.409,0.409,0.41,0.41,0.41,0.41,0.411,0.411,0.411,0.411,0.411,0.411,0.411,0.411,0.412,0.412,0.412,0.413,0.414,0.414,0.415,0.415,0.415,0.416,0.416,0.416,0.416,0.416,0.417,0.417,0.417,0.417,0.418,0.418,0.419,0.419,0.42,0.42,0.42,0.42,0.42,0.421,0.421,0.421,0.421,0.421,0.421,0.422,0.422,0.423,0.423,0.423,0.424,0.424,0.424,0.424,0.424,0.424,0.424,0.424,0.424,0.424,0.424,0.424,0.424,0.424,0.425,0.425,0.425,0.424,0.425,0.425,0.424,0.425,0.0,0.0,0.0,0.0,0.0,0.0,0.0,0.0,0.0,0.0,0.0,0.0,0.0,0.0,0.0,0.0,0.0,0.0,0.0,0.0,0.0,0.0,0.0,0.0,0.0,0.0,0.0,0.0,0.0
3.755,3.767,3.78,3.792,3.804,3.817,3.817,3.829,3.829,3.842,3.855,3.855,3.868,3.868,3.868,3.88,3.893,3.906,3.92,3.933,3.946,3.973,3.973,3.987,3.987,4.014,4.028,4.056,4.07,4.085,4.085,4.128,4.128,4.158,4.173,4.173,4.188,4.188,4.203,4.203,4.218,4.218,4.233,4.233,4.233,4.233,4.249,4.249,4.249,4.249,4.249,4.264,4.264,4.264,4.264,4.28,4.28,4.28,4.28,4.28,4.28,4.28,4.28,4.28,4.28,4.28,4.28,4.28,4.28,4.28,4.28,4.296,4.296,4.312,4.312,4.312,4.312,4.312,4.312,4.312,4.312,4.312,4.312,4.296,4.28,4.28,4.28,4.264,4.249,4.249,4.218,4.203,4.173,4.158,4.114,4.085,4.07,4.056,4.07,4.07,4.085,4.114,4.158,4.203,0.0,0.0,0.0,0.0,0.0,0.0,0.0,0.0,0.0,0.0,0.0,0.0,0.0,0.765,0.766,0.768,0.77,0.775,0.77575,0.778,0.78,0.782,0.782,0.784,0.786,0.788,0.791,0.794,0.796,0.797,0.798,0.798,0.799,0.799,0.798,0.798,0.797,0.796,0.795,0.794,0.794,0.792,0.791,0.79,0.788,0.789,0.787,0.786,0.786,0.786,0.784,0.783,0.782,0.781,0.781,0.78,0.778,0.776,0.773,0.773,0.775,0.774,0.773,0.772,0.769,0.766,0.7635000000000001,0.761,0.757,0.753,0.751,0.75,0.749,0.748,0.747,0.747,0.747,0.748,0.749,0.75,0.75,0.751,0.751,0.751,0.75,0.75,0.749,0.749,0.747,0.743,0.742,0.741,0.74,0.74,0.74,0.739,0.738,0.737,0.736,0.735,0.735,0.735,0.734,0.734,0.733,0.732,0.73,0.729,0.728,0.727,0.726,0.726,0.725,0.724,0.724,0.723,0.723,0.722,0.72,0.719,0.719,0.718,0.716,0.716,0.71,0.707,0.707,0.706,0.707,0.709,0.0,0.0,0.0,0.0,0.0,0.0,0.0,0.0,0.0,0.0,0.0,0.0,0.0,0.0,0.0,0.416,0.416,0.416,0.416,0.416,0.416,0.415,0.415,0.415,0.414,0.413,0.412,0.411,0.411,0.411,0.41,0.409,0.409,0.409,0.408,0.408,0.407,0.407,0.407,0.407,0.407,0.406,0.406,0.406,0.406,0.406,0.405,0.405,0.404,0.404,0.403,0.403,0.403,0.402,0.402,0.402,0.402,0.402,0.402,0.402,0.402,0.402,0.402,0.402,0.401,0.401,0.401,0.401,0.401,0.401,0.401,0.401,0.401,0.401,0.401,0.4,0.4,0.4,0.4,0.4,0.4,0.4,0.4,0.4,0.4,0.4,0.399,0.399,0.399,0.399,0.399,0.399,0.399,0.399,0.399,0.399,0.398,0.398,0.398,0.398,0.398,0.398,0.398,0.398,0.398,0.398,0.398,0.397,0.397,0.397,0.397,0.397,0.397,0.397,0.397,0.397,0.397,0.396,0.396,0.396,0.396,0.395,0.395,0.394,0.394,0.394,0.394,0.394,0.394,0.394,0.394,0.394,0.393,0.394,0.393,0.393,0.393,0.393,0.393,0.393,0.393,0.393,0.393,0.393,0.393,0.393,0.393,0.393,0.393,0.393,0.393,0.393,0.393,0.393,0.393,0.393,0.393,0.393,0.394,0.394,0.394,0.395,0.396,0.396,0.397,0.397,0.397,0.398,0.398,0.398,0.398,0.398,0.399,0.399,0.4,0.4,0.4005,0.401,0.401,0.402,0.402,0.402,0.402,0.402,0.402,0.4025,0.403,0.403,0.403,0.403,0.403,0.403,0.4035,0.404,0.404,0.404,0.4045,0.405,0.405,0.406,0.406,0.406,0.407,0.407,0.407,0.407,0.408,0.408,0.408,0.409,0.409,0.41,0.41,0.41,0.411,0.411,0.411,0.411,0.411,0.411,0.411,0.412,0.412,0.412,0.413,0.413,0.414,0.414,0.415,0.415,0.415,0.416,0.416,0.416,0.416,0.416,0.417,0.417,0.417,0.418,0.418,0.419,0.419,0.42,0.42,0.42,0.42,0.42,0.421,0.421,0.421,0.421,0.421,0.422,0.422,0.423,0.423,0.423,0.4235,0.424,0.424,0.424,0.424,0.424,0.424,0.424,0.424,0.424,0.424,0.424,0.424,0.425,0.425,0.425,0.425,0.425,0.425,0.425,0.425,0.425,0.425,0.425,0.0,0.0,0.0,0.0,0.0,0.0,0.0,0.0,0.0,0.0,0.0,0.0,0.0,0.0,0.0,0.0,0.0,0.0,0.0,0.0,0.0,0.0,0.0,0.0,0.0,0.0,0.0,0.0,0.0
3.755,3.767,3.78,3.792,3.804,3.817,3.817,3.829,3.829,3.842,3.855,3.855,3.855,3.868,3.868,3.88,3.893,3.906,3.92,3.933,3.946,3.946,3.973,3.987,3.987,4.028,4.028,4.056,4.07,4.085,4.085,4.128,4.128,4.158,4.173,4.173,4.173,4.188,4.203,4.203,4.218,4.218,4.233,4.233,4.233,4.233,4.249,4.249,4.249,4.249,4.249,4.264,4.264,4.264,4.264,4.264,4.28,4.28,4.28,4.264,4.264,4.264,4.264,4.264,4.264,4.264,4.264,4.264,4.264,4.264,4.28,4.28,4.28,4.28,4.296,4.296,4.312,4.312,4.312,4.312,4.312,4.312,4.296,4.296,4.28,4.28,4.264,4.249,4.249,4.233,4.203,4.173,4.158,4.114,4.07,4.056,4.014,4.014,4.028,4.056,0.0,0.0,0.0,0.0,0.0,0.0,0.0,0.0,0.0,0.0,0.0,0.0,0.0,0.0,0.0,0.757,0.76,0.762,0.765,0.766,0.767,0.769,0.771,0.774,0.777,0.777,0.779,0.781,0.782,0.782,0.783,0.784,0.786,0.787,0.789,0.79,0.792,0.792,0.792,0.791,0.791,0.79,0.789,0.787,0.787,0.784,0.784,0.783,0.783,0.782,0.781,0.78,0.779,0.777,0.775,0.77,0.768,0.767,0.767,0.766,0.766,0.765,0.765,0.765,0.765,0.765,0.764,0.762,0.758,0.0,0.75075,0.75,0.747,0.745,0.741,0.739,0.739,0.738,0.739,0.74,0.74,0.741,0.743,0.74225,0.742,0.742,0.74,0.739,0.737,0.736,0.735,0.734,0.734,0.734,0.734,0.733,0.734,0.734,0.734,0.734,0.734,0.733,0.73025,0.73,0.728,0.728,0.726,0.724,0.722,0.722,0.721,0.721,0.72,0.72,0.72,0.72,0.72,0.72,0.719,0.719,0.719,0.717,0.714,0.712,0.709,0.708,0.707,0.706,0.705,0.702,0.699,0.0,0.0,0.0,0.0,0.0,0.0,0.0,0.0,0.0,0.0,0.0,0.0,0.0,0.0,0.0,0.0,0.0,0.0,0.416,0.416,0.416,0.416,0.415,0.415,0.415,0.414,0.414,0.413,0.412,0.411,0.411,0.411,0.41,0.41,0.409,0.409,0.408,0.408,0.407,0.407,0.407,0.407,0.406,0.406,0.406,0.406,0.406,0.406,0.406,0.405,0.405,0.404,0.403,0.403,0.403,0.402,0.402,0.402,0.402,0.402,0.402,0.402,0.402,0.402,0.401,0.401,0.401,0.401,0.401,0.401,0.401,0.401,0.401,0.401,0.401,0.4,0.4,0.4,0.4,0.4,0.4,0.4,0.4,0.4,0.4,0.4,0.399,0.399,0.399,0.399,0.399,0.399,0.399,0.399,0.399,0.399,0.399,0.399,0.398,0.398,0.398,0.398,0.398,0.398,0.398,0.398,0.398,0.398,0.398,0.397,0.397,0.397,0.397,0.397,0.397,0.397,0.397,0.397,0.397,0.396,0.396,0.396,0.396,0.395,0.395,0.394,0.394,0.394,0.394,0.394,0.394,0.394,0.394,0.393,0.393,0.393,0.393,0.393,0.393,0.393,0.393,0.393,0.393,0.393,0.393,0.393,0.393,0.393,0.393,0.393,0.393,0.393,0.393,0.393,0.393,0.393,0.393,0.393,0.393,0.393,0.393,0.393,0.394,0.394,0.395,0.396,0.396,0.397,0.397,0.397,0.397,0.398,0.398,0.398,0.398,0.398,0.399,0.399,0.4,0.4,0.4005,0.401,0.401,0.4015000000000001,0.402,0.402,0.402,0.402,0.40237500000000004,0.403,0.403,0.403,0.403,0.403,0.403,0.40337500000000004,0.404,0.404,0.404,0.4045,0.405,0.405,0.406,0.406,0.406,0.407,0.407,0.407,0.407,0.407,0.408,0.408,0.409,0.409,0.409,0.41,0.41,0.41,0.411,0.411,0.411,0.411,0.411,0.411,0.412,0.412,0.412,0.413,0.413,0.414,0.415,0.415,0.415,0.416,0.416,0.416,0.416,0.416,0.417,0.417,0.417,0.418,0.418,0.419,0.419,0.42,0.42,0.42,0.42,0.421,0.421,0.421,0.421,0.421,0.422,0.422,0.422,0.423,0.423,0.4235,0.424,0.424,0.424,0.425,0.425,0.425,0.425,0.425,0.425,0.425,0.425,0.425,0.425,0.425,0.425,0.425,0.425,0.425,0.425,0.425,0.425,0.425,0.425,0.425,0.425,0.0,0.0,0.0,0.0,0.0,0.0,0.0,0.0,0.0,0.0,0.0,0.0,0.0,0.0,0.0,0.0,0.0,0.0,0.0,0.0,0.0,0.0,0.0,0.0,0.0,0.0,0.0,0.0,0.0
3.755,3.767,3.78,3.804,3.804,3.817,3.817,3.829,3.829,3.842,3.855,3.855,3.855,3.868,3.868,3.88,3.893,3.906,3.92,3.933,3.933,3.946,3.973,3.987,4.014,4.028,4.056,4.056,4.07,4.085,4.085,4.128,4.128,4.158,4.173,4.173,4.173,4.188,4.203,4.203,4.218,4.218,4.233,4.233,4.233,4.249,4.249,4.249,4.249,4.249,4.249,4.249,4.264,4.264,4.264,4.264,4.264,4.264,4.264,4.264,4.264,4.264,4.264,4.249,4.249,4.249,4.249,4.249,4.249,4.264,4.264,4.264,4.28,4.28,4.28,4.296,4.296,4.296,4.296,4.296,4.296,4.296,4.28,4.28,4.28,4.264,4.264,4.249,4.249,4.203,4.188,4.158,4.114,4.085,4.028,4.028,3.987,3.987,0.0,0.0,0.0,0.0,0.0,0.0,0.0,0.0,0.0,0.0,0.0,0.0,0.0,0.0,0.0,0.751,0.752,0.754,0.757,0.759,0.761,0.763,0.765,0.765,0.766,0.767,0.768,0.77,0.772,0.775,0.777,0.778,0.7777499999999999,0.78,0.781,0.782,0.782,0.783,0.783,0.784,0.784,0.784,0.784,0.783,0.783,0.782,0.782,0.782,0.781,0.779,0.778,0.775,0.771,0.769,0.767,0.766,0.765,0.76,0.76,0.759,0.758,0.758,0.758,0.757,0.757,0.758,0.755,0.754,0.752,0.751,0.749,0.7435,0.738,0.736,0.735,0.734,0.735,0.734,0.734,0.734,0.735,0.734,0.734,0.734,0.735,0.734,0.734,0.734,0.732,0.731,0.728,0.728,0.726,0.725,0.724,0.724,0.724,0.724,0.725,0.727,0.726,0.725,0.725,0.724,0.722,0.721,0.721,0.72,0.719,0.719,0.719,0.718,0.717,0.716,0.716,0.715,0.714,0.714,0.713,0.712,0.712,0.711,0.71,0.709,0.707,0.706,0.705,0.704,0.7,0.699,0.697,0.0,0.0,0.0,0.0,0.0,0.0,0.0,0.0,0.0,0.0,0.0,0.0,0.0,0.0,0.0,0.0,0.0,0.0,0.0,0.0,0.0,0.415,0.415,0.415,0.415,0.414,0.414,0.414,0.413,0.412,0.411,0.411,0.41,0.41,0.41,0.409,0.409,0.409,0.408,0.408,0.407,0.407,0.407,0.407,0.406,0.406,0.406,0.406,0.406,0.406,0.405,0.405,0.404,0.403,0.403,0.403,0.402,0.402,0.402,0.402,0.402,0.402,0.402,0.402,0.401,0.401,0.401,0.401,0.401,0.401,0.401,0.401,0.401,0.401,0.4,0.4,0.4,0.4,0.4,0.4,0.4,0.4,0.4,0.399,0.4,0.4,0.399,0.399,0.399,0.399,0.399,0.399,0.399,0.399,0.399,0.398,0.398,0.398,0.398,0.398,0.398,0.398,0.398,0.398,0.398,0.398,0.398,0.398,0.398,0.398,0.397,0.397,0.397,0.397,0.397,0.397,0.397,0.397,0.397,0.397,0.396,0.396,0.396,0.396,0.396,0.395,0.395,0.394,0.394,0.394,0.394,0.394,0.394,0.394,0.393,0.393,0.393,0.393,0.393,0.393,0.393,0.393,0.393,0.393,0.393,0.393,0.393,0.393,0.393,0.393,0.393,0.393,0.393,0.393,0.393,0.393,0.393,0.393,0.393,0.393,0.393,0.393,0.393,0.393,0.394,0.394,0.394,0.395,0.396,0.397,0.397,0.397,0.397,0.398,0.398,0.398,0.398,0.398,0.399,0.399,0.399,0.4,0.4,0.4,0.401,0.401,0.4015,0.402,0.402,0.402,0.402,0.402,0.4025,0.403,0.403,0.403,0.403,0.403,0.4035,0.404,0.404,0.4045,0.405,0.405,0.406,0.406,0.406,0.406,0.407,0.407,0.407,0.407,0.408,0.408,0.409,0.409,0.409,0.41,0.41,0.41,0.411,0.411,0.411,0.411,0.411,0.411,0.412,0.412,0.412,0.413,0.413,0.414,0.415,0.415,0.415,0.416,0.416,0.416,0.416,0.416,0.417,0.417,0.418,0.418,0.419,0.419,0.42,0.42,0.42,0.421,0.421,0.421,0.421,0.421,0.421,0.422,0.422,0.42275,0.423,0.423,0.424,0.424,0.425,0.425,0.425,0.425,0.425,0.425,0.425,0.425,0.425,0.425,0.425,0.425,0.425,0.425,0.425,0.425,0.425,0.425,0.425,0.425,0.425,0.425,0.425,0.425,0.425,0.0,0.0,0.0,0.0,0.0,0.0,0.0,0.0,0.0,0.0,0.0,0.0,0.0,0.0,0.0,0.0,0.0,0.0,0.0,0.0,0.0,0.0,0.0,0.0,0.0,0.0,0.0,0.0,0.0
3.755,3.767,3.78,3.804,3.817,3.817,3.829,3.829,3.829,3.842,3.855,3.855,3.868,3.868,3.868,3.88,3.893,3.906,3.906,3.92,3.933,3.946,3.973,3.987,4.014,4.028,4.056,4.056,4.07,4.085,4.085,4.114,4.128,4.128,4.158,4.173,4.173,4.188,4.188,4.203,4.218,4.218,4.233,4.233,4.233,4.233,4.249,4.249,4.249,4.249,4.249,4.249,4.264,4.264,4.264,4.264,4.264,4.264,4.264,4.264,4.249,4.249,4.249,4.249,4.249,4.233,4.233,4.249,4.249,4.249,4.264,4.264,4.264,4.28,4.28,4.28,4.296,4.296,4.296,4.296,4.296,4.296,4.28,4.28,4.28,4.264,4.264,4.249,4.218,4.188,4.173,4.128,4.085,4.056,4.014,4.014,0.0,0.0,0.0,0.0,0.0,0.0,0.0,0.0,0.0,0.0,0.0,0.0,0.0,0.0,0.745,0.746,0.747,0.749,0.75,0.752,0.753,0.754,0.757,0.759,0.761,0.762,0.764,0.765,0.765,0.766,0.766,0.767,0.768,0.769,0.77,0.772,0.773,0.776,0.777,0.778,0.779,0.779,0.779,0.78,0.78,0.779,0.779,0.778,0.777,0.775,0.774,0.77,0.768,0.766,0.765,0.764,0.759,0.756,0.753,0.753,0.752,0.752,0.752,0.751,0.751,0.75,0.75,0.75,0.748,0.745,0.738,0.736,0.735,0.733,0.731,0.73,0.727,0.727,0.727,0.727,0.727,0.728,0.728,0.727,0.727,0.727,0.725,0.724,0.723,0.723,0.722,0.72,0.72,0.72,0.719,0.719,0.719,0.719,0.7174999999999999,0.719,0.719,0.719,0.718,0.718,0.717,0.717,0.716,0.714,0.714,0.712,0.712,0.71,0.71,0.709,0.708,0.707,0.707,0.707,0.707,0.706,0.706,0.706,0.706,0.705,0.705,0.701,0.699,0.697,0.695,0.694,0.693,0.693,0.692,0.0,0.0,0.0,0.0,0.0,0.0,0.0,0.0,0.0,0.0,0.0,0.0,0.0,0.0,0.0,0.0,0.0,0.0,0.0,0.0,0.0,0.414,0.415,0.414,0.414,0.414,0.413,0.412,0.412,0.411,0.411,0.411,0.41,0.41,0.41,0.409,0.409,0.409,0.408,0.408,0.407,0.407,0.407,0.406,0.406,0.406,0.406,0.406,0.405,0.405,0.405,0.404,0.404,0.403,0.403,0.402,0.402,0.402,0.402,0.402,0.402,0.402,0.402,0.401,0.401,0.401,0.401,0.401,0.4,0.4,0.4,0.4,0.4,0.4,0.4,0.4,0.4,0.4,0.4,0.4,0.4,0.4,0.399,0.399,0.399,0.399,0.399,0.399,0.399,0.399,0.399,0.399,0.398,0.398,0.398,0.398,0.398,0.398,0.398,0.398,0.398,0.398,0.398,0.398,0.398,0.398,0.398,0.398,0.398,0.397,0.397,0.397,0.397,0.397,0.397,0.397,0.397,0.397,0.397,0.396,0.396,0.396,0.396,0.396,0.395,0.395,0.395,0.394,0.394,0.394,0.394,0.394,0.394,0.393,0.393,0.393,0.393,0.393,0.393,0.393,0.393,0.393,0.393,0.393,0.393,0.393,0.393,0.393,0.393,0.393,0.393,0.393,0.393,0.393,0.393,0.393,0.393,0.393,0.393,0.393,0.393,0.393,0.393,0.393,0.394,0.394,0.394,0.395,0.396,0.397,0.397,0.397,0.397,0.397,0.398,0.398,0.398,0.398,0.398,0.399,0.399,0.399,0.4,0.4,0.401,0.401,0.40137500000000004,0.402,0.402,0.402,0.402,0.402,0.40237500000000004,0.403,0.403,0.403,0.403,0.403,0.40337500000000004,0.404,0.404,0.4045,0.405,0.405,0.406,0.406,0.406,0.406,0.407,0.407,0.407,0.407,0.408,0.408,0.408,0.409,0.409,0.41,0.41,0.41,0.411,0.411,0.411,0.411,0.411,0.411,0.412,0.412,0.412,0.413,0.414,0.414,0.415,0.415,0.415,0.416,0.416,0.416,0.416,0.417,0.417,0.418,0.418,0.419,0.42,0.42,0.42,0.42,0.4205,0.421,0.421,0.421,0.4215,0.422,0.422,0.42275,0.423,0.424,0.424,0.424,0.425,0.425,0.425,0.425,0.425,0.425,0.425,0.425,0.425,0.425,0.425,0.425,0.425,0.425,0.425,0.425,0.425,0.425,0.425,0.425,0.425,0.425,0.425,0.425,0.425,0.425,0.425,0.0,0.0,0.0,0.0,0.0,0.0,0.0,0.0,0.0,0.0,0.0,0.0,0.0,0.0,0.0,0.0,0.0,0.0,0.0,0.0,0.0,0.0,0.0,0.0,0.0,0.0,0.0,0.0,0.0
3.767,3.767,3.792,3.804,3.817,3.817,3.829,3.829,3.842,3.842,3.855,3.855,3.868,3.868,3.868,3.88,3.893,3.893,3.906,3.92,3.933,3.946,3.973,3.987,4.014,4.028,4.028,4.056,4.07,4.085,4.085,4.114,4.128,4.128,4.158,4.173,4.173,4.173,4.188,4.203,4.203,4.218,4.218,4.233,4.233,4.233,4.249,4.249,4.249,4.249,4.249,4.249,4.249,4.264,4.264,4.264,4.264,4.264,4.264,4.264,4.249,4.249,4.249,4.233,4.233,4.218,4.218,4.233,4.233,4.233,4.249,4.249,4.264,4.264,4.28,4.28,4.28,4.296,4.296,4.296,4.296,4.28,4.28,4.28,4.264,4.264,4.249,4.233,4.203,0.0,0.0,4.114,4.07,4.028,0.0,0.0,0.0,0.0,0.0,0.0,0.0,0.0,0.0,0.0,0.0,0.0,0.0,0.0,0.0,0.738,0.741,0.743,0.7447499999999999,0.747,0.749,0.75,0.751,0.752,0.752,0.753,0.754,0.756,0.757,0.759,0.76,0.762,0.763,0.764,0.765,0.765,0.766,0.766,0.766,0.767,0.767,0.768,0.769,0.7705000000000001,0.77,0.77,0.77,0.77,0.769,0.768,0.768,0.767,0.766,0.765,0.76,0.758,0.755,0.75425,0.751,0.75,0.75,0.75,0.749,0.749,0.749,0.748,0.747,0.745,0.743,0.741,0.735,0.734,0.732,0.729,0.726,0.724,0.722,0.722,0.722,0.721,0.722,0.721,0.721,0.721,0.72,0.719,0.719,0.718,0.717,0.716,0.715,0.714,0.712,0.71,0.71,0.71,0.709,0.709,0.708,0.708,0.708,0.708,0.708,0.707,0.707,0.707,0.707,0.706,0.706,0.706,0.706,0.706,0.706,0.705,0.704,0.703,0.702,0.701,0.701,0.7,0.699,0.699,0.698,0.698,0.696,0.695,0.694,0.693,0.693,0.692,0.691,0.689,0.687,0.686,0.683,0.682,0.0,0.0,0.0,0.67,0.0,0.0,0.0,0.0,0.0,0.0,0.0,0.0,0.0,0.0,0.0,0.0,0.0,0.0,0.0,0.0,0.0,0.0,0.0,0.413,0.413,0.412,0.412,0.412,0.411,0.411,0.411,0.411,0.41,0.41,0.41,0.409,0.409,0.409,0.408,0.407,0.407,0.407,0.407,0.406,0.406,0.406,0.406,0.405,0.405,0.404,0.404,0.403,0.403,0.403,0.402,0.402,0.402,0.402,0.402,0.402,0.401,0.401,0.401,0.401,0.401,0.4,0.4,0.4,0.4,0.4,0.4,0.4,0.4,0.4,0.4,0.4,0.4,0.4,0.4,0.399,0.399,0.399,0.399,0.399,0.399,0.399,0.399,0.399,0.398,0.398,0.398,0.398,0.398,0.398,0.398,0.398,0.398,0.398,0.398,0.398,0.398,0.398,0.398,0.398,0.398,0.398,0.397,0.397,0.397,0.397,0.397,0.397,0.397,0.397,0.397,0.397,0.396,0.396,0.396,0.396,0.396,0.396,0.396,0.395,0.395,0.395,0.394,0.394,0.394,0.394,0.394,0.394,0.393,0.393,0.393,0.393,0.393,0.393,0.393,0.393,0.393,0.393,0.393,0.393,0.393,0.393,0.393,0.393,0.393,0.393,0.393,0.393,0.393,0.393,0.393,0.393,0.393,0.393,0.393,0.393,0.393,0.393,0.393,0.394,0.394,0.394,0.395,0.396,0.396,0.397,0.397,0.397,0.397,0.398,0.398,0.398,0.398,0.398,0.398,0.399,0.399,0.399,0.4,0.4,0.401,0.401,0.4015000000000001,0.402,0.402,0.402,0.402,0.402,0.402,0.403,0.403,0.403,0.403,0.403,0.4035,0.404,0.404375,0.405,0.405,0.406,0.406,0.406,0.406,0.407,0.407,0.407,0.407,0.407,0.408,0.408,0.409,0.409,0.409,0.41,0.41,0.411,0.411,0.411,0.411,0.411,0.412,0.412,0.412,0.413,0.413,0.414,0.414,0.415,0.415,0.415,0.416,0.416,0.416,0.416,0.417,0.417,0.418,0.419,0.419,0.42,0.42,0.4205,0.421,0.421,0.421,0.4215,0.422,0.422,0.423,0.423,0.424,0.424,0.425,0.425,0.425,0.425,0.425,0.425,0.425,0.426,0.426,0.426,0.426,0.426,0.426,0.426,0.426,0.426,0.426,0.426,0.426,0.426,0.425,0.425,0.425,0.425,0.425,0.425,0.425,0.425,0.425,0.425,0.0,0.0,0.0,0.0,0.0,0.0,0.0,0.0,0.0,0.0,0.0,0.0,0.0,0.0,0.0,0.0,0.0,0.0,0.0,0.0,0.0,0.0,0.0,0.0,0.0,0.0,0.0,0.0,0.0
3.767,3.78,3.792,3.804,3.817,3.817,3.829,3.829,3.842,3.842,3.855,3.855,3.868,3.868,3.868,3.88,3.893,3.906,3.906,3.92,3.933,3.946,3.973,3.987,4.014,4.028,4.028,4.056,4.07,4.085,4.085,4.114,4.128,4.128,4.158,4.158,4.173,4.173,4.188,4.188,4.203,4.203,4.218,4.218,4.233,4.233,4.249,4.249,4.249,4.249,4.249,4.249,4.249,4.249,4.264,4.264,4.264,4.249,4.249,4.249,4.249,4.249,4.249,4.233,4.218,4.203,4.218,4.218,4.233,4.233,4.249,4.249,4.264,4.28,4.28,4.28,4.28,4.296,4.296,4.296,4.296,4.28,4.28,4.28,4.264,4.264,4.249,0.0,0.0,0.0,0.0,0.0,0.0,0.0,0.0,0.0,0.0,0.0,0.0,0.0,0.0,0.0,0.0,0.0,0.0,0.732,0.734,0.734,0.735,0.736,0.739,0.74,0.742,0.745,0.747,0.74725,0.749,0.749,0.75,0.75,0.751,0.751,0.752,0.753,0.753,0.754,0.755,0.756,0.757,0.758,0.759,0.759,0.76,0.762,0.762,0.764,0.765,0.764,0.765,0.765,0.765,0.765,0.763,0.762,0.757,0.756,0.753,0.752,0.75,0.749,0.747,0.747,0.745,0.743,0.741,0.74,0.739,0.736,0.735,0.735,0.734,0.733,0.7304999999999999,0.727,0.724,0.722,0.721,0.72,0.72,0.719,0.719,0.719,0.719,0.719,0.719,0.718,0.717,0.716,0.713,0.711,0.709,0.708,0.707,0.707,0.706,0.706,0.705,0.705,0.704,0.703,0.702,0.702,0.7,0.7,0.7,0.7,0.699,0.698,0.699,0.698,0.698,0.698,0.696,0.696,0.695,0.696,0.695,0.694,0.694,0.693,0.693,0.693,0.693,0.693,0.693,0.693,0.692,0.692,0.69,0.69,0.688,0.686,0.685,0.683,0.682,0.68,0.68,0.678,0.676,0.674,0.671,0.668,0.667,0.666,0.661,0.658,0.0,0.0,0.0,0.0,0.0,0.0,0.0,0.0,0.0,0.0,0.0,0.0,0.0,0.0,0.0,0.0,0.0,0.414,0.413,0.413,0.412,0.412,0.412,0.411,0.411,0.411,0.411,0.41,0.41,0.41,0.409,0.409,0.409,0.408,0.407,0.407,0.407,0.407,0.406,0.406,0.406,0.406,0.405,0.405,0.404,0.403,0.403,0.402,0.402,0.402,0.402,0.402,0.401,0.401,0.401,0.401,0.401,0.401,0.4,0.4,0.4,0.4,0.4,0.4,0.4,0.4,0.4,0.4,0.4,0.4,0.4,0.4,0.399,0.399,0.399,0.399,0.399,0.399,0.399,0.399,0.399,0.398,0.398,0.398,0.398,0.398,0.398,0.398,0.398,0.398,0.398,0.398,0.398,0.398,0.398,0.398,0.398,0.398,0.398,0.397,0.397,0.397,0.397,0.397,0.397,0.397,0.397,0.397,0.396,0.396,0.396,0.396,0.396,0.396,0.396,0.396,0.395,0.395,0.395,0.395,0.394,0.394,0.394,0.394,0.394,0.393,0.393,0.393,0.393,0.393,0.393,0.393,0.393,0.393,0.393,0.393,0.393,0.393,0.392,0.392,0.392,0.392,0.392,0.393,0.393,0.393,0.393,0.393,0.393,0.393,0.393,0.393,0.393,0.393,0.393,0.393,0.393,0.393,0.394,0.394,0.395,0.395,0.396,0.397,0.397,0.397,0.397,0.397,0.398,0.398,0.398,0.398,0.398,0.398,0.399,0.399,0.399,0.4,0.4,0.401,0.401,0.402,0.402,0.402,0.402,0.402,0.402,0.402,0.403,0.403,0.403,0.403,0.40337500000000004,0.404,0.404,0.4045,0.405,0.406,0.406,0.406,0.406,0.407,0.407,0.407,0.407,0.407,0.408,0.408,0.408,0.409,0.409,0.41,0.41,0.411,0.411,0.411,0.411,0.411,0.412,0.412,0.413,0.413,0.414,0.414,0.415,0.415,0.415,0.416,0.416,0.416,0.416,0.417,0.417,0.418,0.418,0.419,0.4195,0.42,0.4205,0.421,0.421,0.421,0.422,0.422,0.423,0.423,0.424,0.424,0.425,0.425,0.425,0.425,0.425,0.426,0.426,0.426,0.426,0.426,0.426,0.426,0.426,0.426,0.426,0.426,0.426,0.426,0.426,0.426,0.426,0.426,0.426,0.426,0.426,0.426,0.425,0.425,0.425,0.425,0.425,0.425,0.0,0.0,0.0,0.0,0.0,0.0,0.0,0.0,0.0,0.0,0.0,0.0,0.0,0.0,0.0,0.0,0.0,0.0,0.0,0.0,0.0,0.0,0.0,0.0,0.0,0.0,0.0,0.0,0.0
3.78,3.792,3.804,3.804,3.817,3.817,3.829,3.829,3.842,3.842,3.855,3.855,3.868,3.868,3.868,3.88,3.893,3.906,3.92,3.933,3.946,3.973,3.973,4.014,4.014,4.028,4.056,4.056,4.07,4.085,4.085,4.114,4.128,4.128,4.128,4.158,4.173,4.173,4.188,4.188,4.188,4.203,4.218,4.218,4.233,4.233,4.249,4.249,4.249,4.249,4.249,4.249,4.249,4.249,4.249,4.249,4.264,4.249,4.249,4.249,4.249,4.233,4.233,4.233,4.203,4.203,4.218,4.218,4.218,4.233,4.233,4.249,4.264,4.264,4.28,4.28,4.28,4.28,4.296,4.296,4.296,4.28,4.28,4.28,4.264,4.264,4.249,0.0,0.0,0.0,0.0,0.0,0.0,0.0,0.0,0.0,0.0,0.0,0.0,0.0,0.0,0.0,0.0,0.0,0.728,0.73,0.732,0.733,0.734,0.735,0.735,0.736,0.737,0.74,0.741,0.743,0.745,0.747,0.747,0.748,0.749,0.75,0.75,0.75,0.75,0.751,0.751,0.752,0.752,0.752,0.752,0.752,0.753,0.753,0.754,0.754,0.754,0.754,0.754,0.754,0.753,0.751,0.75,0.748,0.745,0.744,0.74,0.738,0.736,0.736,0.735,0.735,0.735,0.733,0.734,0.734,0.732,0.728,0.727,0.722,0.721,0.72,0.719,0.716,0.716,0.714,0.714,0.714,0.714,0.714,0.716,0.715,0.716,0.715,0.714,0.712,0.71,0.708,0.707,0.705,0.706,0.704,0.702,0.7,0.699,0.696,0.695,0.695,0.694,0.694,0.694,0.693,0.693,0.693,0.693,0.693,0.693,0.693,0.693,0.693,0.693,0.693,0.692,0.692,0.691,0.69,0.69,0.689,0.688,0.687,0.686,0.686,0.686,0.685,0.684,0.683,0.682,0.682,0.68,0.68,0.68,0.679,0.678,0.677,0.674,0.673,0.671,0.67,0.669,0.668,0.667,0.665,0.66,0.658,0.657,0.656,0.655,0.653,0.0,0.0,0.0,0.0,0.0,0.0,0.0,0.0,0.0,0.0,0.0,0.0,0.0,0.0,0.0,0.0,0.414,0.413,0.413,0.413,0.412,0.412,0.412,0.412,0.411,0.411,0.411,0.411,0.41,0.41,0.41,0.409,0.408,0.408,0.407,0.407,0.407,0.407,0.406,0.406,0.406,0.405,0.405,0.404,0.403,0.402,0.402,0.402,0.402,0.401,0.401,0.401,0.401,0.401,0.4,0.4,0.4,0.4,0.4,0.4,0.399,0.399,0.399,0.399,0.399,0.4,0.4,0.399,0.399,0.399,0.399,0.399,0.399,0.399,0.399,0.399,0.399,0.398,0.398,0.398,0.398,0.398,0.398,0.398,0.398,0.398,0.398,0.398,0.398,0.398,0.398,0.398,0.398,0.398,0.398,0.398,0.398,0.397,0.397,0.397,0.397,0.397,0.397,0.397,0.397,0.396,0.396,0.396,0.396,0.396,0.396,0.396,0.395,0.395,0.395,0.395,0.395,0.394,0.394,0.394,0.394,0.394,0.394,0.393,0.393,0.393,0.393,0.393,0.393,0.393,0.393,0.393,0.393,0.392,0.392,0.392,0.392,0.392,0.392,0.392,0.392,0.393,0.393,0.393,0.393,0.392,0.392,0.393,0.393,0.393,0.393,0.393,0.393,0.393,0.393,0.393,0.394,0.394,0.394,0.395,0.396,0.396,0.397,0.397,0.397,0.397,0.398,0.398,0.398,0.398,0.398,0.398,0.398,0.399,0.399,0.4,0.4,0.401,0.401,0.402,0.402,0.402,0.402,0.402,0.402,0.402,0.402,0.403,0.403,0.403,0.403,0.404,0.404,0.4045,0.405,0.405,0.406,0.406,0.406,0.407,0.407,0.407,0.407,0.407,0.408,0.408,0.408,0.409,0.409,0.41,0.41,0.411,0.411,0.411,0.411,0.412,0.412,0.412,0.413,0.413,0.414,0.414,0.415,0.415,0.415,0.416,0.416,0.416,0.417,0.417,0.417,0.418,0.419,0.4195,0.42,0.42,0.42062499999999997,0.421,0.421,0.421,0.422,0.423,0.424,0.424,0.425,0.425,0.425,0.425,0.426,0.426,0.426,0.426,0.426,0.426,0.426,0.427,0.427,0.427,0.427,0.427,0.427,0.427,0.427,0.427,0.427,0.427,0.426,0.426,0.426,0.426,0.426,0.426,0.426,0.426,0.425,0.425,0.425,0.425,0.0,0.0,0.0,0.0,0.0,0.0,0.0,0.0,0.0,0.0,0.0,0.0,0.0,0.0,0.0,0.0,0.0,0.0,0.0,0.0,0.0,0.0,0.0,0.0,0.0,0.0,0.0,0.0,0.0
3.78,3.792,3.804,3.804,3.817,3.817,3.829,3.829,3.842,3.855,3.855,3.855,3.868,3.868,3.868,3.88,3.893,3.906,3.92,3.933,3.946,3.973,3.987,4.014,4.028,4.028,4.056,4.07,4.07,4.085,4.085,4.114,4.128,4.128,4.128,4.158,4.158,4.173,4.173,4.188,4.188,4.203,4.218,4.218,4.233,4.233,4.249,4.249,4.249,4.249,4.249,4.249,4.249,4.249,4.249,4.249,4.249,4.249,4.249,4.249,4.249,4.233,4.218,4.218,4.203,4.203,4.203,4.203,4.218,4.218,4.233,4.249,4.264,4.264,4.264,4.28,4.28,4.28,4.296,4.296,4.296,4.28,4.28,0.0,0.0,0.0,0.0,0.0,0.0,0.0,0.0,0.0,0.0,0.0,0.0,0.0,0.0,0.0,0.0,0.0,0.0,0.0,0.723,0.724,0.725,0.727,0.728,0.73,0.731,0.733,0.733,0.734,0.735,0.735,0.736,0.737,0.738,0.739,0.741,0.742,0.744,0.745,0.746,0.747,0.748,0.748,0.748,0.749,0.749,0.749,0.748,0.748,0.749,0.748,0.748,0.748,0.747,0.746,0.745,0.743,0.741,0.73775,0.735,0.733,0.732,0.728,0.727,0.724,0.726,0.725,0.727,0.727,0.726,0.724,0.722,0.721,0.72,0.719,0.711,0.71,0.708,0.707,0.706,0.706,0.706,0.706,0.706,0.706,0.706,0.706,0.707,0.708,0.708,0.707,0.707,0.706,0.705,0.704,0.701,0.696,0.695,0.694,0.693,0.693,0.692,0.691,0.691,0.69,0.69,0.689,0.69,0.689,0.688,0.689,0.69,0.688,0.687,0.687,0.688,0.686,0.686,0.684,0.683,0.683,0.682,0.68225,0.681,0.681,0.68,0.68,0.68,0.679,0.6775,0.677,0.6767500000000001,0.677,0.676,0.675,0.673,0.672,0.671,0.67,0.669,0.669,0.668,0.667,0.667,0.666,0.665,0.664,0.66,0.658,0.657,0.655,0.655,0.654,0.652,0.6495000000000001,0.648,0.646,0.0,0.0,0.0,0.0,0.0,0.0,0.0,0.0,0.0,0.0,0.0,0.0,0.0,0.0,0.0,0.0,0.0,0.414,0.413,0.413,0.412,0.412,0.412,0.411,0.411,0.411,0.411,0.411,0.41,0.41,0.41,0.409,0.409,0.408,0.408,0.407,0.407,0.406,0.406,0.406,0.405,0.404,0.403,0.402,0.402,0.402,0.401,0.401,0.401,0.401,0.401,0.4,0.4,0.4,0.4,0.4,0.399,0.399,0.399,0.399,0.399,0.399,0.399,0.399,0.399,0.399,0.399,0.399,0.399,0.399,0.399,0.399,0.399,0.399,0.398,0.398,0.398,0.398,0.398,0.398,0.398,0.398,0.398,0.398,0.398,0.398,0.398,0.398,0.398,0.398,0.398,0.398,0.398,0.397,0.397,0.397,0.397,0.397,0.397,0.397,0.397,0.397,0.397,0.396,0.396,0.396,0.396,0.396,0.396,0.396,0.395,0.395,0.395,0.395,0.395,0.394,0.394,0.394,0.394,0.394,0.393,0.393,0.393,0.393,0.393,0.393,0.393,0.393,0.393,0.393,0.392,0.392,0.392,0.392,0.392,0.392,0.392,0.392,0.392,0.392,0.392,0.392,0.392,0.392,0.392,0.392,0.393,0.393,0.393,0.393,0.393,0.393,0.393,0.393,0.394,0.394,0.394,0.395,0.395,0.396,0.397,0.397,0.397,0.397,0.398,0.398,0.398,0.398,0.398,0.398,0.398,0.399,0.399,0.399,0.4,0.4,0.401,0.401,0.402,0.402,0.402,0.402,0.402,0.402,0.402,0.402,0.403,0.403,0.403,0.404,0.404,0.4045,0.405,0.405,0.406,0.406,0.406,0.406,0.407,0.407,0.407,0.407,0.407,0.408,0.408,0.409,0.409,0.41,0.41,0.411,0.411,0.411,0.411,0.412,0.412,0.413,0.413,0.414,0.414,0.415,0.415,0.415,0.416,0.416,0.416,0.416,0.417,0.417,0.418,0.418,0.419,0.4195,0.42,0.42,0.421,0.421,0.421,0.422,0.423,0.424,0.424,0.425,0.425,0.425,0.426,0.426,0.426,0.426,0.426,0.427,0.427,0.427,0.427,0.427,0.427,0.427,0.428,0.427,0.428,0.428,0.428,0.428,0.428,0.427,0.427,0.427,0.427,0.426,0.426,0.426,0.426,0.426,0.426,0.426,0.425,0.425,0.0,0.0,0.0,0.0,0.0,0.0,0.0,0.0,0.0,0.0,0.0,0.0,0.0,0.0,0.0,0.0,0.0,0.0,0.0,0.0,0.0,0.0,0.0,0.0,0.0,0.0,0.0,0.0,0.0
3.792,3.804,3.804,3.804,3.817,3.829,3.829,3.842,3.842,3.855,3.855,3.855,3.868,3.868,3.868,3.88,3.893,3.906,3.92,3.933,3.973,3.987,4.014,4.014,4.028,4.056,4.07,4.07,4.07,4.085,4.114,4.114,4.128,4.128,4.128,4.158,4.158,4.173,4.173,4.188,4.188,4.203,4.203,4.218,4.233,4.233,4.233,4.249,4.249,4.249,4.249,4.249,4.249,4.249,4.249,4.249,4.249,4.249,4.249,4.233,4.233,4.233,4.218,4.203,4.203,4.203,4.203,4.203,4.203,4.218,4.218,4.249,4.249,4.249,4.264,4.264,4.28,4.28,4.296,4.296,4.296,0.0,0.0,0.0,0.0,0.0,0.0,0.0,0.0,0.0,0.0,0.0,0.0,0.0,0.0,0.0,0.0,0.0,0.0,0.0,0.72,0.721,0.721,0.722,0.723,0.724,0.725,0.727,0.727,0.728,0.729,0.729,0.732,0.732,0.734,0.734,0.734,0.735,0.736,0.737,0.738,0.739,0.741,0.742,0.744,0.744,0.743,0.744,0.743,0.743,0.742,0.741,0.74,0.739,0.738,0.738,0.736,0.735,0.734,0.731,0.726,0.724,0.722,0.72,0.72,0.719,0.719,0.719,0.719,0.719,0.719,0.719,0.719,0.718,0.712,0.7095,0.708,0.7057499999999999,0.702,0.699,0.698,0.697,0.695,0.695,0.695,0.695,0.696,0.698,0.699,0.7,0.701,0.702,0.701,0.7,0.7,0.696,0.694,0.693,0.692,0.691,0.689,0.688,0.687,0.686,0.685,0.684,0.684,0.683,0.683,0.683,0.683,0.683,0.682,0.682,0.682,0.681,0.68,0.68,0.68,0.68,0.678,0.678,0.678,0.678,0.677,0.676,0.675,0.674,0.673,0.673,0.671,0.671,0.669,0.669,0.669,0.668,0.668,0.667,0.667,0.666,0.666,0.665,0.663,0.663,0.662,0.66,0.66,0.658,0.658,0.657,0.656,0.655,0.655,0.654,0.652,0.65,0.648,0.645,0.645,0.642,0.641,0.64,0.637,0.0,0.0,0.0,0.0,0.0,0.0,0.0,0.0,0.0,0.0,0.0,0.0,0.0,0.0,0.415,0.414,0.414,0.414,0.414,0.413,0.413,0.412,0.412,0.411,0.411,0.411,0.411,0.411,0.411,0.41,0.41,0.409,0.409,0.408,0.407,0.407,0.406,0.406,0.405,0.403,0.402,0.402,0.402,0.401,0.401,0.401,0.4,0.4,0.4,0.4,0.4,0.4,0.4,0.4,0.399,0.399,0.399,0.399,0.399,0.399,0.399,0.399,0.399,0.399,0.399,0.399,0.399,0.399,0.399,0.399,0.398,0.398,0.398,0.398,0.398,0.398,0.398,0.398,0.398,0.398,0.398,0.398,0.398,0.398,0.398,0.398,0.398,0.398,0.398,0.398,0.397,0.397,0.397,0.397,0.397,0.397,0.397,0.397,0.397,0.396,0.396,0.396,0.396,0.396,0.395,0.395,0.395,0.395,0.395,0.395,0.395,0.394,0.394,0.394,0.394,0.394,0.394,0.393,0.393,0.393,0.393,0.393,0.393,0.393,0.393,0.393,0.392,0.392,0.392,0.392,0.392,0.392,0.392,0.392,0.392,0.392,0.392,0.392,0.392,0.392,0.392,0.392,0.392,0.392,0.393,0.393,0.393,0.393,0.393,0.393,0.393,0.394,0.394,0.394,0.395,0.395,0.396,0.397,0.397,0.397,0.397,0.398,0.398,0.398,0.398,0.398,0.398,0.398,0.399,0.399,0.399,0.4,0.4,0.401,0.401,0.402,0.402,0.402,0.402,0.402,0.402,0.402,0.402,0.403,0.403,0.403,0.404,0.404,0.404375,0.405,0.405,0.406,0.406,0.406,0.406,0.407,0.407,0.407,0.407,0.407,0.408,0.408,0.409,0.409,0.41,0.41,0.411,0.411,0.411,0.412,0.412,0.413,0.413,0.414,0.414,0.415,0.415,0.415,0.416,0.416,0.416,0.416,0.417,0.417,0.418,0.418,0.419,0.419,0.41962499999999997,0.42,0.42,0.421,0.421,0.421,0.422,0.423,0.424,0.425,0.425,0.425,0.426,0.426,0.426,0.426,0.427,0.427,0.427,0.428,0.427,0.428,0.428,0.428,0.428,0.428,0.429,0.429,0.429,0.429,0.429,0.429,0.429,0.428,0.428,0.428,0.427,0.427,0.426,0.426,0.426,0.426,0.426,0.425,0.426,0.0,0.0,0.0,0.0,0.0,0.0,0.0,0.0,0.0,0.0,0.0,0.0,0.0,0.0,0.0,0.0,0.0,0.0,0.0,0.0,0.0,0.0,0.0,0.0,0.0,0.0,0.0,0.0,0.0
3.804,3.804,3.804,3.817,3.817,3.829,3.829,3.842,3.855,3.855,3.855,3.855,3.868,3.868,3.868,3.88,3.893,3.906,3.92,3.946,3.973,3.987,4.014,4.028,4.056,4.07,4.07,4.07,4.085,4.085,4.114,4.114,4.128,4.128,4.128,4.128,4.158,4.158,4.173,4.188,4.188,4.203,4.203,4.218,4.218,4.233,4.233,4.249,4.249,4.249,4.249,4.249,4.249,4.249,4.249,4.233,4.233,4.233,4.218,4.218,4.218,4.218,4.203,4.203,4.188,4.188,4.188,4.188,4.188,4.203,4.218,4.233,4.249,4.249,4.264,4.264,4.28,4.28,0.0,0.0,0.0,0.0,0.0,0.0,0.0,0.0,0.0,0.0,0.0,0.0,0.0,0.0,0.0,0.0,0.0,0.0,0.0,0.0,0.716,0.717,0.719,0.719,0.72,0.721,0.721,0.722,0.722,0.723,0.723,0.724,0.724,0.724,0.725,0.727,0.727,0.728,0.729,0.732,0.733,0.734,0.735,0.735,0.736,0.737,0.738,0.739,0.739,0.739,0.738,0.737,0.736,0.735,0.734,0.734,0.73,0.727,0.724,0.722,0.721,0.72,0.719,0.717,0.71425,0.712,0.712,0.71,0.71,0.7105,0.709,0.711,0.714,0.711,0.706,0.7032499999999999,0.702,0.698,0.696,0.694,0.692,0.691,0.69,0.69,0.69,0.69,0.69,0.692,0.692,0.693,0.693,0.693,0.693,0.693,0.693,0.693,0.692,0.69,0.688,0.686,0.684,0.682,0.681,0.681,0.68,0.68,0.68,0.68,0.68,0.68,0.68,0.68,0.68,0.68,0.679,0.678,0.676,0.675,0.674,0.673,0.671,0.67,0.669,0.669,0.669,0.669,0.669,0.668,0.668,0.668,0.667,0.667,0.666,0.666,0.665,0.663,0.662,0.662,0.66,0.658,0.658,0.657,0.657,0.657,0.656,0.656,0.656,0.656,0.656,0.655,0.655,0.655,0.654,0.653,0.652,0.649,0.647,0.646,0.645,0.644,0.642,0.64,0.638,0.636,0.634,0.633,0.0,0.0,0.0,0.0,0.0,0.0,0.0,0.0,0.0,0.0,0.0,0.0,0.0,0.415,0.415,0.415,0.415,0.415,0.415,0.414,0.414,0.413,0.413,0.412,0.412,0.412,0.412,0.411,0.411,0.411,0.411,0.41,0.409,0.408,0.407,0.406,0.406,0.405,0.403,0.402,0.402,0.402,0.401,0.401,0.4,0.4,0.4,0.4,0.4,0.4,0.4,0.4,0.4,0.399,0.399,0.399,0.399,0.399,0.399,0.399,0.399,0.399,0.399,0.399,0.399,0.399,0.399,0.399,0.398,0.398,0.398,0.398,0.398,0.398,0.398,0.398,0.398,0.398,0.398,0.398,0.398,0.398,0.398,0.398,0.398,0.398,0.398,0.398,0.397,0.397,0.397,0.397,0.397,0.397,0.397,0.397,0.397,0.397,0.396,0.396,0.396,0.396,0.395,0.395,0.395,0.395,0.395,0.395,0.395,0.394,0.394,0.394,0.394,0.394,0.394,0.394,0.393,0.393,0.393,0.393,0.393,0.393,0.393,0.393,0.393,0.392,0.392,0.392,0.392,0.392,0.392,0.392,0.392,0.392,0.392,0.392,0.392,0.392,0.392,0.392,0.392,0.392,0.392,0.392,0.393,0.393,0.393,0.393,0.393,0.393,0.393,0.394,0.394,0.394,0.395,0.396,0.396,0.397,0.397,0.397,0.398,0.398,0.398,0.398,0.398,0.398,0.398,0.398,0.399,0.399,0.4,0.4,0.401,0.401,0.402,0.402,0.402,0.402,0.402,0.402,0.402,0.402,0.402,0.403,0.403,0.403,0.404,0.404,0.4045,0.405,0.406,0.406,0.406,0.406,0.407,0.407,0.407,0.407,0.407,0.408,0.408,0.409,0.41,0.41,0.411,0.411,0.411,0.411,0.412,0.412,0.413,0.414,0.414,0.415,0.415,0.415,0.416,0.416,0.416,0.416,0.417,0.417,0.418,0.418,0.419,0.419,0.4195,0.42,0.42,0.42,0.421,0.421,0.422,0.422,0.424,0.424,0.425,0.425,0.425,0.426,0.426,0.426,0.427,0.427,0.427,0.428,0.428,0.428,0.428,0.428,0.429,0.429,0.429,0.429,0.429,0.429,0.429,0.43,0.43,0.429,0.429,0.429,0.428,0.428,0.428,0.427,0.426,0.426,0.426,0.426,0.426,0.426,0.0,0.0,0.0,0.0,0.0,0.0,0.0,0.0,0.0,0.0,0.0,0.0,0.0,0.0,0.0,0.0,0.0,0.0,0.0,0.0,0.0,0.0,0.0,0.0,0.0,0.0,0.0,0.0,0.0
3.804,3.804,3.817,3.817,3.817,3.829,3.842,3.842,3.855,3.855,3.855,3.855,3.868,3.868,3.868,3.88,3.893,3.906,3.92,3.946,3.973,4.014,4.028,4.056,4.056,4.07,4.07,4.085,4.085,4.114,4.114,4.128,4.128,4.128,4.128,4.158,4.158,4.173,4.173,4.188,4.188,4.203,4.203,4.218,4.218,4.233,4.233,4.233,4.233,4.233,4.249,4.249,4.233,4.233,4.233,4.218,4.218,4.218,4.203,4.203,4.203,4.203,4.188,4.173,4.173,4.173,4.173,4.188,4.188,4.188,4.203,4.218,4.233,4.249,0.0,0.0,0.0,0.0,0.0,0.0,0.0,0.0,0.0,0.0,0.0,0.0,0.0,0.0,0.0,0.0,0.0,0.0,0.0,0.711,0.711,0.71,0.712,0.713,0.714,0.716,0.7165,0.717,0.718,0.719,0.719,0.72,0.72,0.72,0.72,0.7204999999999999,0.721,0.721,0.722,0.722,0.722,0.7235,0.724,0.724,0.726,0.728,0.731,0.733,0.734,0.734,0.735,0.735,0.735,0.735,0.734,0.733,0.727,0.724,0.722,0.721,0.721,0.72,0.718,0.716,0.713,0.709,0.708,0.707,0.706,0.706,0.706,0.706,0.705,0.704,0.702,0.702,0.699,0.0,0.6925,0.687,0.687,0.688,0.686,0.684,0.683,0.682,0.682,0.682,0.682,0.683,0.684,0.68575,0.686,0.687,0.688,0.6872500000000001,0.687,0.687,0.686,0.684,0.682,0.6815,0.68,0.679,0.679,0.678,0.677,0.677,0.677,0.678,0.678,0.677,0.677,0.676,0.676,0.675,0.674,0.672,0.671,0.669,0.668,0.668,0.668,0.667,0.667,0.666,0.665,0.664,0.664,0.664,0.663,0.662,0.661,0.659,0.658,0.657,0.657,0.657,0.656,0.656,0.655,0.655,0.655,0.655,0.655,0.655,0.654,0.654,0.653,0.653,0.653,0.653,0.652,0.65,0.649,0.648,0.647,0.646,0.645,0.644,0.644,0.642,0.64,0.64,0.638,0.636,0.635,0.634,0.632,0.631,0.629,0.0,0.0,0.0,0.0,0.0,0.0,0.0,0.0,0.0,0.0,0.0,0.0,0.416,0.416,0.416,0.416,0.416,0.415,0.415,0.414,0.414,0.414,0.414,0.413,0.413,0.413,0.412,0.412,0.411,0.411,0.411,0.41,0.409,0.408,0.407,0.406,0.405,0.402,0.402,0.402,0.401,0.401,0.4,0.4,0.4,0.4,0.4,0.4,0.4,0.4,0.4,0.399,0.399,0.399,0.399,0.399,0.399,0.399,0.399,0.399,0.399,0.399,0.399,0.399,0.399,0.399,0.398,0.398,0.398,0.398,0.398,0.398,0.398,0.398,0.398,0.398,0.398,0.398,0.398,0.398,0.398,0.398,0.398,0.398,0.398,0.398,0.398,0.397,0.397,0.397,0.397,0.397,0.397,0.397,0.397,0.397,0.397,0.396,0.396,0.396,0.396,0.395,0.395,0.395,0.395,0.395,0.395,0.394,0.394,0.394,0.394,0.394,0.394,0.394,0.393,0.393,0.393,0.393,0.393,0.393,0.393,0.393,0.393,0.392,0.392,0.392,0.392,0.392,0.392,0.392,0.392,0.392,0.392,0.392,0.392,0.392,0.392,0.392,0.392,0.392,0.392,0.392,0.392,0.393,0.393,0.393,0.393,0.393,0.393,0.393,0.394,0.394,0.394,0.395,0.396,0.396,0.397,0.397,0.397,0.398,0.398,0.398,0.398,0.398,0.398,0.398,0.398,0.399,0.399,0.4,0.4,0.401,0.401,0.402,0.402,0.402,0.402,0.402,0.402,0.402,0.402,0.402,0.403,0.403,0.403,0.404,0.404,0.4045,0.405,0.406,0.406,0.406,0.406,0.407,0.407,0.407,0.407,0.408,0.408,0.409,0.409,0.41,0.41,0.411,0.411,0.411,0.412,0.412,0.413,0.414,0.414,0.415,0.415,0.415,0.416,0.416,0.416,0.417,0.417,0.417,0.418,0.4185,0.419,0.419,0.42,0.42,0.42,0.42,0.421,0.421,0.421,0.422,0.423,0.424,0.425,0.425,0.425,0.426,0.426,0.426,0.427,0.427,0.428,0.428,0.428,0.429,0.429,0.429,0.429,0.429,0.429,0.429,0.43,0.43,0.43,0.43,0.43,0.43,0.43,0.43,0.429,0.429,0.429,0.428,0.428,0.427,0.426,0.426,0.426,0.426,0.426,0.0,0.0,0.0,0.0,0.0,0.0,0.0,0.0,0.0,0.0,0.0,0.0,0.0,0.0,0.0,0.0,0.0,0.0,0.0,0.0,0.0,0.0,0.0,0.0,0.0,0.0,0.0,0.0,0.0
3.804,3.817,3.817,3.817,3.829,3.829,3.842,3.855,3.855,3.855,3.855,3.855,3.868,3.868,3.88,3.88,3.893,3.906,3.933,3.946,3.973,4.014,4.028,4.056,4.056,4.07,4.085,4.114,4.114,4.114,4.114,4.128,4.158,4.158,4.158,4.158,4.158,4.173,4.173,4.188,4.188,4.203,4.203,4.203,4.218,4.218,4.233,4.233,4.233,4.233,4.233,4.233,4.218,4.218,4.203,4.203,4.203,4.188,4.188,4.188,4.188,4.173,4.173,4.173,4.173,4.158,4.173,4.173,4.158,4.173,4.188,4.203,4.233,4.249,0.0,0.0,0.0,0.0,0.0,0.0,0.0,0.0,0.0,0.0,0.0,0.0,0.0,0.0,0.0,0.0,0.0,0.0,0.709,0.709,0.709,0.709,0.71,0.711,0.712,0.713,0.714,0.715,0.716,0.716,0.717,0.717,0.717,0.717,0.717,0.717,0.718,0.718,0.718,0.719,0.719,0.72,0.72,0.72,0.722,0.722,0.724,0.72625,0.727,0.73,0.732,0.733,0.733,0.733,0.727,0.723,0.721,0.719,0.718,0.715,0.714,0.712,0.707,0.706,0.705,0.704,0.702,0.701,0.7,0.698,0.699,0.698,0.696,0.695,0.693,0.693,0.692,0.6855,0.679,0.678,0.68,0.68,0.68,0.679,0.679,0.679,0.679,0.68,0.68,0.68,0.68,0.681,0.681,0.681,0.681,0.681,0.681,0.68,0.68,0.679,0.678,0.674,0.673,0.673,0.672,0.671,0.671,0.671,0.671,0.671,0.671,0.67,0.67,0.669,0.669,0.668,0.668,0.667,0.666,0.665,0.663,0.662,0.662,0.661,0.658,0.6585,0.657,0.656,0.657,0.656,0.655,0.655,0.655,0.655,0.655,0.654,0.654,0.654,0.653,0.653,0.651,0.65,0.65,0.65,0.65,0.6495,0.649,0.648,0.647,0.646,0.646,0.645,0.645,0.644,0.644,0.642,0.641,0.64,0.638,0.638,0.636,0.636,0.635,0.634,0.634,0.633,0.633,0.632,0.631,0.628,0.624,0.622,0.0,0.0,0.0,0.0,0.0,0.0,0.0,0.0,0.0,0.0,0.0,0.0,0.0,0.0,0.0,0.416,0.416,0.415,0.415,0.415,0.414,0.415,0.415,0.415,0.414,0.414,0.414,0.413,0.413,0.411,0.411,0.41,0.408,0.407,0.406,0.405,0.402,0.402,0.402,0.401,0.401,0.4,0.4,0.4,0.4,0.4,0.4,0.4,0.4,0.4,0.399,0.399,0.399,0.399,0.399,0.399,0.399,0.399,0.399,0.399,0.399,0.399,0.399,0.399,0.398,0.398,0.398,0.398,0.398,0.398,0.398,0.398,0.398,0.398,0.398,0.398,0.398,0.398,0.398,0.398,0.398,0.398,0.398,0.398,0.398,0.398,0.397,0.397,0.397,0.397,0.397,0.397,0.397,0.397,0.397,0.397,0.396,0.396,0.396,0.396,0.396,0.395,0.395,0.395,0.395,0.395,0.394,0.394,0.394,0.394,0.394,0.394,0.394,0.393,0.393,0.393,0.393,0.393,0.393,0.393,0.393,0.393,0.392,0.392,0.392,0.392,0.392,0.392,0.392,0.392,0.392,0.392,0.392,0.392,0.392,0.392,0.392,0.392,0.392,0.392,0.392,0.392,0.393,0.393,0.393,0.393,0.393,0.393,0.393,0.394,0.394,0.394,0.395,0.396,0.396,0.397,0.397,0.397,0.397,0.398,0.398,0.398,0.398,0.398,0.398,0.398,0.399,0.399,0.4,0.4,0.401,0.401,0.402,0.402,0.402,0.402,0.402,0.402,0.402,0.402,0.402,0.402,0.403,0.403,0.404,0.404,0.4045,0.405,0.405,0.406,0.406,0.406,0.407,0.407,0.407,0.407,0.408,0.408,0.409,0.409,0.41,0.411,0.411,0.411,0.411,0.412,0.412,0.413,0.414,0.415,0.415,0.415,0.416,0.416,0.416,0.417,0.417,0.418,0.418,0.41875,0.419,0.42,0.42,0.42,0.42,0.42,0.421,0.421,0.421,0.421,0.422,0.423,0.424,0.425,0.425,0.425,0.426,0.426,0.427,0.427,0.428,0.428,0.428,0.429,0.429,0.429,0.429,0.429,0.429,0.429,0.43,0.43,0.43,0.43,0.43,0.43,0.43,0.43,0.43,0.43,0.429,0.429,0.429,0.428,0.428,0.427,0.427,0.427,0.426,0.426,0.0,0.0,0.0,0.0,0.0,0.0,0.0,0.0,0.0,0.0,0.0,0.0,0.0,0.0,0.0,0.0,0.0,0.0,0.0,0.0,0.0,0.0,0.0,0.0,0.0,0.0,0.0,0.0,0.0
3.817,3.817,3.817,3.829,3.829,3.842,3.842,3.855,3.855,3.855,3.855,3.868,3.868,3.868,3.88,3.88,3.893,3.906,3.933,3.946,3.973,3.987,4.014,4.028,4.056,4.07,4.07,4.085,4.114,4.114,4.114,4.128,4.158,4.158,4.158,4.158,4.173,4.173,4.173,4.188,4.188,4.188,4.203,4.203,4.218,4.218,4.218,4.218,4.218,4.218,4.218,4.203,4.203,4.188,4.188,4.188,4.173,4.173,4.173,4.158,4.158,4.158,4.158,4.158,4.128,4.158,4.128,4.128,4.128,4.158,4.173,4.173,4.188,0.0,0.0,0.0,0.0,0.0,0.0,0.0,0.0,0.0,0.0,0.0,0.0,0.0,0.0,0.0,0.0,0.704,0.705,0.706,0.706,0.707,0.708,0.708,0.708,0.709,0.709,0.709,0.71,0.711,0.712,0.712,0.712,0.712,0.712,0.711,0.712,0.712,0.711,0.711,0.712,0.712,0.714,0.714,0.715,0.715,0.717,0.719,0.72,0.721,0.72275,0.724,0.72625,0.727,0.7269999999999999,0.724,0.722,0.72,0.718,0.706,0.706,0.703,0.702,0.699,0.697,0.694,0.693,0.693,0.693,0.693,0.693,0.693,0.693,0.692,0.689,0.686,0.683,0.681,0.678,0.67,0.67,0.672,0.672,0.673,0.673,0.673,0.673,0.673,0.675,0.676,0.676,0.677,0.678,0.678,0.677,0.677,0.677,0.674,0.673,0.67,0.67,0.669,0.668,0.668,0.668,0.668,0.668,0.668,0.668,0.668,0.667,0.668,0.668,0.667,0.667,0.665,0.664,0.662,0.662,0.658,0.657,0.655,0.655,0.655,0.655,0.654,0.654,0.653,0.653,0.651,0.65,0.651,0.65,0.649,0.648,0.648,0.647,0.647,0.647,0.647,0.646,0.645,0.645,0.644,0.644,0.644,0.644,0.644,0.644,0.644,0.644,0.643,0.642,0.641,0.639,0.638,0.636,0.634,0.634,0.633,0.633,0.633,0.633,0.632,0.632,0.632,0.632,0.632,0.631,0.63,0.625,0.624,0.622,0.621,0.619,0.614,0.0,0.0,0.0,0.0,0.0,0.0,0.0,0.0,0.0,0.0,0.0,0.0,0.0,0.0,0.416,0.416,0.415,0.415,0.415,0.415,0.415,0.415,0.415,0.415,0.415,0.414,0.414,0.412,0.411,0.41,0.408,0.407,0.406,0.404,0.402,0.402,0.401,0.401,0.4,0.4,0.4,0.4,0.4,0.4,0.4,0.4,0.4,0.399,0.399,0.399,0.399,0.399,0.399,0.399,0.399,0.399,0.399,0.399,0.399,0.399,0.399,0.398,0.398,0.398,0.398,0.398,0.398,0.398,0.398,0.398,0.398,0.398,0.398,0.398,0.398,0.398,0.398,0.398,0.398,0.398,0.398,0.398,0.398,0.398,0.398,0.397,0.397,0.397,0.397,0.397,0.397,0.397,0.397,0.397,0.397,0.396,0.396,0.396,0.396,0.395,0.395,0.395,0.395,0.395,0.394,0.394,0.394,0.394,0.394,0.394,0.394,0.393,0.393,0.393,0.393,0.393,0.393,0.393,0.393,0.393,0.393,0.392,0.392,0.392,0.392,0.392,0.392,0.392,0.392,0.392,0.392,0.392,0.392,0.392,0.392,0.392,0.392,0.392,0.392,0.393,0.393,0.393,0.393,0.393,0.393,0.393,0.394,0.394,0.394,0.394,0.395,0.396,0.396,0.397,0.397,0.397,0.397,0.398,0.398,0.398,0.398,0.398,0.398,0.398,0.399,0.399,0.4,0.4,0.401,0.401,0.402,0.402,0.402,0.402,0.402,0.402,0.402,0.402,0.402,0.402,0.402,0.403,0.403,0.404,0.404375,0.405,0.405,0.406,0.406,0.406,0.407,0.407,0.407,0.408,0.408,0.409,0.409,0.41,0.41,0.411,0.411,0.411,0.412,0.412,0.413,0.414,0.415,0.415,0.416,0.416,0.416,0.417,0.417,0.4175,0.418,0.418,0.419,0.42,0.42,0.42,0.42,0.421,0.421,0.421,0.421,0.421,0.421,0.422,0.422,0.423,0.424,0.424,0.425,0.425,0.426,0.426,0.427,0.427,0.428,0.429,0.429,0.43,0.43,0.43,0.43,0.43,0.43,0.43,0.43,0.43,0.43,0.43,0.43,0.43,0.43,0.43,0.43,0.43,0.43,0.43,0.43,0.429,0.429,0.429,0.428,0.427,0.427,0.427,0.0,0.0,0.0,0.0,0.0,0.0,0.0,0.0,0.0,0.0,0.0,0.0,0.0,0.0,0.0,0.0,0.0,0.0,0.0,0.0,0.0,0.0,0.0,0.0,0.0,0.0,0.0,0.0,0.0
3.817,3.829,3.829,3.829,3.829,3.842,3.855,3.855,3.855,3.855,3.855,3.868,3.868,3.868,3.88,3.893,3.893,3.92,3.933,3.946,3.973,3.987,4.014,4.014,4.028,4.056,4.07,4.07,4.085,4.114,4.114,4.128,4.158,4.158,4.158,4.158,4.173,4.173,4.173,4.188,4.188,4.188,4.203,4.203,4.203,4.218,4.203,4.203,4.203,4.203,4.188,4.188,4.188,4.173,4.173,4.158,4.158,4.158,4.128,4.128,4.128,4.128,4.128,4.128,4.128,4.128,4.128,4.114,4.114,4.128,4.158,0.0,0.0,0.0,0.0,0.0,0.0,0.0,0.0,0.0,0.0,0.0,0.0,0.0,0.0,0.0,0.0,0.693,0.695,0.698,0.699,0.7,0.701,0.703,0.705,0.706,0.706,0.706,0.706,0.706,0.707,0.707,0.708,0.707,0.707,0.707,0.707,0.707,0.706,0.706,0.706,0.706,0.707,0.707,0.707,0.707,0.708,0.709,0.709,0.712,0.715,0.717,0.719,0.7204999999999999,0.722,0.724,0.724,0.719,0.7075,0.704625,0.699,0.695,0.693,0.692,0.692,0.69,0.686,0.686,0.684,0.684,0.683,0.684,0.684,0.684,0.683,0.682,0.681,0.68,0.676,0.67,0.669,0.668,0.668,0.668,0.668,0.668,0.669,0.669,0.67,0.67,0.67,0.671,0.671,0.672,0.671,0.671,0.67,0.669,0.668,0.667,0.666,0.664,0.662,0.662,0.661,0.66,0.66,0.661,0.662,0.662,0.663,0.662,0.662,0.662,0.661,0.66,0.657,0.656,0.655,0.655,0.655,0.653,0.651,0.649,0.648,0.647,0.646,0.646,0.645,0.645,0.645,0.644,0.644,0.644,0.644,0.644,0.643,0.643,0.642,0.642,0.642,0.641,0.64,0.64,0.64,0.639,0.639,0.639,0.639,0.638,0.637,0.636,0.635,0.635,0.634,0.633,0.633,0.632,0.632,0.631,0.629,0.628,0.628,0.628,0.627,0.627,0.627,0.627,0.627,0.627,0.625,0.624,0.623,0.622,0.621,0.62,0.617,0.613,0.0,0.0,0.0,0.0,0.0,0.0,0.0,0.0,0.0,0.0,0.0,0.0,0.0,0.0,0.416,0.416,0.416,0.416,0.415,0.415,0.415,0.415,0.415,0.415,0.415,0.415,0.414,0.413,0.411,0.41,0.408,0.406,0.405,0.403,0.402,0.402,0.401,0.401,0.4,0.4,0.4,0.4,0.4,0.4,0.4,0.4,0.399,0.399,0.399,0.399,0.399,0.399,0.399,0.399,0.399,0.399,0.399,0.399,0.399,0.399,0.398,0.398,0.398,0.398,0.398,0.398,0.398,0.398,0.398,0.398,0.398,0.398,0.398,0.398,0.398,0.398,0.398,0.398,0.398,0.398,0.398,0.398,0.398,0.398,0.397,0.397,0.397,0.397,0.397,0.397,0.397,0.397,0.397,0.397,0.397,0.396,0.396,0.396,0.396,0.395,0.395,0.395,0.395,0.395,0.394,0.394,0.394,0.394,0.394,0.394,0.394,0.393,0.393,0.393,0.393,0.393,0.393,0.393,0.393,0.393,0.392,0.392,0.392,0.392,0.392,0.392,0.392,0.392,0.392,0.392,0.392,0.392,0.392,0.392,0.392,0.392,0.392,0.392,0.392,0.393,0.393,0.393,0.393,0.393,0.393,0.393,0.394,0.394,0.394,0.395,0.395,0.396,0.396,0.397,0.397,0.397,0.397,0.398,0.398,0.398,0.398,0.398,0.398,0.398,0.399,0.399,0.4,0.4,0.401,0.401,0.402,0.402,0.402,0.402,0.402,0.402,0.402,0.402,0.402,0.402,0.402,0.403,0.403,0.404,0.404,0.40475,0.405,0.406,0.406,0.406,0.407,0.407,0.407,0.408,0.408,0.409,0.41,0.41,0.411,0.411,0.411,0.412,0.412,0.413,0.414,0.415,0.415,0.416,0.416,0.416,0.417,0.417,0.41774999999999995,0.418,0.419,0.42,0.42,0.42,0.42,0.421,0.421,0.421,0.421,0.421,0.421,0.421,0.421,0.422,0.422,0.423,0.424,0.424,0.0,0.0,0.0,0.0,0.0,0.428,0.0,0.0,0.0,0.0,0.43,0.43,0.43,0.43,0.0,0.0,0.0,0.0,0.431,0.431,0.431,0.431,0.431,0.431,0.431,0.431,0.43,0.43,0.43,0.43,0.43,0.429,0.429,0.429,0.429,0.429,0.429,0.0,0.0,0.0,0.0,0.0,0.0,0.0,0.0,0.0,0.0,0.0,0.0,0.0,0.0,0.0,0.0,0.0,0.0,0.0,0.0,0.0,0.0,0.0,0.0,0.0,0.0,0.0,0.0
3.829,3.829,3.829,3.829,3.842,3.842,3.855,3.855,3.855,3.855,3.855,3.868,3.868,3.868,3.88,3.88,3.893,3.906,3.92,3.933,3.946,3.973,3.987,4.014,4.028,4.028,4.056,4.07,4.07,4.085,4.114,4.128,4.158,4.158,4.158,4.158,4.173,4.173,4.173,4.188,4.188,4.188,4.203,4.203,4.203,4.203,4.203,4.188,4.188,4.188,4.173,4.173,4.173,4.158,4.158,4.128,4.128,4.114,4.114,4.114,4.085,4.085,4.114,4.114,4.114,4.085,4.085,4.085,0.0,0.0,0.0,0.0,0.0,0.0,0.0,0.0,0.0,0.0,0.0,0.0,0.0,0.0,0.0,0.0,0.683,0.686,0.688,0.6895,0.691,0.693,0.693,0.695,0.695,0.698,0.698,0.7,0.702,0.702,0.702,0.702,0.702,0.702,0.702,0.701,0.7,0.7,0.7,0.699,0.698,0.699,0.699,0.699,0.699,0.7,0.7,0.7004999999999999,0.702,0.702,0.703,0.704,0.706,0.0,0.706,0.707,0.708,0.708,0.702,0.696,0.693,0.692,0.688,0.684,0.682,0.681,0.68,0.68,0.679,0.679,0.679,0.678,0.678,0.678,0.678,0.678,0.677,0.6747500000000001,0.673,0.669,0.668,0.667,0.667,0.666,0.665,0.666,0.666,0.667,0.667,0.667,0.668,0.668,0.668,0.668,0.668,0.668,0.668,0.667,0.667,0.665,0.661,0.659,0.657,0.655,0.655,0.654,0.654,0.654,0.655,0.655,0.656,0.656,0.655,0.655,0.655,0.655,0.655,0.654,0.653,0.65,0.649,0.648,0.647,0.645,0.644,0.644,0.643,0.642,0.641,0.64,0.64,0.639,0.638,0.637,0.637,0.638,0.636,0.636,0.636,0.635,0.635,0.634,0.634,0.634,0.633,0.633,0.633,0.633,0.632,0.632,0.632,0.632,0.631,0.631,0.63,0.63,0.629,0.628,0.627,0.626,0.624,0.624,0.623,0.623,0.623,0.623,0.623,0.622,0.622,0.622,0.622,0.622,0.622,0.621,0.621,0.62,0.6185,0.617,0.614,0.612,0.0,0.0,0.0,0.0,0.0,0.0,0.0,0.0,0.0,0.0,0.0,0.0,0.0,0.0,0.0,0.416,0.416,0.416,0.416,0.416,0.416,0.415,0.415,0.415,0.415,0.414,0.413,0.411,0.411,0.409,0.40700000000000003,0.40475000000000005,0.403,0.402,0.402,0.401,0.401,0.4,0.4,0.4,0.4,0.399,0.399,0.399,0.399,0.399,0.399,0.399,0.399,0.399,0.399,0.399,0.399,0.399,0.399,0.399,0.399,0.399,0.398,0.398,0.398,0.398,0.398,0.398,0.398,0.398,0.398,0.398,0.398,0.398,0.398,0.398,0.398,0.398,0.398,0.398,0.398,0.398,0.398,0.398,0.398,0.398,0.398,0.398,0.398,0.397,0.397,0.397,0.397,0.397,0.397,0.397,0.397,0.397,0.397,0.396,0.396,0.396,0.396,0.395,0.395,0.395,0.395,0.394,0.394,0.394,0.394,0.394,0.394,0.394,0.394,0.393,0.393,0.393,0.393,0.393,0.393,0.393,0.393,0.393,0.393,0.392,0.392,0.392,0.392,0.392,0.392,0.392,0.392,0.392,0.392,0.392,0.392,0.392,0.392,0.392,0.392,0.392,0.392,0.393,0.393,0.393,0.393,0.393,0.393,0.394,0.394,0.394,0.394,0.395,0.395,0.396,0.397,0.397,0.397,0.397,0.397,0.398,0.398,0.398,0.398,0.398,0.398,0.398,0.399,0.399,0.4,0.4,0.401,0.401,0.402,0.402,0.402,0.402,0.402,0.402,0.402,0.402,0.402,0.402,0.402,0.403,0.403,0.404,0.404,0.405,0.40525,0.406,0.406,0.406,0.407,0.407,0.408,0.408,0.409,0.409,0.41,0.411,0.411,0.411,0.411,0.412,0.413,0.414,0.415,0.415,0.416,0.416,0.4165,0.417,0.417,0.418,0.419,0.42,0.42,0.42,0.421,0.421,0.421,0.421,0.421,0.421,0.422,0.422,0.422,0.422,0.422,0.422,0.422,0.422,0.424,0.0,0.0,0.0,0.0,0.0,0.0,0.0,0.0,0.0,0.0,0.0,0.0,0.0,0.0,0.4625,0.0,0.0,0.0,0.0,0.0,0.0,0.0,0.0,0.0,0.431,0.431,0.431,0.431,0.431,0.431,0.43,0.43,0.43,0.43,0.43,0.43,0.43,0.43,0.0,0.0,0.0,0.0,0.0,0.0,0.0,0.0,0.0,0.0,0.0,0.0,0.0,0.0,0.0,0.0,0.0,0.0,0.0,0.0,0.0,0.0,0.0,0.0,0.0,0.0,0.0,0.0
3.829,3.829,3.829,3.842,3.842,3.842,3.855,3.855,3.855,3.855,3.868,3.868,3.868,3.868,3.88,3.88,3.893,3.893,3.906,3.92,3.933,3.946,3.946,3.973,3.987,4.014,4.028,4.028,4.056,4.07,4.085,4.114,4.128,4.158,4.158,4.158,4.173,4.173,4.188,4.188,4.203,4.188,4.188,4.203,4.203,4.188,4.188,4.188,4.173,4.173,4.173,4.158,4.158,4.128,4.114,4.085,4.085,4.085,4.07,4.07,4.07,4.07,4.07,4.085,4.085,0.0,0.0,0.0,0.0,0.0,0.0,0.0,0.0,0.0,0.0,0.0,0.0,0.0,0.0,0.0,0.0,0.0,0.0,0.678,0.68,0.6825000000000001,0.684125,0.686,0.688,0.6885,0.69,0.691,0.691,0.693,0.693,0.693,0.693,0.693,0.693,0.693,0.693,0.693,0.693,0.693,0.693,0.693,0.693,0.693,0.692,0.693,0.693,0.693,0.693,0.693,0.693,0.693,0.693,0.693,0.693,0.693,0.693,0.693,0.693,0.0,0.0,0.0,0.0,0.681,0.679,0.679,0.678,0.677,0.676,0.675,0.674,0.674,0.673,0.672,0.671,0.67,0.669,0.669,0.6695000000000001,0.668,0.667,0.667,0.666,0.665,0.664,0.663,0.663,0.662,0.662,0.663,0.663,0.664,0.665,0.665,0.666,0.665,0.665,0.664,0.664,0.663,0.662,0.66,0.657,0.655,0.653,0.6515,0.65,0.649,0.648,0.648,0.648,0.649,0.65,0.651,0.651,0.652,0.651,0.65,0.648,0.648,0.647,0.646,0.645,0.644,0.643,0.642,0.642,0.64,0.638,0.635,0.634,0.634,0.634,0.633,0.633,0.633,0.632,0.632,0.632,0.632,0.632,0.6315000000000001,0.632,0.631,0.631,0.631,0.63,0.629,0.629,0.629,0.627,0.626,0.626,0.624,0.624,0.623,0.623,0.622,0.623,0.622,0.622,0.622,0.622,0.621,0.621,0.621,0.62,0.621,0.62,0.62,0.62,0.619,0.62,0.62,0.62,0.62,0.62,0.619,0.618,0.617,0.616,0.615,0.613,0.612,0.0,0.0,0.0,0.0,0.0,0.0,0.0,0.0,0.0,0.0,0.0,0.0,0.0,0.0,0.0,0.416,0.416,0.416,0.416,0.416,0.415,0.415,0.415,0.415,0.415,0.414,0.411,0.411,0.409,0.4075,0.406,0.403,0.402,0.402,0.401,0.401,0.4,0.4,0.4,0.399,0.399,0.399,0.399,0.399,0.399,0.399,0.399,0.399,0.399,0.399,0.399,0.399,0.399,0.399,0.399,0.399,0.399,0.398,0.398,0.398,0.398,0.398,0.398,0.398,0.398,0.398,0.398,0.398,0.398,0.398,0.398,0.398,0.398,0.398,0.398,0.398,0.398,0.398,0.398,0.398,0.398,0.398,0.398,0.398,0.398,0.397,0.397,0.397,0.397,0.397,0.397,0.397,0.397,0.397,0.396,0.396,0.396,0.396,0.396,0.395,0.395,0.395,0.394,0.394,0.394,0.394,0.394,0.394,0.394,0.394,0.394,0.394,0.393,0.393,0.393,0.393,0.393,0.393,0.393,0.393,0.393,0.393,0.393,0.392,0.392,0.392,0.392,0.392,0.392,0.392,0.392,0.392,0.392,0.392,0.392,0.392,0.392,0.392,0.393,0.393,0.393,0.393,0.393,0.393,0.394,0.394,0.394,0.394,0.394,0.395,0.396,0.396,0.397,0.397,0.397,0.397,0.397,0.398,0.398,0.398,0.398,0.398,0.398,0.398,0.399,0.399,0.4,0.4,0.401,0.401,0.401,0.402,0.402,0.402,0.402,0.402,0.402,0.402,0.402,0.402,0.402,0.402,0.403,0.403,0.404,0.405,0.405,0.4055,0.406,0.406,0.407,0.407,0.408,0.409,0.409,0.41,0.41,0.411,0.411,0.411,0.412,0.413,0.414,0.415,0.415,0.416,0.4165,0.417,0.417,0.418,0.418,0.42,0.42,0.42,0.421,0.421,0.421,0.421,0.421,0.422,0.422,0.422,0.422,0.422,0.422,0.422,0.422,0.422,0.422,0.423,0.423,0.0,0.0,0.0,0.0,0.0,0.0,0.0,0.0,0.0,0.0,0.0,0.0,0.0,0.0,0.495,0.495,0.494,0.493,0.493,0.0,0.0,0.0,0.0,0.0,0.0,0.0,0.0,0.431,0.431,0.431,0.431,0.431,0.431,0.431,0.431,0.431,0.431,0.431,0.0,0.0,0.0,0.0,0.0,0.0,0.0,0.0,0.0,0.0,0.0,0.0,0.0,0.0,0.0,0.0,0.0,0.0,0.0,0.0,0.0,0.0,0.0,0.0,0.0,0.0,0.0,0.0
3.829,3.829,3.829,3.829,3.842,3.842,3.855,3.855,3.855,3.855,3.868,3.868,3.868,3.868,3.868,3.868,3.88,3.893,3.893,3.906,3.92,3.933,3.933,3.946,3.973,3.973,3.987,4.014,4.028,4.056,4.07,4.085,4.114,4.128,4.158,4.158,4.173,4.188,4.188,4.203,4.203,4.203,4.188,4.188,4.188,4.188,4.173,4.173,4.158,4.158,4.158,4.128,4.128,4.114,4.085,4.07,4.056,4.056,4.028,4.028,4.028,4.028,4.056,0.0,0.0,0.0,0.0,0.0,0.0,0.0,0.0,0.0,0.0,0.0,0.0,0.0,0.0,0.0,0.0,0.0,0.0,0.0,0.672,0.674,0.6765000000000001,0.679,0.68,0.681,0.682,0.683,0.6845,0.685,0.68525,0.686,0.687,0.686,0.686,0.686,0.686,0.686,0.686,0.686,0.686,0.686,0.686,0.686,0.686,0.686,0.686,0.687,0.687,0.687,0.687,0.687,0.687,0.687,0.686,0.684,0.682,0.68,0.679,0.678,0.0,0.0,0.0,0.0,0.0,0.0,0.668,0.668,0.669,0.6705,0.669,0.669,0.668,0.668,0.668,0.668,0.666,0.666,0.664,0.663,0.663,0.66,0.658,0.658,0.657,0.657,0.657,0.657,0.658,0.658,0.659,0.66,0.661,0.661,0.661,0.661,0.662,0.661,0.66,0.658,0.657,0.656,0.655,0.651,0.647,0.645,0.644,0.644,0.644,0.644,0.644,0.644,0.644,0.644,0.644,0.645,0.645,0.644,0.6425000000000001,0.6415,0.6411250000000001,0.642,0.642,0.641,0.63875,0.638,0.636,0.635,0.634,0.633,0.633,0.632,0.631,0.63,0.63,0.629,0.629,0.628,0.628,0.627,0.627,0.627,0.627,0.626,0.626,0.625,0.624,0.624,0.623,0.622,0.622,0.622,0.622,0.621,0.621,0.62,0.62,0.619,0.619,0.618,0.616,0.615,0.615,0.615,0.614,0.614,0.613,0.613,0.613,0.614,0.614,0.614,0.614,0.615,0.615,0.616,0.616,0.617,0.616,0.615,0.6145,0.614,0.614,0.613,0.612,0.611,0.0,0.0,0.0,0.0,0.0,0.0,0.0,0.0,0.0,0.0,0.0,0.0,0.0,0.0,0.0,0.416,0.415,0.416,0.415,0.416,0.415,0.415,0.415,0.414,0.413,0.411,0.411,0.409,0.407,0.406,0.403,0.402,0.402,0.401,0.401,0.4,0.4,0.399,0.399,0.399,0.399,0.399,0.399,0.399,0.399,0.399,0.399,0.399,0.399,0.399,0.399,0.399,0.399,0.399,0.399,0.399,0.399,0.398,0.398,0.398,0.398,0.398,0.398,0.398,0.397,0.397,0.397,0.397,0.397,0.397,0.397,0.398,0.398,0.398,0.398,0.398,0.398,0.398,0.398,0.398,0.398,0.398,0.398,0.398,0.398,0.397,0.397,0.397,0.397,0.397,0.397,0.397,0.397,0.396,0.396,0.396,0.396,0.396,0.396,0.395,0.395,0.395,0.394,0.394,0.394,0.394,0.394,0.394,0.394,0.394,0.394,0.394,0.393,0.393,0.393,0.393,0.393,0.393,0.393,0.393,0.393,0.393,0.393,0.393,0.392,0.392,0.392,0.392,0.392,0.392,0.392,0.392,0.392,0.392,0.392,0.392,0.392,0.393,0.393,0.393,0.393,0.393,0.393,0.393,0.394,0.394,0.394,0.394,0.395,0.395,0.396,0.396,0.397,0.397,0.397,0.397,0.398,0.398,0.398,0.398,0.398,0.398,0.398,0.399,0.399,0.399,0.4,0.4,0.401,0.401,0.401,0.401,0.402,0.402,0.402,0.402,0.402,0.402,0.402,0.402,0.402,0.402,0.403,0.403,0.404,0.404,0.405,0.4055,0.406,0.406,0.407,0.407,0.408,0.409,0.409,0.41,0.41,0.411,0.411,0.412,0.413,0.414,0.415,0.415,0.416,0.4165,0.417,0.417,0.418,0.419,0.42,0.42,0.421,0.421,0.421,0.421,0.422,0.422,0.422,0.423,0.423,0.423,0.423,0.423,0.423,0.423,0.423,0.423,0.0,0.0,0.0,0.0,0.0,0.0,0.0,0.0,0.0,0.0,0.0,0.0,0.0,0.497,0.496,0.496,0.495,0.495,0.493,0.492,0.491,0.49,0.0,0.0,0.0,0.0,0.0,0.0,0.0,0.0,0.431,0.431,0.431,0.431,0.431,0.431,0.431,0.431,0.431,0.431,0.431,0.0,0.0,0.0,0.0,0.0,0.0,0.0,0.0,0.0,0.0,0.0,0.0,0.0,0.0,0.0,0.0,0.0,0.0,0.0,0.0,0.0,0.0,0.0,0.0,0.0,0.0,0.0,0.0
