0.0,0.0,0.0,0.0,0.0,0.0,0.0,0.0,0.0,0.0,0.0,0.0,0.0,0.0,0.0,0.0,0.0,0.0,0.0,0.0,0.0,0.0,0.0,0.0,0.0,0.0,0.0,0.0,0.0,0.0,0.0,0.0,0.0,0.0,0.0,0.0,0.0,0.0,0.0,0.0,0.0,0.406,0.404,0.404,0.405,0.4035,0.402,0.402,0.401,0.401,0.402,0.402,0.401,0.401,0.401,0.401,0.401,0.401,0.401,0.401,0.401,0.401,0.401,0.401,0.401,0.401,0.401,0.402,0.401,0.401,0.401,0.401,0.401,0.4,0.0,0.0,0.402,0.402,0.403,0.403,0.403,0.403,0.403,0.403,0.401,0.4,0.399,0.399,0.399,0.398,0.398,0.0,0.0,0.0,0.398,0.398,0.398,0.397,0.396,0.396,0.395,0.39475000000000005,0.394,0.39375,0.393,0.393,0.393,0.394,0.394,0.394,0.3945,0.39425,0.3940625,0.394,0.393,0.393,0.393,0.393,0.393,0.393,0.393,0.392,0.392,0.391,0.39,0.39,0.389,0.389,0.389,0.389,0.389,0.388,0.389,0.388,0.388,0.388,0.388,0.388,0.389,0.389,0.389,0.389,0.389,0.389,0.389,0.389,0.38825,0.388,0.387,0.387,0.386,0.386,0.386,0.386,0.385,0.385,0.385,0.385,0.385,0.385,0.384,0.384,0.384,0.384,0.385,0.385,0.385,0.384,0.3835,0.383,0.383,0.382,0.381,0.381,0.381,0.381,0.381,0.381,0.381,0.381,0.381,0.381,0.381,0.381,0.0,0.0,0.381,0.381,0.381,0.381,0.381,0.381,0.381,0.38,0.38,0.38,0.38,0.38,0.379,0.379,0.378,0.378,0.378,0.378,0.378,0.377,0.377,0.37725000000000003,0.377,0.377,0.376,0.376,0.376,0.376,0.375,0.375,0.375,0.375,0.374,0.374,0.373,0.374,0.373,0.373,0.373,0.373,0.373,0.373,0.373,0.0,0.0,0.373,0.372,0.372,0.372,0.372,0.372,0.372,0.372,0.372,0.372,0.372,0.371,0.37,0.37,0.37,0.37,0.369,0.369,0.369,0.369,0.369,0.369,0.369,0.369,0.37,0.37,0.37,0.0,0.0,0.0,0.0,0.369,0.369,0.369,0.369,0.369,0.368,0.368,0.36825,0.369,0.368,0.368,0.368,0.368,0.368,0.369,0.368,0.368,0.367,0.367,0.366,0.366,0.366,0.366,0.366,0.366,0.365,0.36449999999999994,0.364,0.364,0.3645,0.365,0.365,0.364,0.363,0.363,0.363,0.363,0.363,0.363,0.363,0.362,0.363,0.0,0.0,0.0,0.0,0.362,0.362,0.362,0.362,0.362,0.362,0.362,0.362,0.362,0.361,0.0,0.361,0.36024999999999996,0.36,0.359,0.35975,0.36,0.359,0.359,0.359,0.358,0.358,0.358,0.358,0.358,0.358,0.358,0.358,0.358,0.358,0.0,0.0,0.0,0.0,0.3575,0.358,0.358,0.0,0.0,0.0,0.0,0.0,0.0,0.0,0.0,0.0,0.0,0.0,0.0,0.355,0.0,0.354,0.0,0.0,0.0,0.0,0.3525,0.35224999999999995,0.352,0.351,0.35,0.35,0.35,0.35,0.35,0.35,0.348,0.348,0.348,0.348,0.3495,0.0,0.0,0.348,0.348,0.348,0.348,0.348,0.348,0.348,0.348,0.348,0.348,0.348,0.348,0.347,0.346,0.346,0.346,0.345,0.345,0.345,0.345,0.345,0.344,0.345,0.345,0.345,0.345,0.345,0.345,0.344,0.344,0.344,0.344,0.343,0.343,0.342,0.342,0.3425,0.0,0.0,0.342,0.342,0.342,0.341,0.341,0.341,0.341,0.341,0.341,0.341,0.341,0.341,0.341,0.342,0.342,0.342,0.342,0.342,0.342,0.342,0.342,0.342,0.342,0.342,0.342,0.342,0.341,0.341,0.341,0.34,0.34,0.34,0.339,0.34,0.339,0.339,0.338,0.338,0.338,0.3375,0.337,0.337,0.336,0.336,0.336,0.335,0.335,0.335,0.334,0.334,0.333,0.333,0.333,0.3335,0.334,0.334,0.333,0.333,0.333,0.333,0.333,0.333,0.332,0.33225000000000005,0.332,0.332,0.332,0.332,0.332,0.332,0.3325,0.333,0.333,0.333,0.333,0.334,0.0,0.3335,0.334,0.334,0.333,0.333,0.332,0.332,0.332,0.332,0.332,0.332,0.332,0.332,0.332,0.332,0.332,0.332,0.331,0.331,0.33,0.0,0.0,0.0,0.3285,0.329,0.328,0.328,0.329,0.329,0.329,0.329,0.329,0.0,0.0,0.0,0.327,0.327,0.327,0.326,0.326,0.326,0.326,0.326,0.326,0.326,0.326,0.326,0.325,0.325
0.0,0.0,0.0,0.0,0.0,0.0,0.0,0.0,0.0,0.0,0.0,0.0,0.0,0.0,0.0,0.0,0.0,0.0,0.0,0.0,0.0,0.0,0.0,0.0,0.0,0.0,0.0,0.0,0.0,0.0,0.0,0.0,0.0,0.0,0.0,0.0,0.0,0.0,0.0,0.0,0.402,0.402,0.401,0.401,0.401,0.401,0.4,0.398,0.398,0.398,0.399,0.399,0.399,0.399,0.399,0.4,0.4,0.4,0.4,0.4,0.4,0.0,0.0,0.0,0.3995,0.4,0.4,0.4,0.399,0.398,0.398,0.398,0.398,0.398,0.398,0.398,0.398,0.399,0.0,0.0,0.0,0.0,0.0,0.0,0.0,0.397,0.397,0.397,0.397,0.397,0.397,0.0,0.0,0.0,0.396,0.396,0.395,0.394,0.394,0.393,0.393,0.393,0.392,0.392,0.391,0.392,0.392,0.391,0.391,0.39,0.392,0.392,0.392,0.392,0.392,0.391,0.391,0.391,0.391,0.39075000000000004,0.39,0.39,0.389,0.389,0.388,0.38775000000000004,0.388,0.387,0.387,0.386,0.386,0.386,0.386,0.386,0.385,0.385,0.386,0.386,0.387,0.387,0.386,0.387,0.387,0.387,0.387,0.386,0.386,0.385,0.385,0.385,0.385,0.385,0.385,0.385,0.384,0.384,0.384,0.384,0.383,0.383,0.38250000000000006,0.382,0.382,0.382,0.382,0.381,0.381,0.381,0.381,0.381,0.381,0.38,0.38,0.38,0.38,0.38,0.38,0.38,0.38,0.38,0.38,0.38,0.38,0.38,0.0,0.0,0.379,0.379,0.379,0.379,0.379,0.378,0.378,0.378,0.378,0.378,0.378,0.377,0.377,0.377,0.377,0.377,0.376,0.376,0.376,0.376,0.376,0.375,0.375,0.374,0.374,0.374,0.373,0.373,0.373,0.373,0.373,0.373,0.373,0.372,0.37175,0.372,0.372,0.372,0.371,0.371,0.371,0.37,0.37,0.37,0.37,0.37024999999999997,0.37,0.37,0.37,0.37,0.37,0.37,0.37,0.37,0.37,0.37,0.36925,0.369,0.369,0.369,0.368,0.367,0.367,0.367,0.367,0.366,0.366,0.366,0.366,0.366,0.366,0.366,0.365,0.366,0.367,0.366,0.367,0.366,0.366,0.366,0.366,0.366,0.36624999999999996,0.366,0.366,0.366,0.366,0.0,0.0,0.0,0.366,0.366,0.366,0.366,0.366,0.365,0.365,0.365,0.363,0.36375,0.364,0.363,0.363,0.363,0.362,0.362625,0.362,0.362,0.362,0.362,0.362,0.362,0.362,0.362,0.362,0.362,0.362,0.362,0.362,0.362,0.361,0.361,0.361,0.361,0.361,0.361,0.362,0.361,0.361,0.359,0.359,0.359,0.359,0.359,0.358,0.358,0.358,0.358,0.358,0.358,0.358,0.358,0.357,0.357,0.356,0.356,0.356,0.356,0.356,0.356,0.356,0.356,0.0,0.0,0.0,0.355,0.355,0.355,0.355,0.0,0.0,0.0,0.0,0.0,0.0,0.0,0.0,0.0,0.0,0.0,0.0,0.352,0.3515,0.351,0.0,0.0,0.0,0.0,0.35,0.35,0.349,0.349,0.349,0.348,0.347,0.348,0.347,0.347,0.347,0.347,0.347,0.347,0.347,0.0,0.0,0.347,0.347,0.348,0.348,0.348,0.348,0.347,0.347,0.348,0.346,0.346,0.345,0.345,0.345,0.345,0.345,0.344,0.344,0.343,0.34325,0.343,0.343,0.343,0.343,0.343,0.343,0.343,0.342,0.342,0.342,0.342,0.342,0.342,0.341,0.341,0.341,0.341,0.341,0.341,0.34,0.34,0.341,0.341,0.341,0.34,0.34,0.34,0.34,0.34,0.34,0.34,0.34,0.341,0.341,0.341,0.341,0.341,0.341,0.341,0.34,0.34,0.34,0.34,0.339,0.34,0.34,0.339,0.339,0.339,0.339,0.33825000000000005,0.338,0.0,0.0,0.0,0.0,0.336,0.336,0.3355,0.335,0.0,0.0,0.335,0.335,0.334,0.333,0.332,0.332,0.332,0.332,0.332,0.332,0.332,0.333,0.333,0.332,0.332,0.332,0.332,0.332,0.332,0.332,0.332,0.332,0.332,0.332,0.332,0.332,0.332,0.332,0.3315,0.331625,0.332,0.332,0.0,0.0,0.332,0.332,0.333,0.332,0.332,0.332,0.331,0.331,0.331,0.331,0.331,0.331,0.331,0.331,0.33,0.33,0.33,0.329,0.328,0.328,0.0,0.0,0.0,0.327,0.326,0.326,0.326,0.327,0.327,0.327,0.326,0.326,0.326,0.326,0.326,0.325,0.325,0.325,0.325,0.324,0.324,0.324,0.324,0.324,0.324,0.324,0.324,0.323,0.323
0.0,0.0,0.0,0.0,0.0,0.0,0.0,0.0,0.0,0.0,0.0,0.0,0.0,0.0,0.0,0.0,0.0,0.0,0.0,0.0,0.0,0.0,0.0,0.0,0.0,0.0,0.0,0.0,0.0,0.0,0.0,0.0,0.0,0.0,0.0,0.0,0.0,0.0,0.0,0.399,0.399,0.398,0.398,0.398,0.398,0.398,0.398,0.397,0.397,0.397,0.397,0.397,0.397,0.397,0.398,0.3985,0.3985,0.0,0.0,0.0,0.0,0.0,0.0,0.0,0.398,0.398,0.398,0.398,0.397,0.397,0.396,0.395,0.395,0.394,0.394,0.394,0.395,0.396,0.0,0.0,0.0,0.0,0.0,0.0,0.0,0.3945,0.394,0.394,0.394,0.394,0.393,0.393,0.393,0.393,0.393,0.393,0.393,0.393,0.392,0.391,0.391,0.39,0.389,0.389,0.389,0.389,0.389,0.389,0.389,0.389,0.389,0.388,0.388,0.389,0.389,0.389,0.389,0.389,0.389,0.389,0.389,0.388,0.387,0.386,0.386,0.385,0.385,0.385,0.385,0.385,0.385,0.385,0.384,0.384,0.384,0.384,0.385,0.385,0.385,0.385,0.0,0.0,0.3845,0.385,0.385,0.384,0.384,0.383,0.383,0.383,0.383,0.383,0.382,0.382,0.382,0.382,0.382,0.382,0.381,0.381,0.381,0.381,0.381,0.381,0.38,0.379,0.378,0.378,0.378,0.378,0.378,0.377,0.377,0.378,0.378,0.378,0.378,0.378,0.378,0.378,0.378,0.378,0.378,0.377,0.377,0.377,0.377,0.377,0.377,0.377,0.377,0.377,0.377,0.377,0.377,0.376,0.376,0.376,0.376,0.375,0.374,0.374,0.374,0.374,0.373,0.373,0.373,0.373,0.373,0.373,0.372,0.372,0.372,0.372,0.371,0.371,0.371,0.371,0.37,0.37,0.37,0.37,0.37,0.37,0.369,0.369,0.369,0.369,0.368,0.368,0.368,0.368,0.368,0.368,0.368,0.368,0.369,0.368,0.368,0.368,0.368,0.368,0.367,0.3675,0.36675,0.366,0.366,0.366,0.366,0.366,0.365,0.365,0.365,0.364,0.365,0.364,0.364,0.363,0.363,0.363,0.363,0.363,0.363,0.363,0.365,0.364,0.36425,0.365,0.365,0.365,0.365,0.365,0.365,0.0,0.0,0.0,0.3645,0.365,0.364,0.364,0.364,0.363,0.363,0.362,0.362,0.362,0.362,0.362,0.362,0.362,0.36124999999999996,0.362,0.3615,0.361,0.36,0.36,0.36,0.36,0.36,0.36,0.36,0.36,0.36,0.36,0.36,0.36,0.36,0.359,0.35975,0.36,0.36,0.36,0.36,0.359,0.359,0.358,0.358,0.358,0.358,0.357,0.357,0.357,0.357,0.356,0.357,0.357,0.356,0.356,0.0,0.0,0.0,0.355,0.355,0.355,0.355,0.354,0.354,0.354,0.0,0.0,0.353,0.352,0.352,0.352,0.3525,0.0,0.0,0.0,0.0,0.0,0.0,0.0,0.35,0.0,0.0,0.0,0.349,0.349,0.349,0.349,0.0,0.0,0.0,0.348,0.348,0.348,0.345,0.347,0.346,0.346,0.346,0.346,0.346,0.345,0.345,0.345,0.345,0.345,0.345,0.0,0.0,0.345,0.345,0.345,0.346,0.346,0.345,0.345,0.345,0.345,0.345,0.345,0.345,0.344,0.344,0.344,0.344,0.343,0.342,0.34225000000000005,0.342,0.342,0.342,0.342,0.342,0.342,0.342,0.342,0.341,0.341,0.341,0.341,0.341,0.34,0.34,0.34,0.34,0.34,0.34,0.34,0.339,0.339,0.339,0.339,0.339,0.339,0.339,0.339,0.339,0.339,0.339,0.339,0.339,0.3395,0.34,0.34,0.34,0.339,0.339,0.339,0.339,0.338,0.338,0.338,0.338,0.338,0.338,0.0,0.0,0.337,0.337,0.336,0.336,0.0,0.0,0.0,0.0,0.3345,0.335,0.33375,0.3335,0.0,0.0,0.3335,0.332,0.332,0.332,0.332,0.332,0.331,0.331,0.331,0.331,0.331,0.332,0.332,0.332,0.332,0.331,0.331,0.331,0.331,0.331,0.331,0.331,0.331,0.331,0.331,0.331,0.33,0.33,0.33,0.33,0.33,0.33,0.0,0.0,0.33,0.331,0.33,0.33,0.33,0.33,0.329,0.329,0.329,0.329,0.329,0.0,0.0,0.329,0.329,0.328,0.327,0.326,0.326,0.0,0.0,0.0,0.324,0.32475,0.325,0.325,0.326,0.326,0.326,0.325,0.324,0.324,0.324,0.324,0.324,0.323,0.323,0.324,0.323,0.323,0.323,0.323,0.323,0.323,0.323,0.323,0.322,0.322,0.321
0.0,0.0,0.0,0.0,0.0,0.0,0.0,0.0,0.0,0.0,0.0,0.0,0.0,0.0,0.0,0.0,0.0,0.0,0.0,0.0,0.0,0.0,0.0,0.0,0.0,0.0,0.0,0.0,0.0,0.0,0.0,0.0,0.0,0.0,0.0,0.0,0.0,0.0,0.0,0.398,0.398,0.397,0.397,0.397,0.397,0.397,0.396,0.39575000000000005,0.396,0.396,0.396,0.396,0.0,0.396,0.397,0.397,0.397,0.0,0.0,0.0,0.0,0.0,0.398,0.397,0.397,0.397,0.397,0.397,0.396,0.394,0.394,0.394,0.393,0.393,0.392,0.392,0.392,0.0,0.0,0.0,0.393,0.3925,0.392,0.392,0.392,0.392,0.392,0.392,0.392,0.391,0.391,0.39,0.39,0.39,0.39,0.389,0.389,0.389,0.389,0.389,0.389,0.388,0.388,0.388,0.388,0.388,0.388,0.388,0.387,0.386,0.386,0.386,0.386,0.385,0.385,0.385,0.388,0.388,0.387,0.386,0.386,0.385,0.385,0.385,0.384,0.384,0.383,0.383,0.382,0.382,0.382,0.382,0.382,0.382,0.382,0.382,0.382,0.382,0.0,0.0,0.0,0.0,0.382,0.382,0.381,0.381,0.381,0.381,0.381,0.381,0.381,0.381,0.381,0.381,0.381,0.381,0.381,0.38,0.38,0.38,0.378,0.378,0.378,0.379,0.3785,0.0,0.0,0.0,0.377,0.377,0.377,0.376,0.377,0.377,0.377,0.377,0.377,0.377,0.376,0.376,0.376,0.376,0.376,0.375,0.374,0.374,0.374,0.374,0.374,0.374,0.374,0.374,0.375,0.375,0.374,0.374,0.374,0.374,0.373,0.373,0.373,0.373,0.373,0.372,0.372,0.372,0.371,0.37,0.37,0.37,0.37,0.37,0.37,0.37,0.37,0.369,0.3695,0.369375,0.369,0.369,0.3685,0.369,0.368,0.368,0.368,0.367,0.366,0.366,0.366,0.366,0.366,0.366,0.366,0.366,0.366,0.366,0.366,0.366,0.366,0.366,0.366,0.366,0.366,0.366,0.3651875,0.365,0.365,0.364,0.364,0.364,0.363,0.363,0.363,0.363,0.362,0.0,0.0,0.0,0.362,0.362,0.362,0.362,0.362,0.362,0.363,0.362,0.362,0.362,0.363,0.363,0.363,0.363,0.363,0.0,0.0,0.363,0.363,0.362,0.362,0.362,0.362,0.362,0.36125,0.361,0.36,0.36,0.36,0.36,0.36,0.35975,0.359,0.36,0.359375,0.359,0.359,0.358,0.358,0.3585,0.359,0.359,0.358,0.35875,0.359,0.359,0.359,0.359,0.358,0.358,0.359,0.359,0.359,0.359,0.358,0.358,0.357,0.357,0.35649999999999993,0.356,0.355,0.355,0.355,0.355,0.355,0.355,0.355,0.355,0.354,0.354,0.0,0.0,0.0,0.354,0.354,0.353,0.352,0.352,0.352,0.352,0.352,0.351,0.351,0.35,0.35,0.35,0.35,0.0,0.0,0.0,0.0,0.0,0.0,0.348,0.348,0.348,0.348,0.348,0.348,0.348,0.347,0.347,0.347,0.345,0.345,0.345,0.345,0.345,0.345,0.345,0.345,0.345,0.345,0.345,0.345,0.344,0.344,0.344,0.343,0.343,0.343,0.342,0.342,0.343,0.343,0.344,0.344,0.344,0.344,0.344,0.344,0.344,0.344,0.344,0.343,0.343,0.343,0.342,0.342,0.342,0.341,0.342,0.342,0.342,0.342,0.341,0.341,0.341,0.341,0.34,0.34,0.339,0.339,0.339,0.339,0.339,0.339,0.339,0.339,0.339,0.339,0.339,0.339,0.339,0.339,0.339,0.339,0.338,0.3385,0.338125,0.338,0.338,0.338,0.338,0.338,0.338,0.338,0.0,0.0,0.0,0.337,0.337,0.336,0.336,0.336,0.336,0.0,0.0,0.0,0.0,0.0,0.0,0.335,0.335,0.335,0.334,0.0,0.0,0.0,0.333,0.333,0.332,0.332,0.332,0.332,0.332,0.332,0.331,0.331,0.33,0.33,0.33,0.33,0.33,0.33,0.33,0.33,0.33,0.331,0.33,0.33,0.33,0.33,0.33,0.33,0.33,0.33,0.329,0.329,0.329,0.329,0.329,0.328,0.328,0.3275,0.327,0.0,0.0,0.0,0.0,0.328,0.328,0.328,0.328,0.328,0.328,0.328,0.0,0.3275,0.0,0.0,0.0,0.0,0.326,0.3255,0.325,0.323,0.323,0.323,0.323,0.323,0.323,0.323,0.323,0.323,0.324,0.324,0.324,0.323,0.323,0.323,0.324,0.323,0.323,0.323,0.323,0.323,0.323,0.322,0.322,0.321,0.321,0.321,0.321,0.321,0.32,0.32,0.32
0.0,0.0,0.0,0.0,0.0,0.0,0.0,0.0,0.0,0.0,0.0,0.0,0.0,0.0,0.0,0.0,0.0,0.0,0.0,0.0,0.0,0.0,0.0,0.0,0.0,0.0,0.0,0.0,0.0,0.0,0.0,0.0,0.0,0.0,0.0,0.0,0.0,0.0,0.396,0.397,0.396,0.396,0.396,0.396,0.395,0.395,0.394,0.394,0.395,0.395,0.395,0.395,0.395,0.395,0.395,0.395,0.395,0.3955,0.396,0.396,0.397,0.397,0.397,0.397,0.397,0.397,0.396,0.395,0.394,0.393,0.393,0.392,0.391,0.39,0.39,0.389,0.389,0.0,0.0,0.0,0.389,0.38875000000000004,0.3885,0.388625,0.389,0.389,0.3885,0.0,0.0,0.0,0.388,0.388,0.388,0.388,0.388,0.0,0.0,0.0,0.0,0.388,0.388,0.387,0.386,0.386,0.386,0.386,0.0,0.0,0.0,0.385,0.385,0.385,0.384,0.384,0.384,0.383,0.383,0.382,0.382,0.385,0.384,0.384,0.383,0.383,0.382,0.382,0.382,0.381,0.381,0.381,0.381,0.381,0.381,0.381,0.381,0.381,0.381,0.381,0.0,0.0,0.0,0.381,0.381,0.38,0.38,0.38,0.38,0.38,0.38,0.379,0.379,0.379,0.379,0.379,0.379,0.378,0.377,0.377,0.377,0.377,0.377,0.377,0.377,0.377,0.377,0.0,0.0,0.0,0.376,0.376,0.376,0.376,0.376,0.376,0.376,0.376,0.375,0.375,0.374,0.374,0.373,0.373,0.373,0.373,0.373,0.372,0.372,0.372,0.372,0.372,0.373,0.373,0.373,0.373,0.373,0.372,0.372,0.372,0.371,0.371,0.37,0.37,0.37,0.37,0.37,0.37,0.369,0.369,0.369,0.369,0.369,0.369,0.369,0.369,0.368,0.368,0.368,0.368,0.367,0.366,0.366,0.366,0.366,0.366,0.366,0.365,0.36474999999999996,0.365,0.365,0.364,0.364,0.364,0.364,0.364,0.364,0.365,0.365,0.365,0.365,0.364,0.365,0.364,0.364,0.363,0.363,0.362,0.362,0.362,0.362,0.362,0.362,0.362,0.362,0.362,0.361,0.0,0.0,0.0,0.0,0.361,0.361,0.361,0.361,0.361,0.361,0.361,0.361,0.361,0.361,0.361,0.361,0.361,0.361,0.3615,0.362,0.362,0.362,0.362,0.361,0.361,0.36,0.359,0.359,0.358,0.358,0.358,0.358,0.358,0.358,0.358,0.358,0.358,0.357,0.357,0.357,0.357,0.357,0.357,0.358,0.358,0.357,0.358,0.358,0.358,0.357,0.357,0.356,0.357,0.357,0.3575,0.358,0.357,0.356,0.356,0.355,0.35475,0.355,0.355,0.354,0.353,0.0,0.0,0.353,0.353,0.353,0.352,0.352,0.352,0.352,0.352,0.352,0.352,0.352,0.351,0.351,0.351,0.35,0.35,0.35,0.349,0.349,0.349,0.348,0.348,0.348,0.348,0.348,0.347,0.347,0.347,0.346,0.347,0.347,0.347,0.347,0.346,0.345,0.345,0.345,0.345,0.345,0.345,0.344,0.344,0.344,0.344,0.344,0.344,0.344,0.344,0.344,0.343,0.343,0.343,0.342,0.342,0.342,0.341,0.341,0.341,0.341,0.342,0.342,0.342,0.0,0.0,0.0,0.0,0.342,0.342,0.342,0.342,0.342,0.342,0.342,0.342,0.341,0.341,0.341,0.341,0.341,0.341,0.341,0.34,0.34,0.34,0.339,0.339,0.339,0.339,0.338,0.338,0.338,0.338,0.338,0.338,0.338,0.338,0.338,0.338,0.338,0.338,0.338,0.338,0.338,0.338,0.338,0.337,0.337,0.336,0.336,0.336,0.336,0.336,0.0,0.0,0.0,0.0,0.0,0.335,0.335,0.334,0.3345,0.334,0.0,0.0,0.0,0.0,0.0,0.0,0.333,0.333,0.333,0.332,0.332,0.332,0.332,0.332,0.332,0.332,0.332,0.332,0.331,0.331,0.0,0.3295,0.329,0.329,0.329,0.329,0.329,0.329,0.329,0.329,0.329,0.329,0.329,0.329,0.329,0.329,0.329,0.329,0.329,0.329,0.329,0.329,0.328,0.328,0.327,0.327,0.326,0.326,0.325,0.325,0.0,0.0,0.0,0.0,0.326,0.326,0.326,0.326,0.326,0.0,0.3255,0.32575,0.326,0.0,0.0,0.0,0.0,0.323,0.323,0.322,0.322,0.321,0.3215,0.321,0.321,0.321,0.321,0.322,0.322,0.323,0.323,0.0,0.0,0.0,0.0,0.323,0.323,0.323,0.322,0.322,0.322,0.321,0.321,0.32,0.32,0.32,0.319,0.319,0.319,0.319,0.318,0.318
0.0,0.0,0.0,0.0,0.0,0.0,0.0,0.0,0.0,0.0,0.0,0.0,0.0,0.0,0.0,0.0,0.0,0.0,0.0,0.0,0.0,0.0,0.0,0.0,0.0,0.0,0.0,0.0,0.0,0.0,0.0,0.0,0.0,0.0,0.0,0.0,0.0,0.395,0.395,0.394,0.394,0.394,0.394,0.394,0.393,0.393,0.393,0.393,0.393,0.393,0.393,0.393,0.393,0.393,0.393,0.393,0.393,0.39225,0.393,0.3935,0.394,0.395,0.395,0.395,0.0,0.0,0.0,0.393,0.392,0.391,0.39,0.389,0.389,0.389,0.388,0.38749999999999996,0.388,0.386,0.385,0.385,0.385,0.385,0.385,0.385,0.3855,0.385,0.385,0.0,0.0,0.0,0.385,0.385,0.385,0.385,0.385,0.0,0.0,0.0,0.0,0.385,0.385,0.385,0.385,0.384,0.384,0.3835,0.0,0.0,0.0,0.382,0.382,0.382,0.381,0.381,0.381,0.381,0.381,0.381,0.381,0.381,0.38,0.38,0.381,0.381,0.381,0.381,0.381,0.381,0.38,0.38,0.381,0.381,0.381,0.381,0.38,0.38,0.38,0.38,0.379,0.378,0.379,0.378,0.378,0.378,0.378,0.378,0.378,0.378,0.377,0.377,0.377,0.377,0.377,0.377,0.376,0.376,0.376,0.376,0.376,0.376,0.376,0.375,0.375,0.374,0.374,0.3735,0.373,0.373,0.373,0.373,0.37375,0.374,0.374,0.374,0.374,0.374,0.373,0.373,0.373,0.373,0.372,0.371,0.371,0.37,0.37,0.37,0.37,0.37,0.37,0.37,0.37,0.37,0.37,0.37,0.37,0.37,0.369,0.369,0.369,0.369,0.369,0.369,0.368,0.368,0.368,0.368,0.367,0.367,0.367,0.367,0.367,0.367,0.367,0.366,0.366,0.366,0.366,0.366,0.365,0.364,0.364,0.364,0.364,0.364,0.364,0.363,0.363,0.363,0.363,0.3625,0.3625,0.362375,0.362,0.362,0.362,0.362,0.363,0.363,0.363,0.362,0.362,0.362,0.362,0.361,0.361,0.36,0.36,0.36,0.36,0.359,0.359,0.359,0.359,0.359,0.359,0.359,0.359,0.0,0.0,0.359,0.359,0.359,0.359,0.359,0.359,0.359,0.359,0.359,0.359,0.36,0.36,0.36,0.36,0.359,0.359,0.358,0.358,0.357,0.356,0.358,0.358,0.357,0.357,0.356,0.356,0.356,0.356,0.356,0.355,0.355,0.355,0.356,0.355,0.355,0.355,0.355,0.355,0.355,0.355,0.355,0.355,0.356,0.356,0.355,0.355,0.355,0.355,0.355,0.0,0.0,0.0,0.0,0.0,0.353,0.35275,0.352,0.352,0.352,0.351,0.351,0.0,0.0,0.0,0.3505,0.351,0.35,0.35,0.3495,0.349,0.3495,0.349,0.349,0.349,0.349,0.348,0.348,0.348,0.348,0.348,0.348,0.348,0.348,0.348,0.348,0.348,0.348,0.347,0.346,0.346,0.346,0.345,0.345,0.345,0.345,0.345,0.345,0.345,0.344,0.344,0.344,0.344,0.343,0.343,0.343,0.342,0.342,0.342,0.342,0.342,0.342,0.342,0.342,0.342,0.342,0.341,0.341,0.34,0.34,0.34,0.34,0.34,0.34,0.341,0.0,0.0,0.0,0.0,0.0,0.341,0.341,0.341,0.341,0.341,0.341,0.341,0.341,0.3405,0.34,0.34,0.339,0.339,0.339,0.0,0.0,0.0,0.0,0.338,0.337,0.337,0.337,0.337,0.337,0.337,0.337,0.337,0.337,0.337,0.337,0.337,0.337,0.336,0.336,0.336,0.337,0.336,0.336,0.336,0.336,0.335,0.335,0.335,0.334,0.334,0.334,0.0,0.0,0.0,0.0,0.0,0.333,0.333,0.333,0.333,0.332,0.332,0.332,0.0,0.0,0.0,0.332,0.331,0.331,0.331,0.33,0.33,0.33,0.33,0.33,0.329,0.33,0.33,0.329,0.329,0.329,0.3285,0.328,0.328,0.328,0.328,0.328,0.328,0.0,0.0,0.0,0.0,0.329,0.329,0.329,0.329,0.329,0.329,0.329,0.328,0.328,0.327,0.327,0.327,0.326,0.326,0.325,0.324,0.324,0.323,0.323,0.323,0.323,0.324,0.324,0.324,0.324,0.0,0.324,0.323,0.323,0.323,0.323,0.323,0.0,0.0,0.0,0.322,0.321,0.321,0.321,0.32,0.32,0.321,0.321,0.32,0.32,0.32,0.321,0.321,0.321,0.321,0.0,0.0,0.0,0.0,0.321,0.321,0.321,0.321,0.321,0.32,0.32,0.32,0.319,0.318,0.318,0.318,0.318,0.318,0.318,0.317,0.31725000000000003
0.0,0.0,0.0,0.0,0.0,0.0,0.0,0.0,0.0,0.0,0.0,0.0,0.0,0.0,0.0,0.0,0.0,0.0,0.0,0.0,0.0,0.0,0.0,0.0,0.0,0.0,0.0,0.0,0.0,0.0,0.0,0.0,0.0,0.0,0.0,0.0,0.0,0.394,0.393,0.393,0.393,0.393,0.393,0.392,0.392,0.392,0.392,0.392,0.392,0.392,0.392,0.391,0.391,0.39,0.39,0.39,0.389,0.389,0.39,0.3905,0.391,0.393,0.0,0.0,0.0,0.0,0.0,0.391,0.0,0.0,0.389,0.388,0.387,0.386,0.386,0.385,0.385,0.385,0.385,0.384,0.384,0.384,0.383,0.38325,0.383,0.384,0.384,0.385,0.0,0.0,0.384,0.384,0.383,0.382,0.382,0.0,0.0,0.381,0.381,0.381,0.381,0.381,0.381,0.381,0.381,0.381,0.381,0.3805,0.38,0.38,0.38,0.38,0.38,0.38,0.379,0.378,0.378,0.378,0.378,0.378,0.378,0.37875000000000003,0.38,0.38,0.38,0.38,0.379,0.379,0.379,0.378,0.379,0.379,0.378,0.378,0.378,0.378,0.377,0.377,0.377,0.377,0.377,0.377,0.377,0.377,0.377,0.377,0.376,0.376,0.376,0.375,0.375,0.375,0.375,0.374,0.374,0.374,0.374,0.374,0.374,0.374,0.374,0.374,0.373,0.373,0.373,0.372,0.372,0.371,0.371,0.371,0.372,0.373,0.0,0.0,0.0,0.0,0.373,0.372,0.37124999999999997,0.371,0.37,0.37,0.0,0.3685,0.368375,0.369,0.369,0.368,0.368,0.369,0.369,0.369,0.369,0.0,0.0,0.0,0.368,0.368,0.367,0.367,0.366,0.366,0.366,0.366,0.366,0.366,0.365,0.365,0.365,0.365,0.36524999999999996,0.366,0.3655,0.365,0.365,0.364,0.364,0.363,0.362,0.362,0.362,0.362,0.362,0.362,0.362,0.362,0.0,0.3615,0.362,0.361,0.361,0.361,0.361,0.361,0.361,0.361,0.361,0.361,0.361,0.361,0.361,0.36,0.36,0.359,0.359,0.358,0.358,0.358,0.358,0.0,0.357,0.358,0.358,0.358,0.358,0.358,0.358,0.0,0.0,0.358,0.358,0.358,0.358,0.358,0.358,0.358,0.359,0.358,0.358,0.358,0.359,0.359,0.359,0.358,0.357,0.356,0.355,0.355,0.355,0.354,0.354,0.353,0.352,0.352,0.352,0.352,0.352,0.354,0.354,0.355,0.355,0.354,0.354,0.354,0.354,0.35324999999999995,0.354,0.354,0.354,0.3535,0.353,0.353,0.353,0.353,0.352,0.352,0.3525,0.3525,0.0,0.0,0.0,0.0,0.0,0.3505,0.351,0.35,0.35,0.35,0.349,0.349,0.0,0.0,0.0,0.348,0.348,0.348,0.348,0.34787499999999993,0.348,0.348,0.3474999999999999,0.348,0.348,0.347,0.3465,0.346,0.3464999999999999,0.348,0.348,0.347,0.348,0.345,0.345,0.345,0.345,0.346,0.345,0.345,0.345,0.0,0.0,0.0,0.345,0.345,0.344,0.344,0.343,0.343,0.343,0.342,0.342,0.342,0.342,0.342,0.341,0.341,0.341,0.341,0.341,0.341,0.341,0.341,0.34,0.34,0.339,0.339,0.339,0.339,0.339,0.339,0.339,0.339,0.339,0.0,0.0,0.0,0.0,0.34,0.34,0.34,0.34,0.34,0.34,0.34,0.34,0.3405,0.33975,0.339,0.339,0.338,0.338,0.338,0.0,0.0,0.0,0.0,0.336,0.335,0.335,0.335,0.335,0.335,0.335,0.0,0.0,0.0,0.0,0.335,0.335,0.335,0.335,0.335,0.335,0.335,0.335,0.335,0.335,0.335,0.334,0.333,0.333,0.333,0.332,0.332,0.0,0.0,0.0,0.0,0.332,0.332,0.332,0.332,0.332,0.331,0.331,0.33,0.33,0.33,0.33,0.33,0.33,0.33,0.329,0.329,0.329,0.329,0.329,0.329,0.329,0.329,0.329,0.329,0.328,0.327,0.327,0.327,0.327,0.327,0.327,0.327,0.327,0.0,0.0,0.0,0.0,0.327,0.327,0.327,0.327,0.327,0.327,0.327,0.327,0.327,0.326,0.326,0.325,0.325,0.324,0.324,0.323,0.323,0.322,0.322,0.321,0.321,0.321,0.32175000000000004,0.322,0.0,0.0,0.322,0.321,0.321,0.321,0.32,0.32,0.319,0.319,0.319,0.319,0.318,0.318,0.319,0.319,0.319,0.319,0.319,0.319,0.319,0.31925000000000003,0.32,0.32,0.32,0.32,0.0,0.0,0.0,0.32,0.32,0.32,0.32,0.0,0.0,0.318,0.318,0.318,0.318,0.317,0.317,0.316,0.316,0.316,0.316,0.316,0.316
0.0,0.0,0.0,0.0,0.0,0.0,0.0,0.0,0.0,0.0,0.0,0.0,0.0,0.0,0.0,0.0,0.0,0.0,0.0,0.0,0.0,0.0,0.0,0.0,0.0,0.0,0.0,0.0,0.0,0.0,0.0,0.0,0.0,0.0,0.0,0.0,0.0,0.392,0.392,0.392,0.392,0.391,0.391,0.39,0.39,0.39,0.39,0.39,0.39,0.39,0.39,0.39,0.389,0.389,0.389,0.388,0.0,0.3875,0.389,0.0,0.0,0.0,0.0,0.0,0.0,0.0,0.0,0.0,0.0,0.0,0.3865,0.385,0.385,0.385,0.385,0.385,0.384,0.384,0.384,0.383,0.382,0.382,0.382,0.382,0.382,0.381,0.0,0.0,0.0,0.0,0.0,0.38,0.38,0.38,0.38,0.38,0.379,0.379,0.379,0.379,0.38,0.379,0.379,0.379,0.378,0.378,0.378,0.377,0.377,0.377,0.377,0.377,0.377,0.377,0.377,0.377,0.377,0.377,0.377,0.377,0.377,0.377,0.377,0.3765,0.376,0.376,0.377,0.377,0.377,0.377,0.377,0.377,0.377,0.377,0.377,0.376,0.376,0.376,0.376,0.376,0.376,0.376,0.376,0.376,0.375,0.375,0.374,0.374,0.373,0.373,0.373,0.373,0.373,0.373,0.373,0.373,0.373,0.373,0.373,0.373,0.373,0.372,0.371,0.37,0.37,0.37,0.369,0.369,0.369,0.369,0.369,0.37,0.0,0.0,0.0,0.0,0.37,0.369,0.369,0.369,0.368,0.368,0.3675,0.367,0.366,0.366,0.366,0.366,0.366,0.366,0.366,0.366,0.366,0.0,0.0,0.0,0.3655,0.366,0.365,0.365,0.364,0.0,0.0,0.364,0.363,0.363,0.363,0.362,0.363,0.363,0.363,0.363,0.363125,0.363,0.362,0.362,0.362,0.361,0.36,0.36,0.36,0.36,0.36,0.36,0.0,0.0,0.0,0.36,0.359,0.359,0.359,0.359,0.359,0.359,0.359,0.359,0.359,0.359,0.359,0.359,0.359,0.358,0.358,0.358,0.358,0.356,0.356,0.356,0.356,0.3555,0.355,0.355,0.355,0.355,0.355,0.355,0.355,0.355,0.355,0.355,0.356,0.356,0.0,0.356,0.357,0.357,0.357,0.357,0.357,0.3575,0.358,0.358,0.358,0.357,0.356,0.354,0.353,0.35275,0.352,0.352,0.352,0.351,0.351,0.351,0.351,0.351,0.351,0.351,0.351,0.351,0.351,0.351,0.351,0.351,0.351,0.35,0.35,0.352,0.352,0.352,0.352,0.351,0.351,0.351,0.35,0.35,0.35,0.35,0.0,0.0,0.0,0.0,0.0,0.348,0.348,0.348,0.348,0.347,0.347,0.3465,0.0,0.0,0.347,0.347,0.346,0.346,0.346,0.346,0.346,0.346,0.345,0.345,0.345,0.345,0.345,0.344,0.344,0.344,0.344,0.344,0.346,0.0,0.0,0.0,0.0,0.343,0.343,0.343,0.0,0.0,0.0,0.0,0.343,0.342,0.342,0.342,0.342,0.342,0.342,0.342,0.341,0.341,0.34,0.34,0.339,0.339,0.34,0.34,0.34,0.34,0.339,0.339,0.339,0.339,0.339,0.338,0.338,0.338,0.338,0.338,0.338,0.338,0.338,0.339,0.339,0.339,0.338,0.338,0.338,0.338,0.339,0.339,0.339,0.339,0.339,0.34,0.3394375,0.339,0.338,0.337,0.336,0.336,0.0,0.0,0.0,0.0,0.3335,0.333,0.333,0.333,0.333,0.333,0.333,0.0,0.0,0.0,0.0,0.333,0.3335,0.334,0.334,0.334,0.334,0.335,0.334,0.334,0.0,0.0,0.0,0.331,0.332,0.331,0.331,0.329,0.329,0.329,0.329,0.329,0.329,0.33,0.33,0.33,0.33,0.33,0.33,0.33,0.33,0.329,0.329,0.329,0.329,0.329,0.329,0.328,0.328,0.328,0.328,0.327,0.327,0.327,0.327,0.327,0.326,0.326,0.326,0.326,0.326,0.326,0.326,0.326,0.326,0.326,0.0,0.0,0.0,0.325,0.326,0.326,0.0,0.0,0.326,0.326,0.325,0.325,0.324,0.324,0.324,0.323,0.323,0.323,0.321,0.321,0.32,0.32025000000000003,0.32,0.32,0.32,0.32,0.32,0.32,0.32,0.32,0.32,0.318,0.318,0.318,0.318,0.318,0.318,0.318,0.318,0.318,0.318,0.318,0.318,0.318,0.318,0.318,0.318,0.318,0.318,0.318,0.318,0.318,0.318,0.318,0.0,0.0,0.318,0.3185,0.3185,0.0,0.0,0.0,0.3165,0.316,0.316,0.315,0.315,0.315,0.315,0.315,0.315,0.315,0.315,0.315
0.0,0.0,0.0,0.0,0.0,0.0,0.0,0.0,0.0,0.0,0.0,0.0,0.0,0.0,0.0,0.0,0.0,0.0,0.0,0.0,0.0,0.0,0.0,0.0,0.0,0.0,0.0,0.0,0.0,0.0,0.0,0.0,0.0,0.0,0.0,0.0,0.0,0.0,0.389,0.389,0.389,0.389,0.388,0.388,0.388,0.389,0.389,0.389,0.389,0.389,0.389,0.388,0.388,0.387,0.386,0.386,0.386,0.386,0.0,0.0,0.0,0.0,0.0,0.0,0.0,0.0,0.0,0.0,0.0,0.0,0.384,0.384,0.384,0.384,0.383,0.382,0.382,0.382,0.382,0.382,0.381,0.381,0.381,0.381,0.38,0.38,0.0,0.0,0.0,0.0,0.0,0.378,0.378,0.378,0.377,0.377,0.3775,0.3775,0.0,0.377,0.3775,0.377,0.37649999999999995,0.376,0.377,0.376,0.376,0.376,0.376,0.377,0.377,0.377,0.377,0.376,0.376,0.375,0.375,0.375,0.374,0.374,0.374,0.374,0.374,0.37424999999999997,0.374125,0.374,0.374,0.374,0.374,0.374,0.376,0.376,0.376,0.374,0.374,0.374,0.374,0.374,0.374,0.374,0.373,0.373,0.374,0.3735,0.373,0.373,0.373,0.372,0.373,0.3715,0.371,0.371,0.371,0.371,0.371,0.371,0.371,0.37124999999999997,0.372,0.37149999999999994,0.372,0.37,0.37,0.369,0.369,0.369,0.368,0.367,0.36724999999999997,0.367,0.36724999999999997,0.368,0.0,0.0,0.0,0.0,0.367,0.367,0.366,0.366,0.366,0.366,0.365,0.365,0.365,0.365,0.365,0.365,0.365,0.365,0.365,0.365,0.365,0.365,0.365,0.364,0.363,0.363,0.362,0.362,0.362,0.0,0.0,0.362,0.361,0.361,0.361,0.361,0.361,0.361,0.361,0.361,0.361,0.36074999999999996,0.361,0.36,0.359,0.359,0.359,0.359,0.358,0.358,0.358,0.358,0.0,0.0,0.358,0.358,0.358,0.358,0.357,0.357,0.357,0.357,0.357,0.358,0.358,0.358,0.358,0.358,0.358,0.357,0.356,0.355,0.355,0.355,0.354,0.354,0.354,0.354,0.353,0.352,0.352,0.352,0.352,0.352,0.352,0.352,0.352,0.352,0.352,0.0,0.0,0.354,0.0,0.0,0.0,0.355,0.355,0.0,0.0,0.0,0.0,0.353,0.352,0.352,0.351,0.351,0.351,0.351,0.35,0.35,0.35,0.35,0.349,0.349,0.349,0.349,0.349,0.349,0.349,0.349,0.349,0.349,0.349,0.348,0.348,0.348,0.348,0.348,0.348,0.348,0.347,0.347,0.346,0.346,0.345,0.345,0.345,0.344,0.344,0.3445,0.345,0.345,0.345,0.345,0.345,0.345,0.345,0.344,0.345,0.344,0.344,0.344,0.344,0.344,0.343,0.343,0.343,0.342,0.342,0.342,0.342,0.342,0.342,0.342,0.342,0.342,0.342,0.342,0.0,0.0,0.0,0.0,0.0,0.341,0.341,0.341,0.0,0.0,0.0,0.0,0.341,0.341,0.341,0.341,0.341,0.341,0.341,0.339,0.339,0.339,0.338,0.338,0.338,0.338,0.338,0.338,0.338,0.338,0.338,0.338,0.338,0.338,0.33725,0.337,0.337,0.337,0.337,0.337,0.337,0.336,0.0,0.0,0.337,0.338,0.337,0.337,0.337,0.337,0.338,0.0,0.0,0.0,0.338,0.339,0.339,0.0,0.0,0.335,0.334,0.333,0.332,0.0,0.0,0.0,0.331,0.331,0.331,0.331,0.331,0.331,0.331,0.0,0.0,0.0,0.0,0.332,0.332,0.332,0.333,0.333,0.333,0.333,0.333,0.0,0.0,0.0,0.0,0.329,0.329,0.329,0.328,0.328,0.328,0.328,0.328,0.328,0.328,0.329,0.329,0.329,0.329,0.329,0.329,0.329,0.329,0.328,0.328,0.328,0.327,0.327,0.326,0.326,0.326,0.326,0.326,0.3255,0.0,0.0,0.325,0.325,0.325,0.324,0.324,0.324,0.324,0.325,0.325,0.324,0.324,0.324,0.323,0.323,0.323,0.323,0.324,0.324,0.0,0.0,0.0,0.0,0.0,0.323,0.323,0.323,0.322,0.322,0.321,0.32075000000000004,0.32,0.32,0.319,0.319,0.319,0.319,0.319,0.319,0.318,0.318,0.3185,0.318,0.318,0.317,0.317,0.317,0.317,0.317,0.317,0.317,0.317,0.317,0.317,0.317,0.317,0.317,0.0,0.0,0.0,0.0,0.317,0.317,0.317,0.317,0.317,0.317,0.317,0.317,0.317,0.317,0.317,0.0,0.0,0.0,0.315,0.315,0.315,0.315,0.315,0.314,0.314,0.314,0.314,0.315,0.315,0.315
0.0,0.0,0.0,0.0,0.0,0.0,0.0,0.0,0.0,0.0,0.0,0.0,0.0,0.0,0.0,0.0,0.0,0.0,0.0,0.0,0.0,0.0,0.0,0.0,0.0,0.0,0.0,0.0,0.0,0.0,0.0,0.0,0.0,0.0,0.0,0.0,0.0,0.0,0.0,0.0,0.0,0.386,0.386,0.385,0.385,0.385,0.385,0.386,0.0,0.0,0.0,0.3855,0.385,0.385,0.385,0.384,0.3835,0.0,0.0,0.0,0.0,0.0,0.0,0.0,0.0,0.0,0.0,0.0,0.0,0.382,0.381,0.381,0.381,0.381,0.381,0.381,0.381,0.381,0.381,0.381,0.38,0.379,0.38,0.379,0.378,0.377,0.377,0.377,0.0,0.0,0.0,0.376,0.376,0.376,0.376,0.376,0.376,0.376,0.3755,0.375,0.375,0.375,0.374,0.374,0.374,0.374,0.374,0.374,0.375,0.375,0.375,0.376,0.376,0.375,0.374,0.374,0.3735,0.373,0.373,0.372,0.372,0.372,0.372,0.372,0.37178124999999995,0.372,0.372,0.372,0.372,0.372,0.372,0.372,0.371,0.373,0.373,0.373,0.373,0.373,0.373,0.372,0.372,0.372,0.372,0.0,0.0,0.371,0.37,0.37,0.37,0.369,0.369,0.369,0.369,0.369,0.369,0.369,0.369,0.369,0.36925,0.369,0.369,0.369,0.368,0.367,0.366,0.366,0.366,0.366,0.366,0.365,0.365,0.365,0.0,0.0,0.0,0.365,0.365,0.365,0.364,0.364,0.364,0.363,0.362,0.362,0.362,0.362,0.363,0.363,0.363,0.363,0.363,0.363,0.363,0.363,0.362,0.362,0.362,0.361,0.36,0.36,0.36,0.36,0.359,0.359,0.359,0.359,0.359,0.359,0.359,0.358,0.358,0.3585,0.35862499999999997,0.358,0.358,0.358,0.358,0.358,0.358,0.358,0.357,0.357,0.356,0.356,0.356,0.356,0.356,0.355,0.355,0.355,0.355,0.355,0.355,0.355,0.355,0.355,0.35575,0.356,0.356,0.0,0.3555,0.355,0.355,0.354,0.354,0.353,0.352,0.352,0.352,0.351,0.351,0.35,0.35,0.35,0.349,0.349,0.34925,0.349,0.0,0.0,0.0,0.0,0.351,0.351,0.0,0.0,0.0,0.3515,0.0,0.0,0.0,0.0,0.0,0.349,0.349,0.349,0.349,0.349,0.349,0.349,0.349,0.349,0.349,0.348,0.348,0.348,0.348,0.348,0.348,0.0,0.347,0.347,0.347,0.347,0.347,0.347,0.347,0.347,0.346,0.346,0.346,0.345,0.345,0.345,0.345,0.344,0.344,0.342,0.342,0.342,0.342,0.342875,0.343,0.343,0.343,0.343,0.343,0.343,0.342,0.342,0.342,0.342,0.342,0.342,0.342,0.342,0.342,0.342,0.341,0.341,0.341,0.341,0.341,0.341,0.341,0.341,0.341,0.341,0.341,0.341,0.0,0.0,0.0,0.0,0.339,0.339,0.339,0.339,0.0,0.0,0.0,0.0,0.339,0.339,0.339,0.339,0.339,0.339,0.3385,0.338,0.338,0.337,0.337,0.337,0.336,0.33625000000000005,0.336,0.336,0.336,0.336,0.336,0.336,0.336,0.335,0.335,0.335,0.335,0.335,0.335,0.335,0.335,0.335,0.0,0.0,0.335,0.335,0.335,0.335,0.335,0.336,0.0,0.0,0.0,0.0,0.337,0.0,0.0,0.0,0.0,0.0,0.331,0.331,0.33,0.33,0.329,0.33,0.329,0.33,0.33,0.33,0.33,0.329,0.329,0.329,0.329,0.33,0.33,0.33,0.331,0.332,0.332,0.332,0.332,0.332,0.332,0.3305,0.329,0.329,0.328,0.327,0.327,0.327,0.327,0.327,0.327,0.327,0.326,0.327,0.327,0.327,0.328,0.328,0.327,0.328,0.328,0.328,0.328,0.326,0.326,0.326,0.326,0.326,0.325,0.325,0.324,0.325,0.324,0.324,0.0,0.0,0.323,0.323,0.323,0.323,0.323,0.323,0.323,0.323,0.323,0.323,0.323,0.323,0.322,0.322,0.321,0.321,0.322,0.322,0.0,0.0,0.0,0.0,0.0,0.322,0.321,0.321,0.321,0.32,0.32,0.319,0.0,0.319,0.318,0.318,0.318,0.318,0.318,0.318,0.318,0.318,0.318,0.317,0.316,0.316,0.316,0.316,0.316,0.316,0.316,0.316,0.316,0.316,0.316,0.316,0.316,0.316,0.0,0.0,0.0,0.0,0.316,0.316,0.316,0.316,0.316,0.3165,0.317,0.0,0.0,0.315,0.315,0.315,0.0,0.0,0.314,0.314,0.313,0.313,0.313,0.313,0.313,0.313,0.313,0.313,0.313,0.314
0.0,0.0,0.0,0.0,0.0,0.0,0.0,0.0,0.0,0.0,0.0,0.0,0.0,0.0,0.0,0.0,0.0,0.0,0.0,0.0,0.0,0.0,0.0,0.0,0.0,0.0,0.0,0.0,0.0,0.0,0.0,0.0,0.0,0.0,0.0,0.0,0.0,0.0,0.0,0.0,0.0,0.0,0.385,0.384,0.384,0.384,0.384,0.384,0.0,0.0,0.0,0.383,0.38250000000000006,0.382,0.382,0.381,0.381,0.0,0.0,0.0,0.0,0.0,0.0,0.0,0.0,0.0,0.0,0.0,0.0,0.379,0.379,0.37925,0.38,0.38,0.378,0.378,0.378,0.379,0.379,0.378,0.378,0.377,0.377,0.377,0.377,0.375,0.375,0.375,0.0,0.0,0.0,0.374,0.375,0.375,0.375,0.375,0.375,0.374,0.374,0.373,0.373,0.373,0.373,0.373,0.373,0.373,0.373,0.373,0.373,0.374,0.374,0.374,0.373,0.373,0.373,0.372,0.3715,0.371,0.37,0.37,0.37,0.369,0.369,0.36925,0.369,0.369,0.369,0.37,0.0,0.3695,0.37,0.369,0.369,0.369,0.369,0.37,0.37,0.37,0.37,0.0,0.0,0.0,0.37,0.0,0.0,0.369,0.369,0.369,0.368,0.368,0.367,0.367,0.367,0.367,0.367,0.366,0.366,0.366,0.367,0.367,0.367,0.0,0.0,0.366,0.365,0.365,0.365,0.364,0.364,0.363,0.362,0.362,0.362,0.362,0.362,0.362,0.362,0.362,0.362,0.362,0.362,0.362,0.361,0.361,0.361,0.361,0.362,0.362,0.362,0.362,0.362,0.361,0.362,0.362,0.361,0.36,0.359,0.359,0.358,0.358,0.358,0.358,0.358,0.358,0.358,0.358,0.357,0.357,0.356,0.356,0.356,0.356,0.357,0.356,0.356,0.356,0.35624999999999996,0.356,0.356,0.355,0.355,0.355,0.355,0.354,0.354,0.35424999999999995,0.355,0.354,0.355,0.355,0.355,0.355,0.355,0.354,0.354,0.354,0.354,0.0,0.0,0.0,0.353,0.353,0.352,0.352,0.351,0.351,0.351,0.35,0.35,0.349,0.3495,0.3485,0.3475,0.3475,0.34712499999999996,0.347,0.347,0.3465,0.0,0.0,0.0,0.0,0.348,0.348,0.348,0.348,0.348,0.348,0.348,0.348,0.345,0.0,0.0,0.347,0.347,0.347,0.347,0.347,0.347,0.348,0.348,0.348,0.348,0.347,0.347,0.347,0.346,0.3465,0.3465,0.34575,0.345,0.345,0.345,0.345,0.345,0.345,0.345,0.345,0.345,0.345,0.344,0.344,0.344,0.343,0.343,0.342,0.342,0.342,0.342,0.342,0.342,0.342,0.342,0.342,0.342,0.342,0.342,0.341,0.341,0.341,0.341,0.341,0.341,0.341,0.34,0.34,0.34,0.34,0.34,0.34,0.34,0.34,0.34,0.34,0.34,0.34,0.34,0.339,0.34,0.34,0.339,0.339,0.339,0.338,0.338,0.337,0.337,0.337,0.337,0.336,0.336,0.336,0.337,0.337,0.0,0.0,0.337,0.3365,0.336,0.336,0.336,0.335,0.335,0.335,0.335,0.335,0.335,0.335,0.335,0.335,0.334,0.335,0.335,0.335,0.334,0.334,0.334,0.334,0.334,0.333,0.0,0.0,0.0,0.0,0.0,0.0,0.333,0.0,0.0,0.0,0.0,0.0,0.0,0.0,0.0,0.0,0.0,0.0,0.0,0.0,0.329,0.329,0.329,0.329,0.329,0.329,0.329,0.329,0.329,0.329,0.328,0.328,0.328,0.328,0.328,0.3285,0.329,0.329,0.33,0.33,0.331,0.33125000000000004,0.332,0.33025,0.329,0.328,0.327,0.326,0.326,0.3255,0.32575,0.326,0.326,0.326,0.326,0.326,0.326,0.326,0.326,0.326,0.0,0.0,0.0,0.0,0.0,0.326,0.0,0.0,0.0,0.324,0.324,0.324,0.3235,0.323375,0.323,0.323,0.323,0.0,0.0,0.322,0.322,0.322,0.32175,0.321,0.322,0.322,0.322,0.322,0.322,0.0,0.0,0.321,0.321,0.32,0.32,0.32,0.32,0.32025,0.321,0.0,0.0,0.32,0.32,0.32,0.32,0.32,0.32,0.319,0.318,0.3185,0.31825000000000003,0.318,0.317,0.317,0.317,0.317,0.317,0.317,0.317,0.317,0.316,0.316,0.315,0.315,0.315,0.315,0.315,0.315,0.315,0.315,0.315,0.315,0.315,0.315,0.315,0.314,0.0,0.0,0.0,0.314,0.315,0.315,0.315,0.315,0.3155,0.31575,0.316,0.0,0.0,0.315,0.315,0.315,0.0,0.0,0.313,0.313,0.312,0.312,0.312,0.312,0.312,0.312,0.312,0.312,0.312,0.0
0.0,0.0,0.0,0.0,0.0,0.0,0.0,0.0,0.0,0.0,0.0,0.0,0.0,0.0,0.0,0.0,0.0,0.0,0.0,0.0,0.0,0.0,0.0,0.0,0.0,0.0,0.0,0.0,0.0,0.0,0.0,0.0,0.0,0.0,0.0,0.0,0.0,0.0,0.0,0.0,0.0,0.0,0.383,0.382,0.382,0.381,0.381,0.3815,0.0,0.0,0.0,0.38,0.38,0.38,0.379,0.379,0.378,0.0,0.0,0.0,0.0,0.0,0.0,0.0,0.0,0.0,0.0,0.376,0.376,0.377,0.377,0.377,0.377,0.377,0.377,0.377,0.3765,0.377125,0.377,0.377,0.3765,0.376,0.376,0.376,0.374,0.373,0.373,0.373,0.373,0.373,0.373,0.373,0.373,0.373,0.373,0.373,0.373,0.373,0.373,0.372,0.371,0.371,0.371,0.371,0.371,0.3715,0.372,0.372,0.373,0.0,0.0,0.373,0.373,0.372,0.371,0.37,0.36962500000000004,0.369,0.369,0.368,0.368,0.367,0.367,0.367,0.367,0.367,0.0,0.0,0.0,0.367,0.368,0.367,0.367,0.367,0.366,0.366,0.366,0.366,0.369,0.0,0.0,0.0,0.368,0.367,0.367,0.366,0.366,0.366,0.366,0.366,0.365,0.365,0.365,0.3655,0.36524999999999996,0.365,0.0,0.0,0.365,0.365,0.0,0.0,0.0,0.363,0.362,0.362,0.362,0.362,0.361,0.36,0.36,0.361,0.361,0.361,0.361,0.361,0.361,0.361,0.361,0.361,0.361,0.36,0.36,0.36,0.359,0.36,0.36,0.36,0.36,0.36,0.0,0.0,0.0,0.0,0.358,0.358,0.358,0.357,0.357,0.357,0.356,0.356,0.356,0.355,0.355,0.355,0.355,0.355,0.355,0.355,0.355,0.355,0.355,0.355,0.355,0.355,0.355,0.355,0.354,0.353,0.353,0.352,0.352,0.352,0.352,0.352,0.353,0.353,0.353,0.354,0.354,0.354,0.354,0.353,0.352,0.352,0.352,0.0,0.0,0.0,0.351,0.351,0.351,0.35,0.35,0.349,0.349,0.348,0.348,0.3474999999999999,0.348,0.347,0.345,0.345,0.345,0.345,0.345,0.344,0.344,0.0,0.0,0.0,0.345,0.34525,0.345,0.345,0.345,0.344,0.344,0.344,0.344,0.344,0.3445,0.345,0.345,0.345,0.345,0.345,0.346,0.346,0.346,0.346,0.346,0.345,0.345,0.345,0.345,0.345,0.345,0.3441875,0.344,0.344,0.344,0.344,0.344,0.343,0.34299999999999997,0.343,0.342,0.342,0.342,0.342,0.342,0.341,0.341,0.341,0.341,0.341,0.341,0.341,0.341,0.341,0.341,0.341,0.341,0.341,0.341,0.34,0.34,0.34,0.34,0.339,0.339,0.339,0.339,0.339,0.339,0.339,0.338,0.3385,0.339,0.338,0.3385,0.339,0.339,0.338,0.338,0.338,0.338,0.338,0.338,0.338,0.338,0.337,0.336,0.336,0.336,0.335,0.335,0.335,0.335,0.335,0.335,0.335,0.0,0.0,0.0,0.33425000000000005,0.334,0.334,0.334,0.334,0.333,0.333,0.33325,0.333,0.333,0.3335,0.3335,0.333125,0.333,0.333,0.333,0.333,0.333,0.332,0.332,0.332,0.332,0.0,0.0,0.0,0.0,0.0,0.0,0.0,0.331,0.0,0.0,0.0,0.0,0.0,0.0,0.0,0.0,0.0,0.0,0.0,0.0,0.0,0.328,0.328,0.328,0.328,0.327,0.327,0.327,0.327,0.327,0.327,0.327,0.326,0.327,0.327,0.327,0.327,0.328,0.3285,0.329,0.329,0.33,0.33,0.32925000000000004,0.328,0.0,0.0,0.324,0.324,0.324,0.324,0.32437499999999997,0.32434375,0.324,0.324,0.324,0.324,0.324,0.325,0.3245,0.0,0.0,0.0,0.0,0.0,0.0,0.325,0.0,0.0,0.0,0.323,0.323,0.322,0.322,0.322,0.322,0.321,0.321,0.0,0.0,0.321,0.321,0.321,0.321,0.321,0.321,0.321,0.321,0.321,0.0,0.0,0.0,0.3195,0.319,0.318,0.318,0.318,0.318,0.318,0.318,0.318,0.318,0.318,0.318,0.318,0.319,0.319,0.318,0.318,0.318,0.318,0.317,0.316,0.316,0.316,0.316,0.316,0.316,0.315,0.315,0.315,0.315,0.315,0.31425000000000003,0.314,0.314,0.314,0.314,0.314,0.31425,0.315,0.315,0.0,0.0,0.0,0.313,0.312,0.312,0.313,0.312,0.312,0.313,0.313,0.313,0.314,0.315,0.315,0.315,0.315,0.315,0.314,0.314,0.314,0.313,0.313,0.312,0.312,0.311,0.311,0.311,0.31,0.31,0.31,0.31,0.31,0.0,0.0
0.0,0.0,0.0,0.0,0.0,0.0,0.0,0.0,0.0,0.0,0.0,0.0,0.0,0.0,0.0,0.0,0.0,0.0,0.0,0.0,0.0,0.0,0.0,0.0,0.0,0.0,0.0,0.0,0.0,0.0,0.0,0.0,0.0,0.0,0.0,0.0,0.0,0.0,0.0,0.382,0.381,0.381,0.381,0.38,0.38,0.38,0.379,0.379,0.378,0.378,0.378,0.377,0.377,0.377,0.377,0.377,0.376,0.0,0.0,0.0,0.0,0.0,0.0,0.0,0.0,0.0,0.0,0.0,0.0,0.0,0.375,0.376,0.376,0.376,0.376,0.375,0.375,0.376,0.376,0.0,0.0,0.3745,0.374,0.374,0.373,0.3725,0.372,0.372,0.3715,0.3715,0.3715,0.3715,0.37124999999999997,0.371,0.371,0.371,0.37,0.37,0.37,0.369,0.369,0.369,0.369,0.369,0.369,0.37024999999999997,0.3705,0.0,0.0,0.0,0.0,0.0,0.0,0.0,0.0,0.369,0.368,0.368,0.366,0.366,0.366,0.365,0.365,0.365,0.365,0.3655,0.0,0.0,0.0,0.365,0.366,0.366,0.366,0.365,0.365,0.365,0.365,0.365,0.365,0.363,0.364,0.365,0.365,0.365,0.364,0.364,0.364,0.364,0.364,0.364,0.364,0.364,0.364,0.364,0.363625,0.3635,0.0,0.0,0.363,0.362,0.0,0.0,0.0,0.36,0.36,0.36,0.36,0.359,0.359,0.359,0.359,0.359,0.359,0.359,0.359,0.359,0.359,0.359,0.359,0.359,0.359,0.359,0.359,0.359,0.359,0.359,0.359,0.359,0.3585,0.0,0.0,0.0,0.0,0.0,0.357,0.357,0.356,0.356,0.355,0.355,0.355,0.355,0.355,0.354,0.354,0.354,0.354,0.353,0.353,0.352,0.35274999999999995,0.353,0.352,0.352,0.352,0.352,0.352,0.352,0.352,0.351,0.351,0.351,0.35075,0.351,0.351,0.351,0.351,0.352,0.0,0.0,0.0,0.352,0.352,0.352,0.351,0.35,0.35,0.0,0.0,0.0,0.348,0.348,0.348,0.348,0.0,0.348,0.348,0.348,0.347,0.345,0.345,0.345,0.345,0.344,0.343,0.343,0.342,0.342,0.342,0.342,0.342,0.342,0.343,0.343,0.343,0.343,0.343,0.342,0.342,0.342,0.34299999999999997,0.34324999999999994,0.344,0.344,0.344,0.345,0.345,0.345,0.345,0.345,0.0,0.0,0.0,0.345,0.345,0.345,0.343,0.342,0.342,0.342,0.341,0.341,0.341,0.342,0.342,0.341,0.341,0.341,0.341,0.341,0.341,0.341,0.341,0.34,0.34,0.34,0.34,0.339,0.339,0.339,0.339,0.339,0.339,0.339,0.339,0.339,0.339,0.339,0.339,0.3385,0.338,0.338,0.33775000000000005,0.338,0.338,0.338,0.33775000000000005,0.338,0.337,0.337,0.337,0.337,0.337,0.337,0.337,0.337,0.337,0.337,0.337,0.337,0.337,0.337,0.336,0.336,0.335,0.335,0.335,0.334,0.334,0.333,0.333,0.333,0.333,0.333,0.0,0.0,0.0,0.332,0.332,0.332,0.332,0.332,0.332,0.332,0.332,0.332,0.332,0.332,0.332,0.331,0.332,0.332,0.332,0.332,0.332,0.332,0.331,0.331,0.33,0.0,0.0,0.0,0.0,0.0,0.329,0.0,0.0,0.0,0.0,0.0,0.0,0.0,0.0,0.0,0.0,0.0,0.0,0.0,0.326,0.326,0.326,0.326,0.326,0.326,0.326,0.326,0.326,0.326,0.326,0.326,0.326,0.326,0.326,0.326,0.326,0.326,0.327,0.328,0.328,0.3285,0.329,0.328,0.327,0.326,0.0,0.0,0.323,0.323,0.323,0.323,0.323,0.323,0.323,0.323,0.323,0.323,0.32275,0.323,0.323,0.0,0.0,0.0,0.0,0.0,0.0,0.324,0.0,0.0,0.322,0.322,0.321,0.321,0.321,0.321,0.32,0.32,0.32,0.32,0.32,0.32,0.319,0.32,0.32,0.32,0.32,0.32,0.32,0.32,0.0,0.0,0.318,0.318,0.318,0.317,0.317,0.317,0.316,0.316,0.317,0.317,0.317,0.317,0.318,0.318,0.318,0.318,0.318,0.318,0.317,0.316,0.315,0.315,0.315,0.315,0.315,0.315,0.315,0.0,0.0,0.313,0.313,0.313,0.313,0.313,0.313,0.313,0.313,0.313,0.313,0.313,0.3135,0.0,0.0,0.0,0.312,0.311,0.311,0.311,0.31,0.31,0.3105,0.311,0.0,0.0,0.0,0.0,0.313,0.314,0.314,0.314,0.314,0.313,0.313,0.312,0.312,0.311,0.309,0.308,0.308,0.308,0.307,0.307,0.307,0.309,0.0,0.0
0.0,0.0,0.0,0.0,0.0,0.0,0.0,0.0,0.0,0.0,0.0,0.0,0.0,0.0,0.0,0.0,0.0,0.0,0.0,0.0,0.0,0.0,0.0,0.0,0.0,0.0,0.0,0.0,0.0,0.0,0.0,0.0,0.0,0.0,0.0,0.0,0.0,0.0,0.0,0.0,0.0,0.379,0.379,0.378,0.378,0.377,0.377,0.376,0.376,0.376,0.376,0.376,0.376,0.376,0.376,0.375,0.374,0.0,0.0,0.0,0.0,0.0,0.0,0.37,0.371,0.0,0.0,0.0,0.0,0.0,0.373,0.373,0.374,0.373,0.373,0.373,0.373,0.373,0.3735,0.0,0.0,0.373,0.373,0.373,0.373,0.372,0.371,0.371,0.37,0.37,0.37,0.37,0.0,0.0,0.37,0.36974999999999997,0.369,0.369,0.369,0.3685,0.369,0.369,0.369,0.369,0.369,0.369,0.369,0.0,0.0,0.0,0.0,0.0,0.0,0.0,0.0,0.0,0.365,0.365,0.365,0.364,0.364,0.364,0.364,0.363,0.364,0.364,0.364,0.363,0.363,0.363,0.364,0.364,0.364,0.364,0.363,0.363,0.363,0.362,0.362,0.361,0.36,0.36,0.361,0.362,0.362,0.362,0.362,0.362,0.362,0.362,0.362,0.362,0.362,0.362,0.362,0.362,0.362,0.362,0.362,0.362,0.36,0.36,0.359,0.359,0.359,0.358,0.358,0.358,0.358,0.358,0.358,0.358,0.358,0.358,0.0,0.0,0.0,0.3575,0.358,0.358,0.358,0.358,0.358,0.358,0.358,0.358,0.358,0.357,0.357,0.0,0.0,0.0,0.0,0.355,0.355,0.355,0.355,0.354,0.354,0.354,0.354,0.353,0.353,0.352,0.352,0.352,0.352,0.351,0.351,0.351,0.351,0.351,0.351,0.0,0.0,0.0,0.351,0.351,0.351,0.35024999999999995,0.35,0.35,0.349,0.34950000000000003,0.35,0.35,0.35,0.35,0.0,0.0,0.0,0.0,0.351,0.349,0.348,0.348,0.348,0.348,0.347,0.347,0.347,0.347,0.347,0.3465,0.34675,0.347,0.347,0.345,0.345,0.345,0.344,0.344,0.343,0.342,0.342,0.342,0.342,0.342,0.342,0.342,0.342,0.342,0.342,0.342,0.342,0.342,0.342,0.342,0.342,0.342,0.342,0.342,0.3425,0.343,0.343,0.343,0.344,0.344,0.344,0.3435,0.0,0.0,0.0,0.344,0.343,0.342,0.341,0.341,0.34,0.339,0.339,0.339,0.339,0.339,0.34,0.339,0.339,0.34,0.34,0.34,0.34,0.34,0.34,0.339,0.339,0.339,0.339,0.338,0.338,0.338,0.338,0.338,0.338,0.338,0.338,0.338,0.338,0.338,0.338,0.337,0.337,0.337,0.336,0.336,0.336,0.336,0.336,0.335,0.0,0.0,0.0,0.335,0.335,0.335,0.335,0.335,0.335,0.335,0.335,0.335,0.335,0.335,0.335,0.334,0.334,0.333,0.333,0.333,0.332,0.332,0.332,0.332,0.331,0.331,0.331,0.0,0.0,0.331,0.331,0.331,0.331,0.331,0.331,0.33,0.33,0.33,0.329,0.329,0.33,0.33,0.33,0.33,0.33,0.33,0.0,0.0,0.329,0.329,0.329,0.328,0.327,0.3265,0.326,0.3265,0.327,0.0,0.0,0.0,0.326,0.0,0.0,0.0,0.0,0.0,0.0,0.0,0.0,0.325,0.325,0.325,0.325,0.325,0.325,0.325,0.325,0.325,0.324,0.324,0.324,0.324,0.324,0.324,0.324,0.325,0.325,0.0,0.0,0.0,0.0,0.0,0.0,0.0,0.0,0.0,0.0,0.322,0.322,0.322,0.322,0.321,0.321,0.321,0.322,0.322,0.0,0.321,0.321,0.321,0.321,0.321,0.0,0.0,0.321,0.3215,0.322,0.323,0.0,0.0,0.32,0.321,0.321,0.32,0.32,0.32,0.32,0.319,0.319,0.318,0.318,0.318,0.318,0.318,0.3185,0.319,0.319,0.319,0.318,0.318,0.0,0.0,0.3165,0.316,0.316,0.316,0.315,0.315,0.315,0.315,0.315,0.315,0.0,0.0,0.0,0.0,0.315,0.315,0.315,0.315,0.315,0.314,0.314,0.314,0.314,0.314,0.314,0.313,0.0,0.0,0.0,0.0,0.312,0.312,0.312,0.312,0.311,0.311,0.311,0.0,0.0,0.0,0.312,0.0,0.0,0.31,0.31,0.31,0.31,0.31,0.309,0.309,0.0,0.309,0.0,0.0,0.0,0.0,0.0,0.0,0.0,0.0,0.0,0.0,0.0,0.0,0.0,0.0,0.0,0.307,0.307,0.307,0.307,0.306,0.306,0.305,0.305,0.305
0.0,0.0,0.0,0.0,0.0,0.0,0.0,0.0,0.0,0.0,0.0,0.0,0.0,0.0,0.0,0.0,0.0,0.0,0.0,0.0,0.0,0.0,0.0,0.0,0.0,0.0,0.0,0.0,0.0,0.0,0.0,0.0,0.0,0.0,0.0,0.0,0.0,0.0,0.0,0.0,0.0,0.0,0.0,0.377,0.376,0.37575000000000003,0.375,0.374,0.374,0.374,0.374,0.374,0.0,0.374,0.373,0.373,0.373,0.372,0.371,0.0,0.0,0.0,0.369,0.369,0.369,0.369,0.37,0.37,0.3705,0.371,0.372,0.372,0.373,0.372,0.372,0.372,0.372,0.372,0.371,0.371,0.371,0.371,0.371,0.372,0.371,0.371,0.37,0.37,0.369,0.369,0.369,0.0,0.0,0.0,0.0,0.369,0.367,0.0,0.0,0.367,0.367,0.367,0.367,0.367,0.367,0.0,0.0,0.0,0.0,0.0,0.0,0.0,0.0,0.0,0.363,0.0,0.3625,0.362,0.362,0.362,0.362,0.362,0.362,0.362,0.362,0.362,0.362,0.362,0.362,0.362,0.362,0.362,0.362,0.362,0.361,0.361,0.361,0.36,0.359,0.359,0.359,0.35875,0.359,0.359,0.359,0.358,0.36,0.361,0.361,0.361,0.361,0.36,0.36,0.36,0.36,0.36,0.359,0.359,0.359,0.358,0.358,0.358,0.358,0.357,0.357,0.357,0.357,0.357,0.3565,0.356375,0.356,0.356,0.356,0.356,0.0,0.0,0.0,0.356,0.356,0.356,0.356,0.356,0.356,0.35624999999999996,0.356,0.356,0.356,0.355,0.355,0.0,0.0,0.0,0.352,0.352,0.352,0.352,0.352,0.3525,0.0,0.352,0.352,0.352,0.351,0.351,0.351,0.35075,0.351,0.35,0.35,0.35,0.35,0.35,0.349,0.0,0.0,0.0,0.349,0.349,0.349,0.349,0.348,0.348,0.348,0.348,0.348,0.348,0.348,0.0,0.0,0.0,0.0,0.0,0.348,0.348,0.347,0.346,0.346,0.346,0.346,0.345,0.345,0.345,0.345,0.345,0.345,0.345,0.345,0.344,0.344,0.343,0.342,0.342,0.342,0.342,0.341,0.341,0.341,0.341,0.341,0.341,0.341,0.341,0.341,0.341,0.341,0.342,0.342,0.341,0.341,0.341,0.341,0.341,0.341,0.341,0.341,0.341,0.341,0.341,0.3415,0.342,0.342,0.342,0.3415,0.341,0.341,0.341,0.34,0.339,0.339,0.338,0.337,0.3375,0.338,0.338,0.338,0.338,0.338,0.338,0.338,0.339,0.339,0.339,0.339,0.338,0.338,0.338,0.337,0.336,0.336,0.336,0.336,0.336,0.336,0.336,0.336,0.336,0.336,0.336,0.336,0.335,0.335,0.335,0.335,0.335,0.335,0.334,0.334,0.334,0.0,0.0,0.0,0.333,0.333,0.333,0.333,0.3335,0.3335,0.0,0.0,0.0,0.0,0.0,0.333,0.332,0.33225000000000005,0.332,0.332,0.332,0.332,0.3305,0.33037500000000003,0.33,0.329,0.329,0.329,0.329,0.329,0.329,0.33,0.33,0.33,0.33,0.329,0.329,0.329,0.329,0.329,0.329,0.328,0.329,0.329,0.329,0.329,0.0,0.0,0.0,0.3275,0.327,0.326,0.326,0.326,0.325,0.325,0.324,0.325,0.0,0.0,0.324,0.323,0.0,0.0,0.0,0.0,0.0,0.0,0.0,0.0,0.323,0.323,0.323,0.323,0.32375000000000004,0.324,0.323,0.323,0.323,0.323,0.323,0.323,0.323,0.323,0.323,0.323,0.0,0.0,0.0,0.0,0.0,0.0,0.0,0.0,0.0,0.0,0.0,0.0,0.3205,0.32,0.32,0.32,0.32,0.32,0.32,0.32075,0.321,0.32,0.319,0.319,0.319,0.319,0.319,0.3185,0.318,0.319,0.3195,0.32,0.3195,0.319,0.319,0.319,0.319,0.319,0.32,0.319,0.318,0.318,0.318,0.318,0.318,0.317,0.317,0.317,0.317,0.317,0.318,0.318,0.317,0.317,0.316,0.316,0.315,0.315,0.315,0.315,0.315,0.315,0.315,0.314,0.315,0.314,0.314,0.0,0.0,0.0,0.0,0.0,0.313,0.313,0.313,0.312,0.312,0.312,0.312,0.312,0.312,0.312,0.312,0.0,0.0,0.0,0.0,0.31,0.31,0.31,0.31,0.31,0.31,0.31,0.0,0.0,0.0,0.31,0.309,0.309,0.309,0.309,0.309,0.307,0.307,0.307,0.3075,0.30725,0.307,0.307,0.0,0.0,0.0,0.0,0.0,0.0,0.0,0.0,0.0,0.0,0.0,0.0,0.0,0.0,0.306,0.306,0.306,0.305,0.305,0.305,0.304,0.304,0.304
0.0,0.0,0.0,0.0,0.0,0.0,0.0,0.0,0.0,0.0,0.0,0.0,0.0,0.0,0.0,0.0,0.0,0.0,0.0,0.0,0.0,0.0,0.0,0.0,0.0,0.0,0.0,0.0,0.0,0.0,0.0,0.0,0.0,0.0,0.0,0.0,0.0,0.0,0.0,0.0,0.0,0.0,0.0,0.376,0.376,0.375,0.374,0.373,0.373,0.373,0.373,0.373,0.3725,0.372,0.372,0.371,0.37,0.37,0.369,0.369,0.0,0.0,0.367,0.367,0.367,0.368,0.369,0.369,0.369,0.37,0.37,0.37,0.37,0.37,0.37,0.369,0.369,0.369,0.368,0.0,0.0,0.369,0.369,0.369,0.369,0.369,0.368,0.368,0.366,0.366,0.366,0.0,0.0,0.0,0.0,0.365,0.365,0.0,0.0,0.365,0.365,0.36474999999999996,0.365,0.365,0.365,0.0,0.0,0.0,0.0,0.0,0.0,0.0,0.0,0.0,0.0,0.0,0.36,0.36,0.36,0.361,0.361,0.36,0.36,0.36,0.361,0.36,0.36,0.36,0.36,0.36,0.36,0.361,0.361,0.0,0.0,0.359,0.359,0.358,0.358,0.358,0.357,0.357,0.357,0.357,0.357,0.357,0.356,0.356,0.35750000000000004,0.358,0.0,0.0,0.358,0.358,0.358,0.358,0.358,0.357,0.356,0.356,0.356,0.356,0.356,0.355,0.355,0.355,0.355,0.355,0.355,0.355,0.355,0.355,0.355,0.355,0.0,0.0,0.0,0.355,0.355,0.355,0.355,0.355,0.355,0.355,0.355,0.355,0.355,0.355,0.354,0.353,0.351,0.351,0.351,0.351,0.351,0.351,0.351,0.351,0.3505,0.35,0.35,0.35,0.35,0.35,0.35,0.349,0.349,0.349,0.348,0.348,0.348,0.348,0.348,0.0,0.0,0.348,0.348,0.348,0.348,0.348,0.347,0.347,0.346,0.346,0.346,0.346,0.345,0.0,0.0,0.0,0.0,0.0,0.345,0.345,0.345,0.0,0.34450000000000003,0.345,0.345,0.345,0.344,0.344,0.344,0.345,0.344,0.344,0.344,0.343,0.342,0.342,0.342,0.342,0.341,0.341,0.341,0.34,0.34,0.34,0.34,0.34,0.34025,0.341,0.341,0.341,0.341,0.341,0.341,0.34,0.34,0.339,0.34,0.34,0.34,0.339,0.339,0.339,0.339,0.339,0.339,0.339,0.339,0.34,0.339,0.339,0.339,0.339,0.338,0.338,0.338,0.336,0.336,0.336,0.336,0.337,0.337,0.337,0.337,0.337,0.33725000000000005,0.338,0.338,0.338,0.337,0.337,0.336,0.336,0.335,0.335,0.335,0.335,0.335,0.335,0.335,0.335,0.335,0.335,0.335,0.335,0.335,0.333,0.333,0.0,0.333,0.332,0.332,0.332,0.332,0.332,0.332,0.332,0.332,0.332,0.331,0.332,0.332,0.332,0.332,0.0,0.0,0.0,0.0,0.0,0.331,0.33075,0.331,0.331,0.33,0.33,0.3295,0.329,0.329,0.329,0.328,0.328,0.328,0.328,0.328,0.328,0.329,0.329,0.329,0.328,0.328,0.328,0.328,0.327,0.327,0.327,0.327,0.327,0.327,0.327,0.327,0.0,0.0,0.0,0.326,0.326,0.326,0.325,0.325,0.325,0.324,0.324,0.323,0.323,0.323,0.322,0.0,0.0,0.0,0.0,0.0,0.0,0.0,0.0,0.322,0.322,0.0,0.0,0.3225,0.323,0.3225,0.322125,0.322,0.322,0.322,0.322,0.322,0.322,0.321,0.321,0.321,0.0,0.0,0.0,0.0,0.0,0.0,0.0,0.0,0.0,0.0,0.0,0.319,0.319,0.319,0.319,0.32,0.32,0.32,0.32,0.32,0.3195,0.319,0.31825000000000003,0.318,0.318,0.318,0.318,0.0,0.0,0.0,0.0,0.0,0.0,0.0,0.0,0.0,0.318,0.318,0.318,0.0,0.0,0.0,0.317,0.316,0.316,0.316,0.315,0.315,0.315,0.316,0.315,0.316,0.315,0.315,0.315,0.314,0.314,0.314,0.314,0.313,0.313,0.313,0.313,0.313,0.313,0.312,0.312,0.0,0.0,0.0,0.0,0.0,0.311,0.311,0.311,0.311,0.311,0.311,0.311,0.311,0.311,0.31,0.31,0.31,0.309,0.309,0.309,0.309,0.309,0.309,0.309,0.309,0.309,0.309,0.0,0.0,0.0,0.307,0.306,0.306,0.306,0.307,0.306,0.306,0.306,0.306,0.306,0.305,0.305,0.3055,0.0,0.0,0.0,0.0,0.0,0.0,0.0,0.0,0.0,0.0,0.304,0.0,0.0,0.304,0.304,0.304,0.304,0.304,0.304,0.303,0.303,0.303,0.303
0.0,0.0,0.0,0.0,0.0,0.0,0.0,0.0,0.0,0.0,0.0,0.0,0.0,0.0,0.0,0.0,0.0,0.0,0.0,0.0,0.0,0.0,0.0,0.0,0.0,0.0,0.0,0.0,0.0,0.0,0.0,0.0,0.0,0.0,0.0,0.0,0.0,0.0,0.0,0.0,0.0,0.0,0.0,0.373,0.374,0.373,0.373,0.372,0.37175,0.372,0.37175,0.372,0.371,0.0,0.0,0.37,0.369,0.369,0.369,0.368,0.367,0.366,0.366,0.366,0.366,0.36675,0.367,0.367,0.368,0.368,0.368,0.369,0.369,0.369,0.369,0.367,0.366,0.366,0.0,0.0,0.0,0.0,0.0,0.0,0.0,0.0,0.0,0.0,0.363,0.363,0.362,0.0,0.0,0.362,0.362,0.362,0.362,0.362,0.362,0.362,0.362,0.362,0.362,0.362,0.362,0.0,0.0,0.0,0.0,0.0,0.0,0.0,0.0,0.0,0.0,0.0,0.358,0.358,0.359,0.359,0.0,0.0,0.359,0.359,0.359,0.359,0.359,0.359,0.358,0.359,0.359,0.359,0.0,0.0,0.0,0.357,0.357,0.356,0.356,0.355,0.355,0.355,0.355,0.355,0.355,0.355,0.355,0.355,0.355,0.355,0.0,0.0,0.355,0.356,0.356,0.356,0.3565,0.0,0.0,0.0,0.0,0.355,0.355,0.354,0.354,0.354,0.354,0.354,0.354,0.354,0.354,0.353,0.353,0.353,0.353,0.353,0.353,0.354,0.354,0.354,0.355,0.355,0.355,0.355,0.355,0.355,0.354,0.353,0.351,0.351,0.35,0.349,0.349,0.349,0.348,0.348,0.349,0.349,0.348,0.348,0.348,0.348,0.348,0.348,0.348,0.348,0.348,0.348,0.348,0.347,0.347,0.347,0.347,0.347,0.346,0.346,0.345,0.345,0.345,0.345,0.345,0.345,0.345,0.345,0.344,0.344,0.343,0.0,0.0,0.0,0.0,0.344,0.344,0.0,0.0,0.0,0.343,0.343,0.343,0.342,0.342,0.342,0.342,0.343,0.342,0.342,0.342,0.342,0.341,0.341,0.341,0.341,0.34,0.34,0.34,0.339,0.339,0.339,0.339,0.339,0.339,0.339,0.339,0.339,0.339,0.339,0.339,0.339,0.339,0.338,0.338,0.338,0.338,0.338,0.338,0.338,0.338,0.337,0.337,0.338,0.338,0.338,0.338,0.338,0.337,0.33675000000000005,0.336,0.336,0.335,0.335,0.335,0.335,0.336,0.336,0.336,0.336,0.336,0.336,0.336,0.336,0.336,0.0,0.0,0.0,0.0,0.0,0.3335,0.334,0.334,0.333,0.334,0.333,0.333,0.333,0.333,0.333,0.333,0.332,0.332,0.332,0.332,0.3315,0.331,0.331,0.331,0.33,0.33,0.33,0.33,0.33,0.33,0.33,0.33,0.33,0.33,0.33,0.33,0.33,0.0,0.0,0.0,0.329,0.329,0.329,0.329,0.329,0.3285,0.0,0.0,0.3275,0.327,0.327,0.327,0.327,0.327,0.326,0.326,0.3265,0.327,0.0,0.0,0.0,0.326,0.326,0.326,0.326,0.326,0.326,0.326,0.325,0.325,0.325,0.325,0.0,0.0,0.0,0.324,0.325,0.325,0.325,0.324,0.324,0.323,0.323,0.322,0.322,0.322,0.321,0.0,0.0,0.0,0.0,0.0,0.0,0.321,0.321,0.321,0.0,0.0,0.0,0.322,0.322,0.321,0.321,0.321,0.321,0.321,0.321,0.321,0.32,0.32,0.32,0.32,0.32,0.0,0.0,0.0,0.0,0.0,0.0,0.0,0.0,0.0,0.0,0.318,0.318,0.318,0.318,0.318,0.318,0.318,0.319,0.319,0.318,0.318,0.317,0.317,0.317,0.317,0.317,0.0,0.0,0.0,0.0,0.0,0.0,0.0,0.0,0.0,0.316,0.0,0.0,0.0,0.0,0.0,0.315,0.315,0.315,0.314,0.314,0.314,0.314,0.0,0.0,0.0,0.0,0.0,0.0,0.313,0.313,0.313,0.312,0.312,0.312,0.312,0.312,0.311,0.311,0.31,0.3095,0.0,0.0,0.0,0.0,0.0,0.309,0.30924999999999997,0.309,0.3095,0.31,0.31,0.31,0.31,0.31,0.31,0.309,0.309,0.308,0.308,0.308,0.308,0.308,0.308,0.308,0.308,0.307,0.306,0.306,0.305,0.305,0.305,0.305,0.305,0.305,0.305,0.305,0.305,0.305,0.305,0.305,0.305,0.304,0.304,0.0,0.0,0.0,0.0,0.0,0.0,0.0,0.0,0.0,0.302,0.3025,0.302,0.302,0.303,0.303,0.303,0.303,0.0,0.0,0.0,0.0,0.302,0.302
0.0,0.0,0.0,0.0,0.0,0.0,0.0,0.0,0.0,0.0,0.0,0.0,0.0,0.0,0.0,0.0,0.0,0.0,0.0,0.0,0.0,0.0,0.0,0.0,0.0,0.0,0.0,0.0,0.0,0.0,0.0,0.0,0.0,0.0,0.0,0.0,0.0,0.0,0.0,0.0,0.0,0.0,0.0,0.37,0.37,0.37,0.37,0.37,0.37,0.37,0.37,0.37,0.3695,0.0,0.0,0.369,0.368,0.368,0.368,0.367,0.3665,0.36624999999999996,0.366,0.366,0.366,0.366,0.366,0.366,0.366,0.366,0.366,0.366,0.366,0.367,0.0,0.0,0.365,0.365,0.0,0.0,0.0,0.0,0.0,0.0,0.0,0.0,0.0,0.0,0.0,0.0,0.361,0.361,0.36,0.359,0.359,0.359,0.359,0.359,0.359,0.36,0.36,0.36,0.36,0.0,0.0,0.0,0.0,0.0,0.0,0.354,0.3545,0.355,0.355,0.355,0.355,0.356,0.356,0.356,0.357,0.358,0.0,0.0,0.3575,0.358,0.358,0.358,0.358,0.358,0.358,0.358,0.358,0.357,0.0,0.0,0.0,0.355,0.355,0.355,0.354,0.354,0.354,0.353,0.353,0.353,0.353,0.352,0.352,0.352,0.352,0.352,0.0,0.0,0.352,0.352,0.3525,0.35312499999999997,0.355,0.0,0.0,0.0,0.0,0.354,0.353,0.352,0.352,0.352,0.352,0.352,0.352,0.352,0.352,0.352,0.352,0.352,0.351,0.352,0.352,0.352,0.352,0.353,0.354,0.354,0.354,0.354,0.354,0.0,0.0,0.35,0.349,0.349,0.348,0.348,0.348,0.348,0.348,0.348,0.348,0.348,0.348,0.348,0.347,0.347,0.347,0.347,0.347,0.347,0.347,0.346,0.346,0.346,0.345,0.345,0.345,0.345,0.345,0.344,0.344,0.344,0.344,0.345,0.0,0.0,0.0,0.3435,0.343,0.342,0.342,0.342,0.342,0.342,0.342,0.342,0.342,0.0,0.0,0.0,0.341,0.341,0.341,0.341,0.341,0.341,0.341,0.341,0.341,0.341,0.341,0.341,0.34,0.34,0.339,0.339,0.339,0.339,0.339,0.339,0.338,0.339,0.339,0.338,0.338,0.338,0.338,0.338,0.338,0.338,0.338,0.338,0.338,0.337,0.337,0.337,0.336,0.33625000000000005,0.336,0.336,0.336,0.336,0.336,0.3365,0.0,0.0,0.0,0.0,0.335,0.335,0.335,0.335,0.334,0.334,0.334,0.334,0.335,0.335,0.335,0.335,0.335,0.335,0.335,0.335,0.0,0.0,0.0,0.0,0.0,0.0,0.332,0.332,0.332,0.332,0.332,0.332,0.332,0.332,0.332,0.332,0.332,0.331,0.331,0.331,0.331,0.33,0.33,0.33,0.33,0.329,0.329,0.329,0.329,0.329,0.329,0.329,0.329,0.329,0.329,0.329,0.329,0.328,0.328,0.327,0.327,0.327,0.327,0.327,0.327,0.327,0.327,0.0,0.0,0.326,0.326,0.326,0.326,0.326,0.326,0.326,0.326,0.32525000000000004,0.0,0.0,0.0,0.0,0.325,0.325,0.325,0.324,0.324,0.324,0.324,0.323,0.323,0.323,0.323,0.323,0.323,0.323,0.323,0.323,0.323,0.324,0.3235,0.323,0.322,0.322,0.322,0.321,0.321,0.321,0.3205,0.32,0.32,0.32,0.319,0.32,0.32,0.32,0.32,0.32,0.32,0.321,0.321,0.321,0.32,0.32,0.32,0.32,0.32,0.319,0.319,0.318,0.318,0.318,0.318,0.3175,0.0,0.0,0.0,0.0,0.0,0.0,0.0,0.0,0.0,0.0,0.316,0.316,0.317,0.317,0.0,0.0,0.0,0.0,0.317,0.317,0.316,0.315,0.315,0.315,0.315,0.0,0.0,0.0,0.0,0.0,0.0,0.0,0.0,0.0,0.0,0.314,0.0,0.0,0.0,0.0,0.0,0.313,0.313,0.313,0.313,0.313,0.313,0.313,0.0,0.0,0.0,0.0,0.0,0.0,0.312,0.312,0.311,0.311,0.311,0.311,0.31,0.31,0.309,0.309,0.308,0.307,0.307,0.307,0.307,0.307,0.307,0.30775,0.308,0.308,0.308,0.3085,0.309,0.309,0.309,0.309,0.30824999999999997,0.307,0.307,0.307,0.307,0.307,0.307,0.306,0.306,0.306,0.305,0.305,0.305,0.305,0.304,0.304,0.304,0.304,0.304,0.304,0.304,0.304,0.304,0.304,0.304,0.304,0.304,0.304,0.304,0.304,0.0,0.0,0.0,0.0,0.0,0.0,0.0,0.0,0.0,0.302,0.302,0.302,0.302,0.302,0.302,0.302,0.0,0.0,0.0,0.0,0.301,0.301
0.0,0.0,0.0,0.0,0.0,0.0,0.0,0.0,0.0,0.0,0.0,0.0,0.0,0.0,0.0,0.0,0.0,0.0,0.0,0.0,0.0,0.0,0.0,0.0,0.0,0.0,0.0,0.0,0.0,0.0,0.0,0.0,0.0,0.0,0.0,0.0,0.0,0.0,0.0,0.0,0.0,0.0,0.0,0.0,0.0,0.0,0.0,0.368,0.368,0.368,0.368,0.368,0.368,0.367,0.367,0.367,0.366,0.366,0.366,0.366,0.366,0.365125,0.36503125,0.365,0.365,0.365,0.365,0.365,0.0,0.0,0.0,0.365,0.365,0.365,0.0,0.0,0.363,0.363,0.363,0.0,0.0,0.363,0.0,0.0,0.0,0.0,0.0,0.0,0.0,0.0,0.3595,0.359,0.359,0.35824999999999996,0.358,0.3575,0.0,0.3575,0.358,0.358,0.358,0.0,0.0,0.0,0.0,0.0,0.0,0.0,0.0,0.3535,0.35375,0.354,0.3545,0.35462499999999997,0.355,0.355,0.355,0.355,0.35575,0.356,0.356,0.356,0.356,0.356,0.356,0.356,0.356,0.356,0.355,0.355,0.355,0.355,0.3545,0.354,0.354,0.353,0.352,0.352,0.352,0.352,0.351,0.351,0.351,0.351,0.351,0.351,0.35,0.35,0.35,0.35,0.35,0.3495,0.349,0.349,0.349,0.349,0.349,0.0,0.0,0.351,0.351,0.351,0.351,0.351,0.351,0.351,0.351,0.351,0.351,0.351,0.351,0.351,0.351,0.35,0.35,0.35024999999999995,0.351,0.351,0.352,0.352,0.352,0.352,0.352,0.352,0.352,0.0,0.0,0.0,0.0,0.348,0.347,0.346,0.346,0.346,0.346,0.346,0.346,0.346,0.345,0.345,0.345,0.345,0.345,0.345,0.345,0.345,0.345,0.345,0.345,0.345,0.345,0.344,0.344,0.343,0.343,0.343,0.343,0.343,0.343,0.3435,0.0,0.0,0.0,0.342,0.342,0.342,0.342,0.342,0.341,0.341,0.34,0.34,0.34,0.34,0.0,0.0,0.0,0.3395,0.339,0.33975000000000005,0.34,0.34,0.34,0.34,0.34,0.34,0.339,0.339,0.339,0.339,0.338,0.338,0.338,0.338,0.338,0.338,0.338,0.338,0.338,0.338,0.338,0.337,0.0,0.0,0.0,0.338,0.337,0.336,0.336,0.336,0.335,0.335,0.335,0.335,0.335,0.335,0.335,0.335,0.335,0.335,0.0,0.0,0.0,0.0,0.333,0.333,0.333,0.332,0.332,0.332,0.332,0.332,0.3325,0.333,0.333,0.334,0.334,0.334,0.334,0.335,0.0,0.0,0.0,0.0,0.0,0.331,0.331,0.331,0.331,0.331,0.33,0.33,0.33,0.33,0.33,0.33,0.33,0.33,0.329,0.33,0.33,0.329,0.329,0.329,0.329,0.329,0.328,0.328,0.328,0.328,0.328,0.328,0.328,0.327,0.327,0.326,0.326,0.326,0.326,0.326,0.326,0.326,0.326,0.326,0.326,0.326,0.326,0.325,0.324,0.324,0.324,0.324,0.324,0.324,0.324,0.324,0.324,0.324,0.0,0.0,0.0,0.0,0.323,0.323,0.323,0.323,0.0,0.0,0.3225,0.321,0.321,0.321,0.321,0.32125,0.321,0.321,0.3215,0.322,0.322,0.322,0.323,0.322,0.321,0.321,0.321,0.32,0.32,0.32,0.32,0.0,0.0,0.318,0.3185,0.319,0.319,0.319,0.319,0.319,0.319,0.32,0.32,0.319,0.318,0.318,0.318,0.318,0.318,0.318,0.318,0.318,0.317,0.317,0.317,0.315,0.314,0.313,0.0,0.0,0.312,0.313,0.313,0.314,0.314,0.315,0.315,0.315,0.315,0.0,0.0,0.0,0.0,0.0,0.315,0.315,0.315,0.315,0.314,0.314,0.0,0.0,0.0,0.0,0.0,0.0,0.0,0.0,0.0,0.0,0.312,0.312,0.0,0.0,0.0,0.0,0.0,0.3115,0.312,0.312,0.311,0.311,0.312,0.3115,0.312,0.312,0.0,0.0,0.0,0.31,0.31,0.31,0.31,0.31,0.309,0.309,0.309,0.309,0.307,0.307,0.307,0.307,0.306,0.306,0.306,0.306,0.307,0.307,0.307,0.307,0.307,0.307,0.307,0.307,0.307,0.307,0.307,0.307,0.307,0.305,0.305,0.305,0.305,0.305,0.305,0.305,0.305,0.305,0.304,0.304,0.304,0.303,0.303,0.302,0.302,0.302,0.30274999999999996,0.303,0.303,0.303,0.304,0.304,0.304,0.304,0.304,0.3035,0.0,0.0,0.0,0.0,0.0,0.0,0.0,0.0,0.0,0.302,0.302,0.302,0.302,0.301,0.301,0.301,0.0,0.0,0.0,0.0,0.3,0.3
0.0,0.0,0.0,0.0,0.0,0.0,0.0,0.0,0.0,0.0,0.0,0.0,0.0,0.0,0.0,0.0,0.0,0.0,0.0,0.0,0.0,0.0,0.0,0.0,0.0,0.0,0.0,0.0,0.0,0.0,0.0,0.0,0.0,0.0,0.0,0.0,0.0,0.0,0.0,0.0,0.0,0.0,0.0,0.0,0.0,0.0,0.0,0.0,0.366,0.366,0.366,0.366,0.366,0.366,0.366,0.366,0.365,0.365,0.365,0.365,0.365,0.364,0.364,0.363,0.364,0.364,0.364,0.3635,0.0,0.0,0.0,0.3625,0.362875,0.363,0.363,0.362,0.362,0.362,0.362,0.362,0.361,0.36,0.36,0.36,0.359,0.359,0.359,0.358,0.358,0.358,0.358,0.358,0.357,0.357,0.357,0.356,0.356,0.356,0.356,0.356,0.3565,0.0,0.0,0.0,0.0,0.0,0.0,0.353,0.353,0.353,0.353,0.354,0.354,0.354,0.354,0.355,0.355,0.355,0.355,0.355,0.355,0.355,0.354,0.354,0.354,0.354,0.354,0.354,0.354,0.353,0.352,0.352,0.352,0.352,0.351,0.351,0.351,0.351,0.351,0.35,0.35,0.35,0.349,0.349,0.349,0.349,0.348,0.348,0.348,0.348,0.348,0.347,0.347,0.347,0.347,0.347,0.347,0.347,0.348,0.349,0.349,0.34950000000000003,0.35,0.35,0.35,0.351,0.351,0.35,0.35,0.0,0.0,0.348,0.348,0.348,0.348,0.348,0.349,0.35,0.35,0.3505,0.351,0.35,0.0,0.0,0.3485,0.0,0.0,0.0,0.0,0.345,0.345,0.345,0.345,0.345,0.345,0.345,0.345,0.345,0.345,0.344,0.344,0.344,0.344,0.344,0.344,0.345,0.344,0.344,0.344,0.343,0.343,0.342,0.342,0.342,0.342,0.342,0.342,0.342,0.342,0.342,0.0,0.0,0.341,0.341,0.341,0.341,0.341,0.341,0.34,0.339,0.338,0.338,0.338,0.338,0.0,0.0,0.0,0.338,0.338,0.339,0.339,0.339,0.339,0.339,0.338,0.338,0.338,0.338,0.338,0.337,0.337,0.337,0.337,0.337,0.337,0.337,0.337,0.336,0.336,0.337,0.336,0.336,0.0,0.0,0.0,0.336,0.335,0.335,0.335,0.335,0.334,0.334,0.334,0.333,0.334,0.334,0.334,0.334,0.334,0.333,0.333,0.332,0.0,0.0,0.331,0.331,0.33,0.33,0.33,0.33,0.33,0.33,0.0,0.0,0.332,0.0,0.3315,0.332,0.332,0.332,0.0,0.0,0.0,0.0,0.33,0.33,0.329,0.329,0.329,0.329,0.328,0.328,0.328,0.328,0.328,0.328,0.328,0.328,0.328,0.328,0.328,0.327,0.327,0.327,0.327,0.327,0.328,0.327,0.327,0.327,0.327,0.327,0.327,0.326,0.326,0.326,0.325,0.324,0.324,0.324,0.324,0.324,0.324,0.324,0.324,0.324,0.324,0.323,0.323,0.323,0.323,0.323,0.323,0.323,0.323,0.322,0.322,0.321,0.321,0.0,0.0,0.321,0.321,0.321,0.321,0.321,0.0,0.0,0.321,0.32,0.32,0.32,0.32,0.32,0.0,0.0,0.0,0.0,0.321,0.321,0.0,0.32,0.32,0.32,0.319,0.319,0.319,0.318,0.0,0.0,0.0,0.317,0.318,0.318,0.318,0.318,0.318,0.318,0.318,0.318,0.318,0.318,0.318,0.317,0.317,0.317,0.317,0.317,0.316,0.316,0.315,0.315,0.315,0.314,0.313,0.313,0.3125,0.312,0.312,0.312,0.0,0.0,0.313,0.313,0.313,0.313,0.314,0.0,0.0,0.0,0.0,0.314,0.314,0.314,0.313,0.313,0.312,0.312,0.0,0.0,0.0,0.0,0.0,0.0,0.0,0.311,0.311,0.311,0.31,0.31,0.31,0.3095,0.309,0.3095,0.31,0.31,0.31,0.31,0.31,0.31,0.31,0.309,0.309,0.309,0.0,0.0,0.0,0.3085,0.309,0.308,0.308,0.308,0.308,0.308,0.308,0.307,0.307,0.307,0.306,0.306,0.306,0.305,0.305,0.305,0.306,0.306,0.306,0.306,0.306,0.306,0.306,0.306,0.306,0.0,0.0,0.0,0.304,0.304,0.304,0.304,0.304,0.304,0.304,0.304,0.304,0.304,0.304,0.303,0.303,0.302,0.302,0.302,0.302,0.302,0.302,0.302,0.302,0.302,0.302,0.302,0.3025,0.303,0.303,0.303,0.0,0.0,0.0,0.0,0.0,0.0,0.0,0.0,0.0,0.301,0.302,0.301,0.301,0.3,0.3,0.3,0.299,0.299,0.299,0.299,0.299,0.299
0.0,0.0,0.0,0.0,0.0,0.0,0.0,0.0,0.0,0.0,0.0,0.0,0.0,0.0,0.0,0.0,0.0,0.0,0.0,0.0,0.0,0.0,0.0,0.0,0.0,0.0,0.0,0.0,0.0,0.0,0.0,0.0,0.0,0.0,0.0,0.0,0.0,0.0,0.0,0.0,0.0,0.0,0.362,0.363,0.0,0.0,0.0,0.0,0.364,0.363,0.364,0.364,0.364,0.364,0.364,0.363,0.363,0.363,0.363,0.363,0.363,0.362,0.362,0.362,0.362,0.362,0.362,0.362,0.0,0.0,0.0,0.36,0.361,0.361,0.36,0.36,0.359,0.359,0.359,0.359,0.359,0.358,0.356,0.356,0.356,0.356,0.356,0.355,0.355,0.355,0.356,0.356,0.356,0.356,0.355,0.355,0.355,0.355,0.355,0.355,0.355,0.354,0.354,0.0,0.0,0.0,0.352,0.352,0.352,0.352,0.352,0.352,0.352,0.353,0.352,0.352,0.352,0.352,0.352,0.352,0.352,0.352,0.352,0.352,0.351,0.352,0.352,0.351,0.351,0.35,0.35,0.35,0.35,0.35,0.349,0.349,0.349,0.349,0.348,0.348,0.348,0.348,0.348,0.348,0.348,0.347,0.347,0.346,0.346,0.346,0.345,0.345,0.345,0.345,0.345,0.345,0.345,0.345,0.346,0.348,0.347,0.348,0.348,0.349,0.349,0.349,0.348,0.0,0.0,0.0,0.0,0.348,0.347,0.347,0.347,0.347,0.347,0.348,0.348,0.0,0.0,0.0,0.0,0.0,0.345,0.0,0.0,0.344,0.344,0.344,0.344,0.344,0.344,0.344,0.343,0.343,0.343,0.342,0.342,0.342,0.342,0.342,0.342,0.342,0.342,0.342,0.0,0.0,0.0,0.341,0.341,0.341,0.341,0.341,0.341,0.341,0.341,0.341,0.341,0.34,0.34,0.34,0.339,0.339,0.339,0.339,0.339,0.339,0.0,0.0,0.0,0.337,0.336,0.336,0.0,0.0,0.336,0.337,0.337,0.338,0.338,0.338,0.337,0.337,0.0,0.0,0.3365,0.335,0.335,0.335,0.335,0.335,0.335,0.335,0.335,0.335,0.335,0.335,0.335,0.335,0.335,0.335,0.335,0.335,0.335,0.334,0.334,0.333,0.333,0.333,0.332,0.332,0.332,0.332,0.332,0.332,0.332,0.332,0.331,0.331,0.33,0.33,0.0,0.0,0.329,0.329,0.329,0.329,0.329,0.329,0.329,0.0,0.0,0.0,0.3295,0.32925000000000004,0.329,0.329,0.329,0.329,0.329,0.329,0.329,0.329,0.329,0.329,0.328,0.328,0.327,0.327,0.327,0.326,0.326,0.326,0.326,0.326,0.326,0.326,0.326,0.326,0.326,0.326,0.326,0.326,0.326,0.326,0.326,0.326,0.326,0.326,0.326,0.326,0.326,0.325,0.324,0.324,0.323,0.323,0.323,0.323,0.323,0.323,0.323,0.323,0.323,0.322,0.322,0.322,0.321,0.321,0.32125,0.321,0.321,0.321,0.32,0.32,0.32,0.32,0.319,0.319,0.319,0.319,0.319,0.32,0.32,0.32,0.32,0.319,0.319,0.318,0.318,0.318,0.318,0.318,0.0,0.0,0.0,0.0,0.319,0.319,0.3185,0.318,0.318,0.318,0.317,0.317,0.317,0.316,0.0,0.0,0.0,0.0,0.3165,0.317,0.317,0.317,0.318,0.318,0.318,0.318,0.318,0.318,0.317,0.316,0.316,0.316,0.31575,0.315,0.315,0.315,0.315,0.315,0.314,0.31325,0.313,0.312,0.312,0.312,0.312,0.312,0.0,0.0,0.312,0.312,0.312,0.312,0.312,0.0,0.0,0.0,0.312,0.312,0.312,0.312,0.31175,0.312,0.311,0.311,0.31,0.0,0.0,0.0,0.0,0.0,0.31,0.31,0.31,0.31,0.31,0.309,0.309,0.309,0.308,0.308,0.308,0.308,0.307,0.308,0.307,0.307,0.307,0.306,0.306,0.306,0.306,0.306,0.3065,0.307,0.307,0.307,0.307,0.307,0.30674999999999997,0.307,0.3065,0.306,0.306,0.305,0.305,0.305,0.305,0.305,0.305,0.305,0.305,0.305,0.305,0.305,0.305,0.304,0.303,0.303,0.303,0.0,0.0,0.0,0.303,0.303,0.303,0.303,0.303,0.302,0.30225,0.302,0.302,0.302,0.302,0.302,0.302,0.301,0.301,0.301,0.301,0.3,0.3,0.3,0.301,0.301,0.0,0.0,0.0,0.0,0.0,0.0,0.0,0.0,0.0,0.0,0.0,0.0,0.0,0.0,0.0,0.3,0.0,0.0,0.0,0.299,0.298,0.298,0.298,0.297,0.297,0.297,0.298,0.298
0.0,0.0,0.0,0.0,0.0,0.0,0.0,0.0,0.0,0.0,0.0,0.0,0.0,0.0,0.0,0.0,0.0,0.0,0.0,0.0,0.0,0.0,0.0,0.0,0.0,0.0,0.0,0.0,0.0,0.0,0.0,0.0,0.0,0.0,0.0,0.0,0.0,0.0,0.0,0.0,0.0,0.0,0.362,0.362,0.362,0.362,0.362,0.362,0.362,0.362,0.362,0.36224999999999996,0.362,0.362,0.362,0.362,0.362,0.361,0.362,0.362,0.361,0.361,0.361,0.361,0.361,0.362,0.36,0.36,0.359,0.359,0.358,0.358,0.358,0.359,0.359,0.359,0.359,0.359,0.358,0.357,0.356,0.355,0.355,0.355,0.354,0.354,0.354,0.354,0.354,0.354,0.355,0.354,0.354,0.354,0.354,0.354,0.353,0.353,0.352,0.352,0.352,0.0,0.0,0.0,0.0,0.351,0.351,0.351,0.351,0.351,0.351,0.351,0.351,0.351,0.351,0.351,0.351,0.351,0.351,0.351,0.351,0.35,0.349,0.35,0.35,0.35,0.349,0.349,0.349,0.348,0.348,0.348,0.348,0.348,0.348,0.348,0.348,0.347,0.348,0.347,0.347,0.347,0.346,0.346,0.346,0.345,0.345,0.345,0.345,0.345,0.345,0.345,0.345,0.345,0.345,0.345,0.345,0.345,0.345,0.345,0.345,0.347,0.347,0.347,0.348,0.348,0.348,0.0,0.0,0.346,0.346,0.346,0.346,0.3455,0.345,0.345,0.345,0.34550000000000003,0.0,0.0,0.0,0.0,0.0,0.343,0.343,0.342,0.342,0.342,0.342,0.343,0.342,0.343,0.342,0.342,0.341,0.341,0.341,0.3405,0.0,0.3405,0.341,0.341,0.341,0.341,0.34,0.0,0.0,0.0,0.0,0.339,0.339,0.339,0.339,0.339,0.339,0.339,0.339,0.338,0.338,0.338,0.338,0.338,0.337,0.337,0.338,0.338,0.0,0.0,0.0,0.0,0.0,0.336,0.335,0.335,0.335,0.335,0.335,0.335,0.336,0.336,0.336,0.336,0.335,0.335,0.0,0.0,0.335,0.334,0.334,0.334,0.334,0.334,0.334,0.334,0.334,0.333,0.333,0.333,0.333,0.333,0.333,0.333,0.333,0.333,0.333,0.332,0.332,0.332,0.332,0.331,0.331,0.33,0.33,0.331,0.331,0.0,0.331,0.33,0.3295,0.329,0.329,0.328,0.3275,0.327,0.327,0.327,0.327,0.327,0.327,0.327,0.327,0.327,0.327,0.327,0.327,0.327,0.0,0.0,0.0,0.0,0.328,0.3275,0.327,0.3275,0.328,0.327,0.326,0.326,0.326,0.326,0.326,0.325,0.325,0.325,0.325,0.325,0.325,0.325,0.325,0.325,0.325,0.325,0.325,0.325,0.325,0.325,0.325,0.325,0.326,0.325,0.325,0.324,0.324,0.3235,0.323125,0.323,0.323,0.322,0.322,0.3215,0.0,0.0,0.3215,0.0,0.0,0.321,0.32,0.32,0.32,0.32,0.32,0.32,0.32,0.319,0.319,0.318,0.318,0.318,0.318,0.318,0.318,0.318,0.318,0.318,0.318,0.318,0.318,0.318,0.317,0.317,0.317,0.317,0.31725000000000003,0.318,0.318,0.318,0.0,0.0,0.317,0.317,0.317,0.316,0.316,0.315,0.315,0.315,0.315,0.315,0.315,0.0,0.0,0.0,0.315,0.316,0.316,0.0,0.0,0.0,0.3175,0.318,0.318,0.0,0.0,0.0,0.3145,0.315,0.315,0.314,0.0,0.0,0.0,0.0,0.313,0.312,0.312,0.312,0.311,0.311,0.311,0.311,0.311,0.311,0.311,0.311,0.31,0.31,0.31,0.31,0.31,0.31,0.31,0.31,0.31,0.31,0.31,0.31,0.30975,0.31,0.309,0.309,0.309,0.308,0.3085,0.309,0.31,0.31,0.31,0.31,0.309,0.308,0.307,0.307,0.307,0.307,0.307,0.306,0.306,0.306,0.306,0.305,0.305,0.305,0.305,0.305,0.305,0.305,0.305,0.305,0.305,0.305,0.306,0.306,0.305,0.305,0.305,0.3045,0.304,0.304,0.304,0.304,0.304,0.304,0.304,0.304,0.304,0.304,0.305,0.0,0.0,0.0,0.302,0.302,0.302,0.302,0.302,0.302,0.302,0.302,0.302,0.302,0.301,0.301,0.301,0.0,0.0,0.0,0.0,0.3,0.3,0.3,0.3,0.3,0.299,0.299,0.299,0.299,0.299,0.0,0.0,0.0,0.0,0.0,0.0,0.0,0.0,0.0,0.0,0.0,0.0,0.0,0.0,0.0,0.299,0.0,0.0,0.0,0.0,0.0,0.297,0.297,0.297,0.0,0.0,0.0,0.298,0.0
0.0,0.0,0.0,0.0,0.0,0.0,0.0,0.0,0.0,0.0,0.0,0.0,0.0,0.0,0.0,0.0,0.0,0.0,0.0,0.0,0.0,0.0,0.0,0.0,0.0,0.0,0.0,0.0,0.0,0.0,0.0,0.0,0.0,0.0,0.0,0.0,0.0,0.0,0.0,0.0,0.0,0.0,0.36,0.36,0.361,0.361,0.361,0.361,0.361,0.361,0.361,0.361,0.361,0.361,0.361,0.36,0.359,0.359,0.359,0.359,0.359,0.359,0.359,0.359,0.359,0.358,0.358,0.3575,0.357,0.357,0.357,0.357,0.357,0.357,0.358,0.358,0.358,0.35725,0.357,0.355,0.355,0.355,0.354,0.354,0.353,0.353,0.353,0.353,0.353,0.353,0.352,0.352,0.352,0.352,0.352,0.352,0.352,0.352,0.351,0.351,0.352,0.0,0.0,0.351,0.351,0.351,0.351,0.35,0.35,0.35,0.35,0.35,0.35,0.35,0.35,0.349,0.349,0.349,0.349,0.349,0.348,0.348,0.348,0.3485,0.348125,0.348,0.348,0.348,0.348,0.348,0.347,0.347,0.347,0.346,0.346,0.34624999999999995,0.346,0.346,0.345,0.345,0.345,0.345,0.345,0.345,0.345,0.344,0.344,0.343,0.343,0.343,0.343,0.343,0.343,0.343,0.342,0.342,0.342,0.342,0.342,0.343,0.0,0.0,0.0,0.0,0.345,0.344,0.345,0.0,0.0,0.345,0.345,0.345,0.345,0.344,0.344,0.343,0.343,0.343,0.0,0.0,0.0,0.0,0.0,0.341,0.34,0.34,0.34,0.34,0.34,0.341,0.34,0.34,0.34,0.339,0.33925,0.339,0.339,0.339,0.339,0.339,0.339,0.339,0.339,0.339,0.338,0.0,0.0,0.0,0.337,0.336,0.336,0.336,0.33675,0.337,0.0,0.0,0.0,0.0,0.0,0.337,0.336,0.336,0.336,0.336,0.337,0.338,0.0,0.0,0.0,0.0,0.0,0.0,0.335,0.334,0.334,0.334,0.334,0.334,0.0,0.0,0.0,0.333,0.333,0.333,0.3325,0.332,0.332,0.332,0.0,0.0,0.332,0.332,0.332,0.332,0.332,0.332,0.332,0.332,0.332,0.332,0.0,0.0,0.331,0.0,0.0,0.0,0.0,0.0,0.33,0.33,0.329,0.329,0.329,0.329,0.33,0.33,0.33,0.329,0.328,0.328,0.327,0.327,0.326,0.326,0.326,0.326,0.326,0.326,0.326,0.326,0.326,0.326,0.326,0.326,0.326,0.0,0.0,0.0,0.0,0.0,0.0,0.0,0.326,0.0,0.0,0.0,0.0,0.3245,0.324,0.324,0.324,0.324,0.323,0.323,0.323,0.323,0.323,0.32325,0.323,0.3235,0.0,0.0,0.3235,0.323,0.3235,0.324,0.324,0.324,0.324,0.324,0.324,0.323,0.323,0.322,0.322,0.322,0.321,0.321,0.321,0.32,0.0,0.0,0.32,0.0,0.0,0.319,0.319,0.319,0.319,0.318,0.318,0.318,0.318,0.318,0.3175,0.317,0.317,0.317,0.318,0.318,0.318,0.317,0.317,0.317,0.317,0.317,0.316,0.316,0.316,0.316,0.316,0.316,0.316,0.316,0.316,0.316,0.0,0.0,0.315,0.315,0.315,0.315,0.315,0.315,0.314,0.313,0.313,0.313,0.313,0.313,0.313,0.3135,0.314,0.3145,0.0,0.0,0.0,0.0,0.317,0.317,0.0,0.0,0.0,0.0,0.313,0.313,0.313,0.313,0.0,0.0,0.0,0.0,0.3115,0.311,0.31,0.31,0.31,0.31,0.31,0.31,0.31,0.31,0.31,0.31,0.31,0.309,0.309,0.309,0.308,0.308,0.308,0.308,0.308,0.308,0.308,0.308,0.308,0.308,0.308,0.308,0.307,0.307,0.307,0.0,0.0,0.0,0.309,0.309,0.308,0.0,0.306,0.307,0.306,0.305,0.305,0.305,0.305,0.305,0.305,0.305,0.304,0.304,0.304,0.304,0.304,0.304,0.304,0.304,0.304,0.304,0.304,0.304,0.304,0.304,0.303,0.303,0.302,0.303,0.303,0.303,0.302,0.302,0.302,0.303,0.303,0.3025,0.0,0.0,0.0,0.0,0.301,0.3,0.3,0.3,0.3,0.3005,0.301,0.301,0.3,0.3,0.3,0.3,0.3,0.0,0.0,0.0,0.0,0.299,0.299,0.299,0.299,0.299,0.299,0.299,0.298,0.298,0.298,0.0,0.0,0.0,0.0,0.0,0.0,0.0,0.0,0.0,0.0,0.0,0.0,0.0,0.0,0.0,0.0,0.0,0.0,0.0,0.0,0.0,0.0,0.296,0.296,0.0,0.0,0.0,0.0,0.0
0.0,0.0,0.0,0.0,0.0,0.0,0.0,0.0,0.0,0.0,0.0,0.0,0.0,0.0,0.0,0.0,0.0,0.0,0.0,0.0,0.0,0.0,0.0,0.0,0.0,0.0,0.0,0.0,0.0,0.0,0.0,0.0,0.0,0.0,0.0,0.0,0.0,0.0,0.0,0.0,0.0,0.0,0.359,0.359,0.359,0.359,0.35875,0.358,0.3585,0.3585,0.35875,0.359,0.358,0.3585,0.0,0.0,0.3575,0.35762499999999997,0.358,0.358,0.358,0.0,0.0,0.0,0.0,0.0,0.0,0.0,0.356,0.3555,0.355,0.355,0.35524999999999995,0.355,0.355,0.355,0.355,0.355,0.3545,0.354,0.353,0.353,0.353,0.353,0.352,0.352,0.352,0.352,0.352,0.352,0.351,0.351,0.351,0.351,0.351,0.351,0.351,0.351,0.351,0.351,0.351,0.351,0.351,0.351,0.35,0.35,0.349,0.349,0.349,0.348,0.348,0.348,0.348,0.348,0.348,0.348,0.348,0.348,0.348,0.348,0.347,0.34675,0.347,0.347,0.346,0.346,0.346,0.346,0.346,0.3455,0.345,0.345,0.345,0.345,0.345,0.345,0.344,0.344,0.344,0.344,0.344,0.343,0.343,0.343,0.342,0.342,0.342,0.342,0.342,0.342,0.341,0.341,0.341,0.341,0.341,0.341,0.341,0.341,0.341,0.341,0.0,0.0,0.0,0.0,0.342,0.342,0.342,0.342,0.342,0.343,0.343,0.343,0.343,0.342,0.342,0.342,0.341,0.339,0.0,0.0,0.338,0.338,0.338,0.338,0.338,0.339,0.339,0.339,0.339,0.339,0.339,0.338,0.338,0.338,0.338,0.338,0.338,0.337,0.337,0.336,0.336,0.336,0.336,0.336,0.336,0.0,0.0,0.0,0.335,0.335,0.335,0.335,0.335,0.335,0.0,0.0,0.0,0.0,0.0,0.335,0.335,0.335,0.335,0.335,0.335,0.33575000000000005,0.336,0.0,0.0,0.0,0.334,0.334,0.334,0.333,0.333,0.333,0.3325,0.332,0.0,0.0,0.0,0.0,0.331,0.331,0.331,0.33,0.33,0.3305,0.0,0.0,0.33,0.3305,0.331,0.331,0.331,0.331,0.332,0.331,0.33,0.33,0.0,0.0,0.329,0.0,0.0,0.0,0.0,0.0,0.329,0.329,0.328,0.328,0.328,0.328,0.329,0.0,0.0,0.0,0.0,0.326,0.326,0.326,0.325,0.325,0.325,0.324,0.325,0.325,0.324,0.324,0.324,0.324,0.324,0.324,0.323,0.0,0.0,0.0,0.0,0.323,0.0,0.0,0.0,0.0,0.0,0.0,0.0,0.323,0.323,0.323,0.323,0.323,0.322,0.322,0.322,0.322,0.322,0.322,0.322,0.322,0.0,0.0,0.322,0.322,0.322,0.322,0.322,0.322,0.322,0.0,0.322,0.321,0.321,0.321,0.32,0.32,0.32,0.319,0.319,0.319,0.319,0.319,0.318,0.318,0.318,0.318,0.318,0.318,0.318,0.318,0.317,0.317,0.316,0.316,0.316,0.316,0.316,0.316,0.3165,0.317,0.316,0.316,0.316,0.316,0.316,0.315,0.315,0.315,0.315,0.315,0.315,0.315,0.315,0.315,0.315,0.315,0.314,0.314,0.313,0.313,0.313,0.313,0.313,0.312,0.312,0.312,0.311,0.312,0.312,0.312,0.312,0.312,0.312,0.313,0.0,0.0,0.0,0.0,0.316,0.0,0.0,0.0,0.0,0.0,0.3115,0.312,0.311,0.311,0.0,0.0,0.0,0.0,0.31,0.309,0.309,0.309,0.309,0.309,0.308,0.309,0.308,0.308,0.308,0.308,0.308,0.308,0.307,0.307,0.307,0.307,0.307,0.307,0.307,0.307,0.307,0.307,0.307,0.307,0.307,0.307,0.307,0.307,0.0,0.0,0.0,0.0,0.0,0.0,0.0,0.0,0.305,0.305,0.305,0.304,0.304,0.304,0.304,0.304,0.304,0.304,0.3035,0.303,0.303,0.303,0.303,0.303,0.303,0.0,0.0,0.303,0.3025,0.302,0.302,0.302,0.301,0.301,0.301,0.301,0.301,0.302,0.302,0.302,0.302,0.302,0.302,0.301,0.0,0.0,0.0,0.3,0.299,0.299,0.299,0.299,0.299,0.299,0.3,0.299,0.299,0.299,0.299,0.299,0.299,0.299,0.0,0.0,0.0,0.298,0.298,0.298,0.298,0.297,0.297,0.29724999999999996,0.297,0.297,0.297,0.296,0.0,0.0,0.0,0.0,0.0,0.0,0.0,0.0,0.0,0.0,0.0,0.0,0.0,0.295,0.0,0.0,0.0,0.0,0.0,0.295,0.295,0.295,0.295,0.295,0.0,0.0,0.0,0.0
0.0,0.0,0.0,0.0,0.0,0.0,0.0,0.0,0.0,0.0,0.0,0.0,0.0,0.0,0.0,0.0,0.0,0.0,0.0,0.0,0.0,0.0,0.0,0.0,0.0,0.0,0.0,0.0,0.0,0.0,0.0,0.0,0.0,0.0,0.0,0.0,0.0,0.0,0.0,0.0,0.0,0.0,0.358,0.358,0.358,0.358,0.357,0.356,0.356,0.356,0.356,0.356,0.356,0.356,0.0,0.0,0.356,0.356,0.356,0.356,0.356,0.0,0.0,0.0,0.0,0.0,0.0,0.0,0.355,0.354,0.35375,0.354,0.354,0.354,0.354,0.353,0.0,0.0,0.35175,0.351,0.351,0.351,0.351,0.351,0.351,0.351,0.351,0.351,0.351,0.351,0.35,0.349,0.349,0.349,0.349,0.349,0.349,0.35,0.35,0.35,0.35,0.351,0.35,0.348,0.348,0.348,0.3475,0.347,0.347,0.34675,0.347,0.347,0.347,0.347,0.346,0.346,0.346,0.346,0.346,0.345,0.345,0.345,0.345,0.345,0.345,0.345,0.345,0.345,0.345,0.344125,0.344,0.344,0.343,0.343,0.343,0.343,0.342,0.342,0.342,0.342,0.342,0.342,0.341,0.341,0.341,0.341,0.341,0.34,0.34,0.34,0.34,0.34,0.34,0.339,0.339,0.339,0.339,0.339,0.339,0.339,0.339,0.339,0.339,0.0,0.0,0.341,0.0,0.341,0.0,0.3415,0.342,0.342,0.342,0.341,0.34,0.339,0.339,0.338,0.338,0.337,0.337,0.337,0.337,0.337,0.338,0.338,0.338,0.338,0.338,0.338,0.337,0.336,0.336,0.336,0.336,0.335,0.335,0.335,0.335,0.335,0.335,0.334,0.334,0.334,0.333,0.333,0.333,0.333,0.333,0.333,0.333,0.333,0.333,0.333,0.0,0.0,0.0,0.0,0.333,0.333,0.333,0.333,0.333,0.333,0.3335,0.334,0.334,0.334,0.0,0.0,0.333,0.333,0.333,0.332,0.332,0.331,0.331,0.33,0.0,0.0,0.0,0.0,0.329,0.329,0.328,0.328,0.329,0.329,0.329,0.329,0.329,0.329,0.329,0.33,0.329,0.33,0.329,0.329,0.329,0.32825000000000004,0.328,0.328,0.327,0.0,0.0,0.0,0.0,0.0,0.327,0.327,0.327,0.327,0.327,0.327,0.327,0.0,0.0,0.0,0.0,0.324,0.32425000000000004,0.324,0.324,0.324,0.323,0.324,0.324,0.324,0.323,0.323,0.323,0.323,0.323,0.323,0.323,0.3225,0.322,0.322,0.321,0.3205,0.32075,0.321,0.0,0.0,0.0,0.0,0.0,0.321,0.321,0.321,0.321,0.321,0.321,0.321,0.321,0.321,0.321,0.321,0.321,0.321,0.321,0.32,0.32,0.32,0.32,0.32,0.32,0.32,0.32,0.32,0.32,0.319,0.318,0.318,0.318,0.318,0.318,0.318,0.317,0.318,0.318,0.318,0.317,0.317,0.317,0.317,0.316,0.316,0.316,0.315,0.315,0.315,0.315,0.315,0.315,0.315,0.315,0.315,0.315,0.315,0.0,0.0,0.0,0.3145,0.315,0.314,0.315,0.315,0.315,0.315,0.315,0.315,0.314,0.314,0.314,0.313,0.312,0.312,0.312,0.312,0.312,0.312,0.312,0.312,0.311,0.31,0.31,0.31,0.31,0.31,0.31,0.0,0.0,0.0,0.0,0.0,0.0,0.0,0.0,0.0,0.0,0.0,0.0,0.0,0.31,0.309,0.309,0.309,0.0,0.0,0.0,0.0,0.308,0.308,0.308,0.308,0.307,0.307,0.307,0.307,0.307,0.307,0.3075,0.307125,0.307,0.307,0.3065,0.306,0.306,0.306,0.306,0.306,0.306,0.306,0.305,0.306,0.306,0.306,0.306,0.306,0.306,0.306,0.0,0.0,0.0,0.0,0.0,0.0,0.0,0.0,0.0,0.304,0.304,0.303,0.303,0.303,0.303,0.303,0.303,0.303,0.303,0.302,0.302,0.302,0.302,0.302,0.302,0.0,0.0,0.302,0.301375,0.302,0.301,0.299,0.299,0.299,0.29975,0.3,0.3,0.3,0.3,0.3,0.3,0.3,0.299,0.299,0.298,0.298,0.298,0.299,0.299,0.299,0.299,0.299,0.299,0.299,0.299,0.298,0.298,0.298,0.298,0.298,0.297,0.297,0.297,0.297,0.297,0.297,0.297,0.297,0.297,0.297,0.297,0.296,0.296,0.295,0.295,0.294,0.0,0.0,0.0,0.0,0.0,0.0,0.0,0.292,0.0,0.0,0.0,0.0,0.0,0.0,0.0,0.0,0.0,0.0,0.0,0.0,0.0,0.0,0.0,0.0,0.0,0.0,0.0,0.0
0.0,0.0,0.0,0.0,0.0,0.0,0.0,0.0,0.0,0.0,0.0,0.0,0.0,0.0,0.0,0.0,0.0,0.0,0.0,0.0,0.0,0.0,0.0,0.0,0.0,0.0,0.0,0.0,0.0,0.0,0.0,0.0,0.0,0.0,0.0,0.0,0.0,0.0,0.0,0.0,0.0,0.0,0.0,0.0,0.0,0.0,0.3555,0.355,0.355,0.0,0.3545,0.0,0.354,0.355,0.355,0.354,0.354,0.354,0.354,0.354,0.354,0.0,0.0,0.0,0.0,0.0,0.0,0.352,0.352,0.352,0.352,0.0,0.0,0.0,0.351,0.351,0.0,0.0,0.349,0.349,0.35,0.349,0.35,0.349,0.349,0.349,0.349,0.349,0.349,0.348,0.348,0.348,0.348,0.348,0.348,0.348,0.348,0.348,0.348,0.348,0.348,0.349,0.348,0.347,0.0,0.0,0.346,0.345,0.345,0.345,0.345,0.345,0.345,0.345,0.345,0.345,0.345,0.345,0.344,0.344,0.344,0.344,0.344,0.344,0.344,0.344,0.344,0.343,0.343,0.342,0.34225000000000005,0.342,0.342,0.342,0.341,0.341,0.341,0.341,0.341,0.341,0.341,0.34,0.34,0.34,0.339,0.339,0.339,0.339,0.339,0.339,0.339,0.339,0.338,0.338,0.338,0.338,0.338,0.338,0.338,0.338,0.338,0.338,0.338,0.0,0.0,0.339,0.3395,0.34,0.34,0.34,0.0,0.0,0.0,0.0,0.0,0.0,0.337,0.336,0.336,0.336,0.336,0.336,0.336,0.336,0.336,0.336,0.3365,0.3365,0.3365,0.33587500000000003,0.335,0.335,0.335,0.335,0.334,0.334,0.333,0.33325,0.333,0.333,0.333,0.332,0.332,0.332,0.332,0.332,0.332,0.332,0.332,0.332,0.332,0.332,0.332,0.332,0.0,0.0,0.0,0.33,0.33,0.331,0.331,0.0,0.0,0.0,0.0,0.331,0.331,0.0,0.0,0.331,0.332,0.332,0.332,0.0,0.0,0.0,0.329,0.328,0.0,0.0,0.0,0.0,0.326,0.326,0.326,0.326,0.327,0.327,0.327,0.327,0.327,0.327,0.328,0.328,0.328,0.328,0.327,0.327,0.326,0.326,0.326,0.325,0.324,0.0,0.0,0.0,0.325,0.325,0.325,0.3255,0.0,0.0,0.0,0.325,0.325,0.0,0.0,0.0,0.0,0.3225,0.323,0.323,0.323,0.323,0.323,0.323,0.323,0.323,0.323,0.323,0.323,0.323,0.322,0.322,0.321,0.321125,0.321,0.32,0.319,0.318,0.318,0.318,0.0,0.0,0.0,0.0,0.319,0.319,0.32,0.32,0.32,0.32,0.32,0.32,0.32,0.32,0.319,0.319,0.319,0.319,0.318,0.318,0.31825000000000003,0.318,0.318,0.318,0.318,0.318,0.318,0.318,0.318,0.317,0.317,0.317,0.317,0.317,0.316,0.316,0.316,0.316,0.316,0.315,0.315,0.315,0.315,0.315,0.315,0.315,0.315,0.315,0.315,0.315,0.315,0.314,0.314,0.314,0.314,0.314,0.314,0.314,0.0,0.0,0.0,0.313,0.313,0.313,0.313,0.313,0.313,0.313,0.313,0.3125,0.312,0.312,0.312,0.31175,0.312,0.0,0.0,0.31,0.31,0.31,0.31,0.31,0.309,0.309,0.309,0.309,0.309,0.309,0.0,0.0,0.0,0.0,0.0,0.0,0.0,0.0,0.0,0.0,0.0,0.0,0.0,0.308,0.308,0.308,0.307,0.307,0.307,0.307,0.307,0.307,0.307,0.307,0.307,0.307,0.307,0.307,0.307,0.307,0.307,0.307,0.307,0.306,0.306,0.306,0.305375,0.305,0.305,0.305,0.305,0.305,0.305,0.305,0.305,0.305,0.305,0.305,0.305,0.305,0.0,0.0,0.0,0.0,0.0,0.0,0.0,0.0,0.0,0.0,0.0,0.302,0.302,0.302,0.302,0.302,0.302,0.302,0.302,0.302,0.302,0.301,0.301,0.301,0.301,0.301,0.3,0.0,0.0,0.299,0.299,0.299,0.299,0.299,0.299,0.299,0.299,0.299,0.299,0.0,0.0,0.0,0.0,0.297,0.297,0.297,0.297,0.297,0.297,0.297,0.297,0.297,0.297,0.297,0.297,0.2975,0.297375,0.297,0.297,0.297,0.297,0.297,0.296,0.296,0.295,0.295,0.295,0.296,0.296,0.296,0.296,0.296,0.295,0.295,0.295,0.294,0.294,0.294,0.294,0.293,0.293,0.293,0.292,0.292,0.0,0.0,0.0,0.0,0.0,0.0,0.0,0.0,0.0,0.0,0.0,0.0,0.0,0.0,0.0,0.0,0.0,0.0,0.0,0.0,0.0,0.0
0.0,0.0,0.0,0.0,0.0,0.0,0.0,0.0,0.0,0.0,0.0,0.0,0.0,0.0,0.0,0.0,0.0,0.0,0.0,0.0,0.0,0.0,0.0,0.0,0.0,0.0,0.0,0.0,0.0,0.0,0.0,0.0,0.0,0.0,0.0,0.0,0.0,0.0,0.0,0.0,0.0,0.0,0.0,0.0,0.0,0.0,0.354,0.353,0.353,0.353,0.353,0.3525,0.352,0.352,0.352,0.352,0.352,0.352,0.352,0.352,0.352,0.351,0.351,0.35,0.349,0.349,0.349,0.349,0.349,0.349,0.3495,0.0,0.0,0.0,0.348,0.348,0.348,0.348,0.348,0.348,0.348,0.348,0.349,0.348,0.348,0.348,0.348,0.348,0.348,0.347,0.346,0.346,0.346,0.346,0.346,0.3465,0.0,0.0,0.0,0.0,0.0,0.347,0.3465,0.346,0.0,0.0,0.345,0.344,0.344,0.343,0.343,0.343,0.342,0.342,0.342,0.342,0.342,0.342,0.342,0.342,0.342,0.342,0.342,0.342,0.342,0.341,0.341,0.341,0.341,0.341,0.341,0.339,0.339,0.339,0.339,0.339,0.339,0.339,0.339,0.339,0.339,0.339,0.339,0.339,0.339,0.339,0.338,0.338,0.338,0.338,0.338,0.338,0.338,0.337,0.337,0.337,0.337,0.3365,0.336,0.336,0.336,0.336,0.3365,0.33675,0.337,0.0,0.0,0.0,0.0,0.0,0.0,0.0,0.0,0.0,0.0,0.0,0.334,0.335,0.335,0.335,0.335,0.335,0.335,0.335,0.335,0.335,0.335,0.335,0.335,0.334,0.334,0.334,0.334,0.333,0.333,0.333,0.332,0.332,0.332,0.332,0.331,0.331,0.331,0.331,0.331,0.331,0.331,0.331,0.331,0.331,0.33,0.33,0.33,0.329,0.329,0.329,0.328,0.3285,0.329,0.329,0.0,0.0,0.0,0.0,0.0,0.0,0.0,0.0,0.0,0.0,0.0,0.0,0.0,0.0,0.0,0.0,0.326,0.326,0.325,0.0,0.0,0.325,0.325,0.325,0.325,0.3255,0.325875,0.326,0.326,0.326,0.326,0.326,0.326,0.326,0.0,0.0,0.325,0.324,0.324,0.324,0.324,0.323,0.323,0.323,0.323,0.323,0.323,0.323,0.324,0.324,0.0,0.0,0.0,0.0,0.323,0.0,0.0,0.0,0.0,0.321,0.321,0.321,0.322,0.322,0.321,0.322,0.322,0.322,0.322,0.322,0.322,0.321,0.321,0.321,0.32,0.32,0.318,0.318,0.317,0.317,0.317,0.317,0.317,0.317,0.318,0.318,0.318,0.318,0.318,0.318,0.31875,0.319,0.319,0.318,0.318,0.318,0.318,0.318,0.318,0.318,0.317,0.317,0.317,0.317,0.3165,0.316,0.317,0.3165,0.3165,0.316375,0.316,0.315,0.315,0.315,0.315,0.315,0.315,0.315,0.315,0.315,0.315,0.315,0.314,0.314,0.313,0.313,0.313,0.313,0.313,0.313,0.313,0.313,0.313,0.313,0.313,0.313,0.313,0.312,0.0,0.0,0.0,0.0,0.0,0.311,0.311,0.311,0.311,0.312,0.312,0.0,0.0,0.0,0.0,0.3105,0.31,0.31,0.31,0.0,0.0,0.0,0.0,0.309,0.309,0.308,0.308,0.308,0.308,0.308,0.308,0.307,0.0,0.0,0.0,0.0,0.0,0.0,0.0,0.0,0.0,0.0,0.0,0.0,0.0,0.307,0.307,0.307,0.307,0.307,0.307,0.307,0.306,0.306,0.306,0.306,0.306,0.306,0.306,0.306,0.306,0.305,0.305,0.305,0.305,0.305,0.305,0.304,0.304,0.304,0.304,0.304,0.304,0.304,0.304,0.304,0.304,0.304,0.304,0.304,0.0,0.0,0.0,0.0,0.303,0.303,0.302,0.302,0.0,0.0,0.0,0.0,0.302,0.302,0.302,0.302,0.302,0.301,0.301,0.301,0.301,0.301,0.3,0.3,0.3,0.3,0.299,0.298,0.297,0.297,0.297,0.297,0.297,0.297,0.297,0.297,0.298,0.298,0.297,0.297,0.0,0.0,0.0,0.0,0.0,0.295,0.0,0.0,0.0,0.296,0.0,0.0,0.0,0.0,0.0,0.296,0.296,0.296,0.296,0.0,0.0,0.0,0.295,0.295,0.0,0.0,0.0,0.294,0.295,0.295,0.295,0.295,0.295,0.295,0.295,0.295,0.294,0.294,0.294,0.294,0.294,0.293,0.293,0.293,0.0,0.0,0.0,0.0,0.0,0.0,0.0,0.0,0.0,0.0,0.0,0.0,0.0,0.0,0.0,0.0,0.0,0.0,0.0,0.0,0.0,0.0,0.0,0.0
0.0,0.0,0.0,0.0,0.0,0.0,0.0,0.0,0.0,0.0,0.0,0.0,0.0,0.0,0.0,0.0,0.0,0.0,0.0,0.0,0.0,0.0,0.0,0.0,0.0,0.0,0.0,0.0,0.0,0.0,0.0,0.0,0.0,0.0,0.0,0.0,0.0,0.0,0.0,0.0,0.0,0.0,0.0,0.0,0.0,0.352,0.352,0.352,0.352,0.352,0.351,0.351,0.35,0.35,0.351,0.351,0.351,0.35,0.35,0.349,0.349,0.348,0.348,0.348,0.347,0.347,0.347,0.347,0.347,0.347,0.347,0.347,0.3465,0.346,0.346,0.347,0.347,0.347,0.347,0.347,0.348,0.34775,0.348,0.348,0.348,0.348,0.347,0.346,0.346,0.345,0.345,0.345,0.345,0.345,0.345,0.345,0.0,0.0,0.0,0.0,0.0,0.345,0.34425,0.344,0.34299999999999997,0.342,0.342,0.342,0.342,0.342,0.341,0.341,0.341,0.341,0.341,0.341,0.341,0.341,0.341,0.341,0.341,0.341,0.341,0.341,0.339,0.339,0.339,0.339,0.339,0.338,0.338,0.33775000000000005,0.338,0.338,0.338,0.338,0.338,0.338,0.338,0.338,0.338,0.338,0.338,0.338,0.338,0.337,0.337,0.337,0.336,0.336,0.336,0.336,0.336,0.335,0.335,0.335,0.335,0.335,0.335,0.335,0.335,0.335,0.335,0.0,0.0,0.0,0.0,0.0,0.0,0.0,0.0,0.0,0.0,0.0,0.332,0.332,0.332,0.332,0.332,0.332,0.332,0.3325,0.333,0.333,0.333,0.333,0.333,0.333,0.332,0.332,0.332,0.332,0.332,0.332,0.332,0.332,0.331,0.331,0.33075000000000004,0.33,0.33,0.33,0.33,0.33,0.33,0.33,0.33,0.33,0.33,0.329,0.329,0.329,0.329,0.328,0.328,0.328,0.327,0.327,0.327,0.3275,0.0,0.0,0.0,0.0,0.327,0.0,0.0,0.0,0.0,0.0,0.0,0.0,0.0,0.0,0.0,0.324,0.324,0.324,0.324,0.324,0.324,0.324,0.324,0.324,0.324,0.325,0.325,0.325,0.325,0.324,0.0,0.0,0.0,0.324,0.0,0.0,0.323,0.323,0.323,0.323,0.322,0.322,0.322,0.322,0.322,0.322,0.322,0.322,0.322,0.322,0.0,0.0,0.321,0.3205,0.32,0.0,0.0,0.0,0.32,0.32,0.32,0.321,0.321,0.321,0.321,0.321,0.321,0.321,0.321,0.321,0.32,0.32,0.32,0.318,0.318,0.318,0.318,0.317,0.317,0.316,0.316,0.316,0.316,0.316,0.316,0.317,0.317,0.317,0.317,0.318,0.318,0.318,0.318,0.318,0.318,0.318,0.317,0.317,0.317,0.317,0.316,0.316,0.31575,0.315,0.315,0.315,0.315,0.315,0.315,0.315,0.3145,0.0,0.314,0.315,0.315,0.314,0.314,0.314,0.314,0.314,0.314,0.3135,0.313,0.312,0.312,0.312,0.312,0.312,0.312,0.312,0.312,0.312,0.312,0.312,0.312,0.312,0.311,0.311,0.0,0.0,0.31,0.31,0.31,0.309,0.31,0.31,0.31,0.31,0.31,0.0,0.0,0.0,0.0,0.309,0.308,0.308,0.308,0.0,0.0,0.0,0.0,0.307,0.307,0.307,0.307,0.307,0.307,0.307,0.307,0.306,0.0,0.0,0.0,0.0,0.0,0.0,0.0,0.0,0.0,0.0,0.0,0.0,0.0,0.0,0.305,0.305,0.305,0.306,0.305,0.305,0.305,0.305,0.305,0.305,0.305,0.305,0.305,0.304,0.304,0.304,0.304,0.304,0.304,0.304,0.303,0.303,0.303,0.303,0.303,0.303,0.303,0.303,0.303,0.302,0.303,0.303,0.303,0.302,0.0,0.0,0.0,0.0,0.302,0.301,0.3,0.3,0.3,0.3,0.301,0.301,0.301,0.301,0.301,0.3,0.3,0.3,0.3,0.3,0.3,0.3,0.3,0.299,0.299,0.298,0.297,0.297,0.297,0.297,0.297,0.297,0.297,0.297,0.297,0.297,0.297,0.297,0.297,0.297,0.0,0.0,0.0,0.0,0.295,0.294,0.0,0.0,0.0,0.295,0.0,0.0,0.0,0.0,0.0,0.295,0.295,0.295,0.294,0.0,0.0,0.0,0.0,0.295,0.0,0.0,0.0,0.294,0.294,0.294,0.294,0.0,0.2945,0.294375,0.294,0.294,0.294,0.294,0.294,0.294,0.294,0.293,0.293,0.0,0.0,0.0,0.0,0.0,0.0,0.0,0.0,0.0,0.0,0.0,0.0,0.0,0.0,0.0,0.0,0.0,0.0,0.0,0.0,0.0,0.0,0.0,0.0,0.0
0.0,0.0,0.0,0.0,0.0,0.0,0.0,0.0,0.0,0.0,0.0,0.0,0.0,0.0,0.0,0.0,0.0,0.0,0.0,0.0,0.0,0.0,0.0,0.0,0.0,0.0,0.0,0.0,0.0,0.0,0.0,0.0,0.0,0.0,0.0,0.0,0.0,0.0,0.0,0.0,0.0,0.0,0.0,0.0,0.0,0.351,0.351,0.0,0.0,0.35,0.349,0.349,0.349,0.349,0.349,0.349,0.348,0.348,0.348,0.348,0.348,0.0,0.0,0.3465,0.346,0.346,0.346,0.346,0.346,0.3455,0.345375,0.345,0.345,0.345,0.345,0.345,0.345,0.345,0.3455,0.346,0.346,0.347,0.347,0.347,0.346,0.345,0.34450000000000003,0.344,0.3435,0.34287500000000004,0.342,0.342,0.342,0.343,0.343,0.344,0.0,0.0,0.0,0.0,0.344,0.342,0.342,0.342,0.341,0.341,0.341,0.34,0.34,0.34,0.34,0.34,0.34,0.34,0.34,0.34,0.34,0.34,0.34,0.339,0.339,0.339,0.339,0.339,0.338,0.338,0.337,0.337,0.337,0.337,0.336,0.336,0.336,0.336,0.336,0.336,0.336,0.336,0.33625000000000005,0.336,0.336,0.336,0.336,0.336,0.335,0.335,0.335,0.335,0.335,0.335,0.335,0.334,0.335,0.334,0.335,0.335,0.334,0.334,0.334,0.334,0.333,0.333,0.332,0.0,0.0,0.0,0.0,0.328,0.0,0.0,0.0,0.0,0.0,0.33,0.33,0.33,0.33,0.33,0.33,0.33,0.33,0.33,0.329,0.332,0.331,0.331,0.331,0.33,0.33,0.331,0.331,0.331,0.331,0.331,0.33,0.33,0.33,0.33,0.33,0.329,0.329,0.329,0.329,0.329,0.329,0.329,0.329,0.329,0.329,0.329,0.328,0.328,0.327,0.327,0.327,0.32675000000000004,0.326,0.326,0.326,0.326,0.0,0.0,0.0,0.326,0.325,0.0,0.0,0.0,0.0,0.0,0.0,0.0,0.0,0.0,0.0,0.323,0.323,0.323,0.323,0.323,0.323,0.32275,0.323,0.323,0.323,0.324,0.324,0.324,0.3235,0.0,0.0,0.0,0.0,0.323,0.323,0.322,0.321,0.321,0.321,0.321,0.321,0.321,0.321,0.321,0.321,0.321,0.321,0.32,0.32,0.32,0.0,0.0,0.319,0.318,0.319,0.319,0.319,0.319,0.319,0.319,0.319,0.32,0.32,0.32,0.32,0.32,0.32,0.32,0.32,0.32,0.319,0.0,0.0,0.0,0.317,0.317,0.316,0.316,0.3155,0.315,0.315,0.315,0.315,0.315,0.315,0.315,0.315,0.316,0.316,0.316,0.317,0.317,0.317,0.317,0.317,0.317,0.317,0.316,0.316,0.316,0.315,0.315,0.315,0.314,0.314,0.314,0.314,0.314,0.314,0.313,0.313,0.313,0.313,0.313,0.313,0.313,0.313,0.313,0.3125,0.312,0.312,0.31174999999999997,0.3114375,0.311,0.311,0.311,0.311,0.311,0.311,0.311,0.311,0.31125,0.312,0.311,0.31,0.31,0.31,0.309,0.309,0.309,0.308,0.308,0.308,0.308,0.308,0.308,0.308,0.308,0.3085,0.0,0.0,0.0,0.307,0.307,0.307,0.307,0.306,0.306,0.0,0.0,0.0,0.306,0.306,0.306,0.306,0.306,0.305,0.305,0.305,0.304,0.304,0.304,0.303,0.302,0.0,0.0,0.0,0.0,0.0,0.0,0.0,0.0,0.0,0.0,0.0,0.0,0.0,0.0,0.304,0.304,0.304,0.304,0.304,0.304,0.304,0.304,0.303,0.303,0.303,0.303,0.303,0.303,0.303,0.302,0.302,0.302,0.302,0.302,0.302,0.302,0.302,0.302,0.302,0.301,0.301,0.301,0.301,0.0,0.0,0.0,0.3,0.3,0.3,0.3,0.3,0.3,0.3,0.3,0.3,0.3,0.3,0.3,0.3,0.299,0.299,0.299,0.299,0.299,0.299,0.298,0.0,0.0,0.0,0.297,0.297,0.297,0.296,0.296,0.296,0.296,0.297,0.297,0.296,0.297,0.297,0.296,0.295,0.295,0.0,0.0,0.0,0.0,0.294,0.294,0.294,0.294,0.294,0.294,0.0,0.0,0.0,0.0,0.0,0.293,0.293,0.293,0.293,0.0,0.0,0.0,0.0,0.2935,0.0,0.0,0.0,0.2935,0.2935,0.29362499999999997,0.294,0.294,0.294,0.294,0.29375,0.294,0.294,0.294,0.293,0.293,0.293,0.293,0.293,0.0,0.0,0.0,0.0,0.0,0.0,0.0,0.0,0.0,0.0,0.0,0.0,0.0,0.0,0.0,0.0,0.0,0.0,0.0,0.0,0.0,0.0,0.0,0.0,0.0
0.0,0.0,0.0,0.0,0.0,0.0,0.0,0.0,0.0,0.0,0.0,0.0,0.0,0.0,0.0,0.0,0.0,0.0,0.0,0.0,0.0,0.0,0.0,0.0,0.0,0.0,0.0,0.0,0.0,0.0,0.0,0.0,0.0,0.0,0.0,0.0,0.0,0.0,0.0,0.0,0.0,0.0,0.0,0.0,0.0,0.0,0.3495,0.0,0.0,0.0,0.0,0.0,0.348,0.348,0.348,0.348,0.3474999999999999,0.348,0.347,0.347,0.347,0.0,0.0,0.345,0.345,0.345,0.345,0.345,0.345,0.344,0.344,0.344,0.343,0.343,0.344,0.344,0.344,0.344,0.34425,0.34462499999999996,0.345,0.0,0.0,0.0,0.0,0.0,0.342,0.342,0.341,0.341,0.341,0.341,0.341,0.341,0.3415,0.342,0.0,0.0,0.0,0.341,0.34,0.34,0.34,0.339,0.339,0.339,0.0,0.339,0.339,0.339,0.339,0.33875000000000005,0.338,0.3385,0.339,0.339,0.339,0.339,0.338,0.338,0.338,0.338,0.338,0.337,0.336,0.3355,0.335,0.335,0.335,0.335,0.335,0.335,0.335,0.335,0.335,0.335,0.335,0.335,0.335,0.335,0.335,0.335,0.335,0.335,0.335,0.335,0.335,0.334,0.334,0.334,0.333,0.332,0.332,0.332,0.332,0.332,0.333,0.332,0.332,0.332,0.3315,0.3315,0.0,0.0,0.0,0.0,0.0,0.326,0.0,0.0,0.327,0.328,0.328,0.328,0.329,0.329,0.329,0.329,0.329,0.328,0.328,0.328,0.328,0.328,0.328,0.328,0.329,0.329,0.329,0.329,0.329,0.329,0.329,0.329,0.329,0.329,0.329,0.329,0.328,0.328,0.328,0.328,0.328,0.327,0.327,0.327,0.327,0.327,0.327,0.327,0.327,0.326,0.326,0.326,0.326,0.326,0.326,0.326,0.325,0.325,0.325,0.325,0.324,0.324,0.324,0.0,0.0,0.0,0.322,0.0,0.0,0.0,0.0,0.0,0.321,0.321,0.321,0.322,0.322,0.322,0.322,0.321,0.321,0.322,0.322,0.322,0.322,0.322,0.322,0.0,0.0,0.0,0.321,0.321,0.32,0.32,0.32,0.321,0.32,0.32,0.32,0.32,0.32,0.32,0.32,0.32,0.32,0.319,0.318,0.319,0.3185,0.318,0.317,0.317,0.3175,0.318,0.318,0.318,0.318,0.318,0.318,0.319,0.319,0.319,0.32,0.32,0.32,0.319,0.0,0.3185,0.3175,0.0,0.0,0.0,0.316,0.315,0.315,0.315,0.31475,0.3141875,0.314,0.314,0.31425,0.315,0.315,0.315,0.315,0.315,0.315,0.31525,0.315,0.316,0.316,0.316,0.316,0.316,0.315,0.315,0.315,0.315,0.314,0.313,0.313,0.313,0.312,0.312,0.312,0.312,0.312,0.312,0.312,0.312,0.312,0.312,0.312,0.311,0.311,0.311,0.31074999999999997,0.3104375,0.31,0.31,0.31,0.31,0.31,0.31,0.31,0.31,0.31,0.31,0.31,0.31,0.31,0.31,0.309,0.309,0.308,0.307,0.307,0.3075,0.307,0.307,0.307,0.307,0.307,0.307,0.307,0.307,0.307,0.306,0.306,0.3055,0.305,0.305,0.305,0.305,0.305,0.304,0.304,0.3045,0.305,0.305,0.305,0.305,0.305,0.305,0.0,0.304,0.304,0.303,0.303,0.303,0.303,0.302,0.0,0.0,0.0,0.0,0.0,0.0,0.0,0.0,0.0,0.0,0.0,0.0,0.0,0.0,0.303,0.304,0.303,0.303,0.303,0.303,0.302,0.302,0.302,0.302,0.302,0.302,0.302,0.302,0.302,0.302,0.302,0.302,0.301,0.301,0.301,0.301,0.301,0.301,0.3,0.299,0.299,0.299,0.2995,0.0,0.0,0.0,0.299,0.299,0.299,0.3,0.299,0.299,0.299,0.299,0.299,0.299,0.299,0.299,0.299,0.299,0.299,0.297,0.297,0.297,0.297,0.0,0.0,0.0,0.0,0.296,0.296,0.296,0.296,0.296,0.296,0.296,0.296,0.296,0.0,0.0,0.296,0.295,0.295,0.294,0.294,0.294,0.293,0.293,0.293,0.293,0.293,0.293,0.293,0.292,0.0,0.0,0.0,0.0,0.292,0.292,0.292,0.292,0.292,0.292,0.292,0.292,0.292,0.292,0.293,0.292,0.292,0.293,0.293,0.293,0.0,0.0,0.0,0.0,0.293,0.0,0.0,0.0,0.293,0.0,0.0,0.0,0.0,0.0,0.0,0.0,0.0,0.0,0.0,0.0,0.0,0.0,0.0,0.0,0.0,0.0,0.0,0.0,0.0,0.0,0.0,0.0,0.0,0.0,0.0,0.0,0.0,0.0
0.0,0.0,0.0,0.0,0.0,0.0,0.0,0.0,0.0,0.0,0.0,0.0,0.0,0.0,0.0,0.0,0.0,0.0,0.0,0.0,0.0,0.0,0.0,0.0,0.0,0.0,0.0,0.0,0.0,0.0,0.0,0.0,0.0,0.0,0.0,0.0,0.0,0.0,0.0,0.0,0.0,0.0,0.0,0.0,0.0,0.0,0.348,0.348,0.0,0.0,0.0,0.0,0.346,0.346,0.346,0.346,0.346,0.346,0.0,0.0,0.345,0.345,0.345,0.345,0.344,0.344,0.344,0.343,0.343,0.342,0.342,0.342,0.342,0.342,0.342,0.343,0.343,0.342,0.343,0.0,0.0,0.0,0.0,0.0,0.0,0.0,0.0,0.0,0.34,0.34,0.34,0.34,0.34,0.34,0.34,0.0,0.0,0.0,0.0,0.0,0.338,0.338,0.338,0.0,0.0,0.338,0.338,0.338,0.338,0.338,0.338,0.338,0.337,0.337,0.338,0.338,0.337,0.337,0.336,0.336,0.336,0.33575,0.335,0.335,0.335,0.33375,0.3334375,0.333,0.333,0.333,0.333,0.333,0.333,0.333,0.333,0.334,0.334,0.334,0.334,0.333,0.333,0.333,0.333,0.333,0.333,0.333,0.333,0.333,0.332,0.332,0.332,0.331,0.331,0.331,0.331,0.331,0.331,0.331,0.33,0.33,0.33,0.33,0.0,0.0,0.0,0.0,0.0,0.325,0.0,0.0,0.0,0.326,0.327,0.327,0.327,0.327,0.32725,0.327,0.327,0.327,0.327,0.327,0.327,0.327,0.327,0.327,0.326,0.327,0.327,0.328,0.328,0.328,0.328,0.328,0.328,0.327,0.327,0.327,0.327,0.326,0.326,0.326,0.326,0.326,0.326,0.326,0.326,0.326,0.326,0.326,0.326,0.325,0.325,0.325,0.325,0.325,0.325,0.324,0.324,0.324,0.324,0.323,0.323,0.323,0.322,0.3215,0.321,0.32,0.32,0.319,0.0,0.0,0.0,0.0,0.32,0.3205,0.321,0.321,0.321,0.0,0.0,0.32,0.3205,0.321,0.321,0.321,0.321,0.0,0.0,0.0,0.0,0.319,0.319,0.319,0.318,0.318,0.318,0.319,0.319,0.319,0.319,0.319,0.319,0.319,0.319,0.319,0.318,0.318,0.3175,0.318,0.317,0.316,0.316,0.316,0.316,0.317,0.317,0.317,0.31725000000000003,0.318,0.318,0.318,0.318,0.319,0.319,0.319,0.318,0.317,0.317,0.317,0.316,0.315,0.315,0.315,0.315,0.315,0.315,0.314,0.314,0.313,0.313,0.313,0.313,0.313,0.314,0.314,0.314,0.0,0.314,0.315,0.315,0.315,0.315,0.315,0.315,0.314,0.314,0.314,0.313,0.313,0.312,0.312,0.312,0.312,0.311,0.311,0.311,0.311,0.311,0.31,0.31,0.31,0.31,0.31,0.31,0.31,0.30924999999999997,0.309,0.309,0.309,0.309,0.309,0.308,0.308,0.308,0.309,0.309,0.309,0.0,0.0,0.0,0.0,0.3085,0.308125,0.307,0.307,0.307,0.307,0.307,0.307,0.307,0.306,0.30624999999999997,0.307,0.306,0.306,0.306,0.305,0.305,0.304,0.304,0.304,0.304,0.304,0.304,0.304,0.304,0.304,0.303,0.303,0.304,0.304,0.304,0.304,0.304,0.304,0.3035,0.303,0.302,0.302,0.302,0.302,0.302,0.302,0.302,0.0,0.0,0.0,0.0,0.0,0.0,0.0,0.0,0.0,0.0,0.0,0.0,0.302,0.302,0.0,0.0,0.302,0.302,0.302,0.302,0.302,0.30124999999999996,0.301,0.301,0.301,0.3,0.0,0.3005,0.301,0.301,0.301,0.3,0.3,0.3,0.3,0.3,0.3,0.299,0.299,0.299,0.298,0.298,0.298,0.298,0.298,0.298,0.298,0.298,0.299,0.298,0.298,0.298,0.298,0.298,0.298,0.298,0.297,0.297,0.297,0.297,0.29625,0.296,0.295,0.295,0.0,0.0,0.0,0.0,0.295,0.295,0.295,0.295,0.295,0.295,0.295,0.295,0.0,0.0,0.0,0.295,0.295,0.295,0.294,0.294,0.294,0.293,0.292,0.292,0.292,0.292,0.292,0.292,0.292,0.292,0.292,0.292,0.292,0.292,0.292,0.292,0.292,0.292,0.292,0.292,0.292,0.292,0.292,0.0,0.0,0.0,0.0,0.0,0.0,0.0,0.0,0.0,0.0,0.0,0.0,0.0,0.0,0.0,0.0,0.0,0.0,0.0,0.0,0.0,0.0,0.0,0.0,0.0,0.0,0.0,0.0,0.0,0.0,0.0,0.0,0.0,0.0,0.0,0.0,0.0,0.0,0.0,0.0,0.0,0.0,0.0,0.0
