3.933,3.946,3.973,3.987,3.987,4.028,4.028,4.056,4.085,4.085,4.114,4.128,4.128,4.128,4.158,4.158,4.158,4.158,4.173,4.173,4.173,4.188,4.203,4.218,4.233,4.249,4.249,4.264,4.264,4.28,4.28,4.312,4.328,4.344,4.376,4.426,4.512,4.583,4.657,4.732,4.81,4.851,4.912,4.996,5.069,5.106,5.268,5.44,5.543,5.597,5.651,5.679,5.679,5.651,5.597,5.543,5.268,5.106,4.954,4.871,4.81,4.752,4.694,4.638,4.638,4.601,4.601,4.601,4.638,4.657,4.713,4.752,4.81,4.83,4.871,4.912,4.975,5.018,5.106,5.151,5.174,5.22,5.22,5.22,5.174,5.151,5.106,5.018,4.975,4.954,4.912,4.891,4.851,4.851,4.83,4.81,4.81,4.81,4.81,4.791,4.791,4.771,4.752,4.713,4.638,4.565,4.41,4.36,4.312,4.28,4.264,4.249,4.203,4.188,4.158,4.114,4.07,4.056,4.028,4.028,4.056,4.056,4.07,4.085,4.114,0.0,0.0,0.0,0.0,0.0,0.0,0.0,0.0,0.0,0.0,0.0,0.0,0.0,0.0,0.0,0.996,0.997,0.998,0.999,1.0,1.00125,1.002,1.002,1.003,1.004,1.003,1.003,1.002,1.001,1.0,0.999,0.998,0.998,0.996,0.995,0.992,0.988,0.984,0.979,0.975,0.973,0.971,0.9704999999999999,0.9697499999999999,0.969,0.969,0.969,0.969,0.97,0.97,0.97,0.97,0.969,0.969,0.968,0.968,0.966,0.964,0.964,0.964,0.964,0.965,0.965,0.966,0.967,0.967,0.966,0.965,0.964,0.964,0.961,0.958,0.953,0.95,0.948,0.946,0.945,0.943,0.942,0.94,0.937,0.932,0.93,0.93,0.929,0.928,0.927,0.927,0.926,0.925,0.926,0.925,0.925,0.925,0.0,0.0,0.0,0.0,0.0,0.0,0.0,0.0,0.0,0.0,0.0,0.0,0.0,0.0,0.0,0.0,0.0,0.0,0.0,0.0,0.0,0.0,0.0,0.0,0.447,0.446,0.446,0.446,0.446,0.446,0.446,0.444,0.442,0.441,0.441,0.441,0.44,0.439,0.437,0.437,0.436,0.436,0.436,0.435,0.435,0.435,0.434,0.434,0.434,0.434,0.433,0.433,0.433,0.433,0.433,0.432,0.432,0.432,0.432,0.432,0.432,0.432,0.432,0.432,0.432,0.432,0.432,0.432,0.432,0.432,0.432,0.432,0.432,0.432,0.432,0.432,0.432,0.432,0.432,0.432,0.432,0.432,0.432,0.432,0.432,0.431,0.431,0.432,0.432,0.432,0.432,0.432,0.432,0.432,0.432,0.432,0.432,0.432,0.432,0.433,0.432,0.433,0.433,0.433,0.434,0.434,0.434,0.435,0.436,0.436,0.436,0.438,0.4385,0.439,0.44,0.441,0.441,0.442,0.442,0.444,0.444,0.445,0.446,0.446,0.446,0.446,0.447,0.448,0.449,0.45,0.451,0.452,0.453,0.455,0.456,0.456,0.455,0.455,0.455,0.455,0.453,0.452,0.452,0.449,0.447,0.447,0.4455,0.0,0.0,0.443,0.443,0.443,0.443,0.4435,0.444,0.0,0.0,0.0,0.0,0.0,0.0,0.0,0.0,0.0,0.0,0.0,0.0,0.0,0.0,0.0,0.0,0.0,0.0,0.0,0.0,0.0,0.0,0.46,0.459,0.46,0.46,0.459,0.459,0.459,0.459,0.46,0.46,0.46,0.46,0.46,0.462,0.463,0.0,0.0,0.0,0.0,0.0,0.0,0.0,0.0,0.0,0.0,0.0,0.0,0.477,0.0,0.0,0.0,0.0,0.0,0.0,0.0,0.0,0.0,0.0,0.0,0.0,0.0,0.0,0.0,0.0,0.0,0.459,0.459,0.458,0.458,0.458,0.458,0.458,0.458,0.458,0.458,0.458,0.458,0.457,0.457,0.458,0.458,0.458,0.458,0.458,0.458,0.458,0.458,0.459,0.0,0.0,0.0,0.0,0.0,0.0,0.0,0.0,0.0,0.0,0.0,0.0,0.0,0.0,0.0,0.0,0.0,0.0,0.0,0.0,0.0,0.0,0.728,0.73,0.731,0.732,0.734,0.734,0.734,0.734,0.734,0.734,0.734,0.734,0.734,0.734,0.734,0.734,0.734,0.734,0.734,0.733,0.733,0.733,0.732,0.732,0.73,0.729,0.728,0.727,0.726,0.724,0.724,0.722,0.722,0.722,0.721,0.0,0.0,0.0,0.0,0.0,0.0,0.0,0.0,0.0,0.0,0.0,0.0,0.0,0.0,0.0,0.0,0.0,0.0,0.0,0.0
3.946,3.946,3.973,3.987,4.014,4.028,4.056,4.07,4.085,4.114,4.128,4.128,4.128,4.158,4.158,4.173,4.173,4.173,4.173,4.188,4.188,4.203,4.203,4.218,4.233,4.249,4.264,4.264,4.28,4.28,4.296,4.312,4.328,4.344,4.393,4.426,4.477,4.565,4.638,4.713,4.771,4.83,4.851,4.912,4.954,5.04,5.114249999999999,5.174,5.316,5.415,5.491,5.517,5.543,5.517,5.34,5.244,5.084,4.975,4.891,4.83,4.791,4.732,4.657,4.638,4.601,4.601,4.583,4.601,4.601,4.629,4.657,4.694,4.752,4.791,4.81,4.851,4.891,4.912,4.933,4.975,4.996,4.996,5.018,5.018,5.018,4.975,4.954,4.912,4.912,4.891,4.871,4.851,4.83,4.81,4.81,4.791,4.771,4.752,4.752,4.752,4.732,4.732,4.713,4.657,4.601,4.53,4.41,4.36,4.328,4.296,4.28,4.249,4.233,4.203,4.173,4.128,4.085,4.07,4.056,4.056,4.056,4.056,0.0,0.0,0.0,0.0,0.0,0.0,0.0,0.0,0.0,0.0,0.0,0.0,0.972,0.973,0.975,0.976,0.98,0.984,0.992,0.994,0.996,0.997,0.998,0.999,0.999,1.001,1.001,1.001,1.002,1.001,0.999,0.998,0.997,0.996,0.995,0.992,0.991,0.987,0.984,0.979,0.977,0.973,0.972,0.969,0.968,0.968,0.967,0.967,0.967,0.967,0.968,0.968,0.969,0.968,0.968,0.968,0.967,0.965,0.964,0.962,0.961,0.96,0.96,0.961,0.961,0.962,0.964,0.964,0.962,0.961,0.96,0.958,0.956,0.951,0.949,0.947,0.946,0.944,0.943,0.941,0.939,0.937,0.931,0.929,0.928,0.927,0.926,0.926,0.926,0.925,0.925,0.925,0.925,0.925,0.925,0.9245000000000001,0.9245000000000001,0.0,0.0,0.0,0.0,0.0,0.0,0.0,0.0,0.0,0.0,0.0,0.0,0.0,0.0,0.0,0.0,0.0,0.0,0.0,0.0,0.0,0.0,0.0,0.0,0.444,0.444,0.444,0.444,0.444,0.443,0.442,0.441,0.441,0.44,0.44,0.44,0.439,0.437,0.437,0.436,0.436,0.436,0.436,0.436,0.435,0.434,0.434,0.434,0.433,0.433,0.433,0.433,0.432,0.432,0.432,0.432,0.432,0.432,0.432,0.432,0.431,0.431,0.431,0.431,0.431,0.431,0.431,0.431,0.431,0.431,0.431,0.431,0.431,0.431,0.431,0.431,0.431,0.431,0.431,0.431,0.431,0.431,0.431,0.431,0.431,0.431,0.431,0.431,0.431,0.431,0.431,0.431,0.431,0.431,0.431,0.431,0.431,0.431,0.432,0.432,0.432,0.432,0.432,0.432,0.432,0.432,0.432,0.433,0.434,0.435,0.435,0.436,0.436,0.437,0.438,0.439,0.44,0.44,0.441,0.441,0.441,0.442,0.442,0.444,0.444,0.445,0.446,0.447,0.4475,0.0,0.0,0.0,0.452,0.453,0.455,0.455,0.455,0.455,0.454,0.454,0.453,0.0,0.4495,0.447875,0.447,0.446,0.445,0.442,0.442,0.441,0.441,0.441,0.441,0.441,0.441,0.441,0.0,0.0,0.0,0.0,0.0,0.0,0.0,0.0,0.0,0.0,0.0,0.0,0.0,0.0,0.0,0.0,0.0,0.0,0.0,0.459,0.46,0.46,0.46,0.46,0.46,0.46,0.46,0.46,0.46,0.461,0.461,0.461,0.461,0.462,0.463,0.464,0.0,0.0,0.0,0.0,0.474,0.475,0.476,0.477,0.477,0.477,0.477,0.477,0.477,0.477,0.477,0.476,0.476,0.476,0.0,0.0,0.0,0.0,0.0,0.0,0.0,0.0,0.0,0.0,0.458,0.458,0.458,0.458,0.458,0.458,0.458,0.458,0.457,0.457,0.457,0.457,0.457,0.457,0.457,0.457,0.457,0.457,0.458,0.458,0.458,0.458,0.458,0.458,0.459,0.0,0.0,0.0,0.0,0.0,0.0,0.0,0.0,0.0,0.0,0.0,0.0,0.0,0.0,0.0,0.0,0.0,0.0,0.0,0.0,0.0,0.0,0.724,0.727,0.728,0.73,0.731,0.73,0.732,0.732,0.733,0.733,0.733,0.732,0.732,0.731,0.73,0.73,0.729,0.728,0.727,0.726,0.725,0.724,0.723,0.722,0.721,0.721,0.72,0.719,0.719,0.718,0.717,0.715,0.714,0.714,0.713,0.0,0.0,0.0,0.0,0.0,0.0,0.0,0.0,0.0,0.0,0.0,0.0,0.0,0.0,0.0,0.0,0.0,0.0,0.0,0.0
3.946,3.973,3.987,3.987,4.014,4.028,4.056,4.085,4.085,4.128,4.128,4.158,4.158,4.173,4.188,4.188,4.188,4.188,4.188,4.203,4.218,4.218,4.233,4.233,4.249,4.249,4.264,4.264,4.28,4.28,4.312,4.312,4.328,4.344,4.376,4.41,4.477,4.53,4.583,4.638,4.694,4.752,4.81,4.851,4.891,4.912,4.975,5.04,5.106,5.174,5.227,5.268,5.244,5.174,5.106,4.996,4.933,4.891,4.851,4.81,4.752,4.713,4.657,4.638,4.601,4.583,4.583,4.583,4.583,4.601,4.638,4.694,4.713,4.72825,4.752,4.791,4.81,4.83,4.851,4.871,4.891,4.891,4.891,4.891,4.891,4.891,4.891,4.871,4.851,4.851,4.83,4.81,4.791,4.771,4.752,4.732,4.713,4.713,4.713,4.694,4.694,4.657,4.638,4.601,4.565,4.512,4.393,4.36,4.328,4.312,4.28,4.264,4.249,4.233,4.188,4.128,4.114,4.07,4.056,4.028,4.028,4.028,0.0,0.0,0.0,0.0,0.0,0.0,0.0,0.0,0.0,0.0,0.966,0.968,0.968,0.969,0.971,0.972,0.973,0.976,0.98,0.982,0.986,0.99,0.996,0.998,0.998,0.998,0.998,0.998,0.998,0.997,0.996,0.995,0.992,0.991,0.988,0.985,0.982,0.979,0.976,0.974,0.972,0.97,0.969,0.968,0.965,0.964,0.964,0.964,0.964,0.964,0.966,0.967,0.967,0.966,0.965,0.964,0.964,0.961,0.96,0.958,0.957,0.956,0.956,0.958,0.958,0.958,0.958,0.957,0.956,0.953,0.951,0.949,0.947,0.946,0.945,0.943,0.943,0.94,0.937,0.934,0.93,0.927,0.925,0.924,0.924,0.923,0.923,0.923,0.924,0.924,0.924,0.923,0.924,0.924,0.924,0.924,0.924,0.0,0.0,0.0,0.0,0.0,0.0,0.0,0.0,0.0,0.0,0.0,0.0,0.0,0.0,0.0,0.0,0.0,0.0,0.0,0.0,0.0,0.0,0.442,0.442,0.442,0.442,0.442,0.442,0.442,0.441,0.441,0.441,0.44,0.44,0.439,0.438,0.438,0.437,0.436,0.436,0.436,0.436,0.435,0.435,0.434,0.434,0.433,0.433,0.433,0.432,0.432,0.432,0.432,0.432,0.431,0.431,0.431,0.431,0.431,0.431,0.431,0.431,0.431,0.431,0.431,0.431,0.431,0.431,0.431,0.431,0.431,0.431,0.431,0.431,0.431,0.431,0.431,0.431,0.431,0.431,0.431,0.431,0.431,0.431,0.431,0.431,0.431,0.431,0.431,0.431,0.431,0.431,0.431,0.431,0.431,0.431,0.431,0.431,0.431,0.431,0.431,0.431,0.431,0.431,0.431,0.431,0.431,0.431,0.432,0.433,0.433,0.434,0.435,0.436,0.436,0.437,0.437,0.438,0.4385,0.439,0.44,0.44,0.44,0.441,0.441,0.441,0.442,0.443,0.446,0.0,0.0,0.0,0.451,0.0,0.4515,0.453,0.453,0.452,0.452,0.452,0.0,0.0,0.447,0.446,0.445,0.444,0.442,0.441,0.441,0.441,0.441,0.441,0.441,0.441,0.441,0.441,0.0,0.0,0.0,0.0,0.0,0.0,0.0,0.0,0.0,0.0,0.0,0.0,0.0,0.0,0.0,0.0,0.0,0.0,0.459,0.459,0.459,0.46,0.46,0.46,0.46,0.46,0.46,0.46,0.46,0.461,0.461,0.461,0.461,0.462,0.463,0.465,0.467,0.469,0.47,0.471,0.474,0.476,0.476,0.476,0.477,0.476,0.476,0.477,0.477,0.476,0.476,0.476,0.476,0.476,0.476,0.476,0.0,0.0,0.0,0.0,0.0,0.0,0.0,0.0,0.458,0.458,0.458,0.458,0.458,0.457,0.457,0.457,0.457,0.457,0.457,0.457,0.457,0.457,0.457,0.457,0.457,0.457,0.457,0.457,0.458,0.458,0.458,0.458,0.459,0.0,0.0,0.0,0.0,0.0,0.0,0.0,0.0,0.0,0.0,0.0,0.0,0.0,0.0,0.0,0.0,0.0,0.0,0.0,0.721,0.722,0.722,0.723,0.724,0.724,0.725,0.727,0.726,0.727,0.727,0.727,0.727,0.727,0.726,0.725,0.724,0.724,0.723,0.722,0.722,0.721,0.72,0.72,0.719,0.719,0.717,0.712,0.711,0.709,0.708,0.707,0.707,0.706,0.706,0.706,0.706,0.705,0.0,0.0,0.0,0.0,0.0,0.0,0.0,0.0,0.0,0.0,0.0,0.0,0.0,0.0,0.0,0.0,0.0,0.0,0.0,0.0
3.973,3.973,3.987,3.987,4.014,4.056,4.056,4.085,4.114,4.128,4.158,4.173,4.173,4.188,4.203,4.203,4.203,4.203,4.203,4.218,4.233,4.233,4.249,4.249,4.249,4.264,4.264,4.28,4.28,4.296,4.312,4.312,4.328,4.36,4.376,4.41,4.46,4.512,4.53,4.583,4.638,4.713,4.752,4.791,4.83,4.851,4.871,4.912,4.912,4.954,4.975,4.975,4.975,4.933,4.912,4.891,4.871,4.83,4.81,4.791,4.732,4.694,4.638,4.601,4.601,4.583,4.583,4.565,4.565,4.565,4.583,4.601,4.638,4.657,4.694,4.713,4.732,4.752,4.791,4.81,4.81,4.83,4.83,4.83,4.83,4.83,4.83,4.83,4.81,4.81,4.81,4.791,4.752,4.732,4.713,4.694,4.657,4.638,4.638,4.601,4.601,4.583,4.565,4.53,4.512,4.477,4.393,4.36,4.328,4.312,4.296,4.28,4.249,4.249,4.203,4.158,4.114,4.07,4.056,4.028,0.0,0.0,0.0,0.0,0.0,0.0,0.0,0.0,0.0,0.0,0.0,0.957,0.959,0.961,0.962,0.965,0.968,0.968,0.97,0.971,0.973,0.973,0.976,0.979,0.982,0.982,0.985,0.985,0.994,0.993,0.993,0.992,0.99,0.986,0.984,0.982,0.979,0.976,0.974,0.973,0.972,0.969,0.968,0.964,0.961,0.959,0.958,0.957,0.957,0.956,0.954,0.953,0.956,0.957,0.957,0.956,0.952,0.951,0.95,0.95,0.95,0.949,0.949,0.948,0.949,0.949,0.95,0.95,0.949,0.947,0.946,0.946,0.944,0.943,0.941,0.939,0.935,0.93,0.928,0.926,0.925,0.923,0.923,0.922,0.922,0.922,0.922,0.922,0.922,0.922,0.922,0.922,0.922,0.922,0.922,0.923,0.923,0.922,0.923,0.0,0.0,0.0,0.0,0.0,0.0,0.0,0.0,0.0,0.0,0.0,0.0,0.0,0.0,0.0,0.0,0.0,0.0,0.0,0.0,0.441,0.441,0.441,0.441,0.441,0.441,0.441,0.441,0.441,0.44,0.44,0.44,0.439,0.438,0.438,0.437,0.437,0.436,0.436,0.436,0.436,0.435,0.435,0.434,0.434,0.433,0.433,0.432,0.432,0.432,0.432,0.431,0.431,0.431,0.431,0.431,0.431,0.431,0.431,0.431,0.431,0.431,0.431,0.431,0.431,0.431,0.431,0.431,0.431,0.431,0.431,0.431,0.431,0.431,0.431,0.431,0.431,0.431,0.431,0.431,0.43,0.431,0.431,0.43,0.43,0.43,0.43,0.43,0.43,0.43,0.43,0.43,0.43,0.43,0.431,0.431,0.431,0.431,0.431,0.431,0.431,0.431,0.431,0.431,0.431,0.431,0.431,0.431,0.431,0.431,0.432,0.432,0.433,0.434,0.435,0.435,0.436,0.436,0.436,0.436,0.437,0.437,0.437,0.438,0.438,0.439,0.43925,0.44,0.441,0.0,0.0,0.0,0.0,0.0,0.448,0.448,0.448,0.4475,0.447,0.447,0.0,0.0,0.0,0.444,0.442,0.441,0.441,0.441,0.441,0.441,0.441,0.441,0.441,0.441,0.441,0.441,0.0,0.0,0.0,0.0,0.0,0.0,0.0,0.0,0.0,0.0,0.0,0.0,0.0,0.0,0.0,0.0,0.458,0.458,0.459,0.459,0.459,0.46,0.46,0.46,0.46,0.46,0.46,0.46,0.46,0.461,0.461,0.461,0.461,0.463,0.463,0.465,0.46699999999999997,0.469,0.47,0.471,0.475,0.476,0.476,0.476,0.476,0.476,0.476,0.476,0.476,0.476,0.476,0.476,0.476,0.476,0.475,0.475,0.0,0.0,0.0,0.0,0.0,0.461,0.46,0.459,0.458,0.458,0.457,0.457,0.457,0.457,0.457,0.455,0.455,0.455,0.455,0.455,0.455,0.455,0.455,0.455,0.455,0.456,0.456,0.457,0.457,0.458,0.458,0.458,0.458,0.0,0.0,0.0,0.0,0.0,0.0,0.0,0.0,0.0,0.0,0.0,0.0,0.0,0.0,0.0,0.0,0.0,0.0,0.0,0.718,0.718,0.718,0.719,0.719,0.719,0.719,0.719,0.719,0.719,0.719,0.719,0.719,0.718,0.717,0.716,0.715,0.714,0.712,0.709,0.708,0.708,0.707,0.706,0.706,0.705,0.704,0.703,0.701,0.699,0.697,0.696,0.695,0.694,0.693,0.693,0.693,0.699,0.0,0.0,0.0,0.0,0.0,0.0,0.0,0.0,0.0,0.0,0.0,0.0,0.0,0.0,0.0,0.0,0.0,0.0,0.0,0.0
3.973,3.973,3.987,4.014,4.014,4.056,4.07,4.085,4.114,4.158,4.173,4.188,4.188,4.203,4.203,4.218,4.218,4.218,4.233,4.233,4.249,4.249,4.249,4.264,4.264,4.264,4.28,4.28,4.28,4.296,4.312,4.312,4.328,4.344,4.36,4.393,4.41,4.46,4.512,4.53,4.583,4.638,4.694,4.732,4.771,4.81,4.83,4.83,4.851,4.871,4.871,4.871,4.871,4.851,4.851,4.83,4.81,4.791,4.752,4.732,4.694,4.638,4.601,4.583,4.583,4.565,4.565,4.565,4.53,4.53,4.565,4.565,4.583,4.583,4.601,4.601,4.638,4.657,4.694,4.713,4.713,4.732,4.752,4.771,4.771,4.791,4.791,4.791,4.771,4.771,4.752,4.752,4.732,4.694,4.657,4.638,4.601,4.583,4.601,4.583,4.565,4.53,4.512,4.477,4.46,4.426,4.376,4.36,4.328,4.312,4.312,4.28,4.264,4.249,4.218,4.173,0.0,0.0,0.0,0.0,0.0,0.0,0.0,0.0,0.0,0.0,0.0,0.0,0.0,0.0,0.949,0.951,0.9535,0.954,0.958,0.96,0.962,0.964,0.965,0.966,0.967,0.968,0.969,0.969,0.97,0.97,0.971,0.971,0.97,0.97,0.97,0.969,0.977,0.975,0.973,0.972,0.971,0.97,0.969,0.968,0.966,0.96,0.957,0.953,0.951,0.95,0.949,0.948,0.949,0.949,0.948,0.948,0.949,0.949,0.948,0.947,0.946,0.946,0.945,0.945,0.944,0.944,0.944,0.944,0.944,0.944,0.944,0.943,0.943,0.941,0.94,0.937,0.93,0.928,0.925,0.923,0.922,0.922,0.921,0.92,0.92,0.919,0.919,0.918,0.917,0.917,0.917,0.918,0.919,0.92,0.92,0.92,0.92,0.92,0.921,0.922,0.922,0.9215,0.0,0.0,0.0,0.0,0.0,0.0,0.0,0.0,0.0,0.0,0.0,0.0,0.0,0.0,0.0,0.0,0.0,0.0,0.0,0.44,0.44,0.44,0.44,0.441,0.441,0.441,0.441,0.441,0.44,0.44,0.439,0.439,0.438,0.438,0.437,0.436,0.436,0.436,0.436,0.436,0.435,0.435,0.434,0.434,0.433,0.433,0.432,0.432,0.432,0.432,0.431,0.431,0.431,0.431,0.431,0.431,0.431,0.431,0.431,0.431,0.431,0.431,0.43,0.43,0.43,0.43,0.43,0.43,0.43,0.43,0.43,0.43,0.43,0.43,0.43,0.43,0.43,0.43,0.43,0.43,0.43,0.43,0.43,0.43,0.43,0.43,0.43,0.43,0.43,0.43,0.43,0.43,0.43,0.43,0.43,0.43,0.43,0.43,0.43,0.43,0.43,0.43,0.43,0.43,0.43,0.43,0.43,0.43,0.43,0.43,0.431,0.431,0.431,0.432,0.432,0.433,0.434,0.434,0.435,0.435,0.435,0.435,0.435,0.436,0.436,0.436,0.43624999999999997,0.436,0.0,0.438,0.0,0.0,0.0,0.0,0.0,0.444,0.444,0.443,0.4445,0.446,0.443,0.0,0.0,0.0,0.441,0.441,0.441,0.44,0.44,0.44,0.44,0.44,0.44,0.44,0.44,0.44,0.441,0.0,0.0,0.0,0.0,0.0,0.0,0.0,0.0,0.0,0.0,0.0,0.0,0.0,0.0,0.452,0.454,0.0,0.4565,0.457,0.458,0.458,0.459,0.46,0.459,0.46,0.459,0.459,0.46,0.46,0.46,0.46,0.46,0.46,0.462,0.463,0.465,0.46699999999999997,0.469,0.47,0.471,0.473,0.475,0.476,0.476,0.476,0.476,0.476,0.476,0.476,0.476,0.475,0.475,0.474,0.472,0.471,0.47,0.0,0.0,0.463,0.462,0.46,0.459,0.45825000000000005,0.457,0.457,0.456,0.456,0.455,0.455,0.455,0.454,0.454,0.454,0.453,0.453,0.453,0.453,0.453,0.453,0.454,0.454,0.455,0.456,0.456,0.457,0.457,0.458,0.458,0.458,0.0,0.0,0.0,0.0,0.0,0.0,0.0,0.0,0.0,0.0,0.0,0.0,0.0,0.0,0.0,0.0,0.0,0.0,0.716,0.717,0.716,0.716,0.716,0.716,0.715,0.714,0.714,0.712,0.71,0.71,0.71,0.709,0.709,0.708,0.707,0.707,0.706,0.706,0.706,0.705,0.705,0.703,0.702,0.699,0.698,0.696,0.695,0.693,0.692,0.692,0.691,0.691,0.691,0.69,0.69,0.69,0.0,0.0,0.0,0.0,0.0,0.0,0.0,0.0,0.0,0.0,0.0,0.0,0.0,0.0,0.0,0.0,0.0,0.0,0.0,0.0,0.0
3.946,3.973,3.987,3.987,4.014,4.056,4.07,4.085,4.114,4.158,4.173,4.188,4.203,4.218,4.218,4.233,4.233,4.249,4.249,4.249,4.249,4.264,4.264,4.264,4.264,4.28,4.28,4.28,4.296,4.296,4.312,4.312,4.328,4.344,4.36,4.393,4.41,4.426,4.477,4.512,4.565,4.583,4.638,4.657,4.713,4.752,4.791,4.81,4.81,4.83,4.83,4.83,4.81,4.81,4.81,4.791,4.771,4.732,4.713,4.694,4.657,4.638,4.583,4.583,4.565,4.53,4.53,4.53,4.53,4.53,4.53,4.53,4.53,4.53,4.53,4.565,4.583,4.583,4.601,4.638,4.657,4.694,4.713,4.713,4.732,4.752,4.752,4.752,4.752,4.752,4.732,4.713,4.713,4.694,4.638,4.601,4.583,4.565,4.565,4.53,4.512,4.512,4.477,4.46,4.426,4.393,4.376,4.36,4.344,4.328,4.312,4.296,4.28,4.249,0.0,0.0,0.0,0.0,0.0,0.0,0.0,0.0,0.0,0.0,0.0,0.0,0.0,0.0,0.0,0.0,0.946,0.948,0.95,0.952,0.9524999999999999,0.954,0.956,0.957,0.958,0.957,0.958,0.957,0.957,0.9572499999999999,0.958,0.9580000000000001,0.959,0.958,0.958,0.958,0.958,0.957,0.957,0.956,0.954,0.966,0.965,0.962,0.959,0.956,0.952,0.95,0.948,0.947,0.946,0.946,0.945,0.945,0.945,0.945,0.944,0.943,0.943,0.943,0.943,0.942,0.94,0.94,0.939,0.939,0.939,0.939,0.939,0.94,0.94,0.937,0.937,0.934,0.93,0.926,0.9257500000000001,0.922,0.92,0.92,0.918,0.916,0.915,0.913,0.913,0.912,0.91,0.909,0.909,0.908,0.908,0.906,0.906,0.906,0.908,0.91,0.913,0.914,0.917,0.917,0.92,0.921,0.921,0.921,0.0,0.0,0.0,0.0,0.0,0.0,0.0,0.0,0.0,0.0,0.0,0.0,0.0,0.0,0.0,0.0,0.0,0.0,0.439,0.439,0.439,0.44,0.44,0.44,0.44,0.44,0.44,0.44,0.44,0.439,0.438,0.438,0.437,0.437,0.436,0.436,0.436,0.436,0.435,0.435,0.435,0.434,0.433,0.433,0.432,0.432,0.432,0.432,0.431,0.431,0.431,0.431,0.431,0.431,0.431,0.431,0.431,0.43,0.43,0.43,0.43,0.43,0.43,0.43,0.43,0.43,0.43,0.43,0.43,0.43,0.43,0.43,0.43,0.43,0.43,0.43,0.43,0.43,0.43,0.429,0.429,0.429,0.429,0.429,0.429,0.429,0.429,0.429,0.429,0.428,0.428,0.4285,0.429,0.429,0.429,0.429,0.429,0.429,0.429,0.429,0.429,0.429,0.429,0.429,0.429,0.429,0.429,0.4295,0.43,0.43,0.43,0.43,0.431,0.431,0.431,0.431,0.432,0.432,0.433,0.433,0.434,0.434,0.434,0.434,0.434,0.434,0.434,0.435,0.435,0.435,0.436,0.0,0.0,0.0,0.0,0.44,0.44,0.0,0.0,0.439,0.439,0.439,0.439,0.439,0.439,0.439,0.439,0.44,0.44,0.44,0.439,0.439,0.439,0.439,0.439,0.439,0.439,0.439,0.0,0.0,0.0,0.0,0.0,0.0,0.0,0.0,0.0,0.0,0.443,0.0,0.0,0.448,0.451,0.453,0.455,0.456,0.456,0.457,0.458,0.458,0.458,0.459,0.458,0.458,0.458,0.458,0.459,0.459,0.458,0.45875,0.46,0.462,0.461,0.46499999999999997,0.469,0.47,0.471,0.473,0.475,0.475,0.475,0.475,0.475,0.475,0.475,0.475,0.475,0.475,0.475,0.473,0.471,0.0,0.46599999999999997,0.46399999999999997,0.462,0.46,0.459,0.458,0.458,0.457,0.457,0.456,0.455,0.455,0.454,0.454,0.453,0.453,0.453,0.453,0.453,0.453,0.453,0.453,0.453,0.453,0.453,0.453,0.454,0.455,0.456,0.457,0.457,0.457,0.457,0.458,0.0,0.0,0.0,0.0,0.0,0.0,0.0,0.0,0.0,0.0,0.0,0.0,0.0,0.0,0.0,0.0,0.0,0.0,0.71,0.71,0.71,0.709,0.708,0.708,0.707,0.707,0.706,0.706,0.706,0.705,0.705,0.704,0.703,0.703,0.702,0.702,0.7,0.699,0.698,0.697,0.695,0.695,0.694,0.693,0.693,0.69,0.689,0.688,0.686,0.686,0.685,0.684,0.684,0.683,0.682,0.683,0.0,0.0,0.0,0.0,0.0,0.0,0.0,0.0,0.0,0.0,0.0,0.0,0.0,0.0,0.0,0.0,0.0,0.0,0.0,0.0,0.0
3.946,3.973,3.987,3.987,4.014,4.056,4.07,4.085,4.114,4.158,4.173,4.203,4.218,4.218,4.233,4.249,4.249,4.249,4.249,4.249,4.264,4.264,4.264,4.264,4.28,4.28,4.28,4.28,4.296,4.296,4.312,4.312,4.328,4.328,4.36,4.376,4.393,4.41,4.46,4.477,4.512,4.53,4.583,4.638,4.657,4.694,4.713,4.732,4.752,4.752,4.771,4.752,4.752,4.752,4.732,4.713,4.694,4.657,4.638,4.601,4.601,4.583,4.565,4.565,4.53,4.512,4.512,4.512,4.512,4.512,4.512,4.512,4.477,4.477,4.512,4.512,4.512,4.53,4.565,4.565,4.583,4.601,4.638,4.657,4.694,4.713,4.713,4.732,4.732,4.732,4.713,4.694,4.657,4.657,4.638,4.601,4.565,4.53,4.512,4.477,4.46,4.426,4.426,4.41,4.41,4.393,4.376,4.36,4.328,4.328,4.328,4.312,0.0,0.0,0.0,0.0,0.0,0.0,0.0,0.0,0.0,0.0,0.0,0.0,0.0,0.923,0.926,0.934,0.939,0.943,0.944,0.945,0.946,0.946,0.946,0.947,0.947,0.946,0.946,0.945,0.945,0.945,0.945,0.945,0.945,0.945,0.945,0.945,0.945,0.945,0.945,0.946,0.946,0.945,0.945,0.945,0.945,0.944,0.95,0.947,0.946,0.945,0.944,0.943,0.942,0.941,0.94,0.94,0.94,0.939,0.937,0.935,0.934,0.932,0.931,0.928,0.928,0.928,0.928,0.9295,0.929,0.93,0.93,0.931,0.928,0.926,0.923,0.922,0.92,0.919,0.915,0.911,0.908,0.906,0.903,0.902,0.902,0.9,0.9,0.9,0.9,0.9,0.9,0.899,0.899,0.898,0.898,0.9,0.9,0.9,0.903,0.906,0.91,0.913,0.918,0.92,0.0,0.0,0.0,0.0,0.0,0.0,0.0,0.0,0.0,0.0,0.0,0.0,0.0,0.0,0.0,0.0,0.0,0.0,0.438,0.438,0.438,0.438,0.439,0.439,0.439,0.439,0.439,0.439,0.439,0.439,0.438,0.438,0.437,0.437,0.436,0.436,0.436,0.436,0.436,0.435,0.435,0.434,0.434,0.433,0.433,0.432,0.432,0.432,0.431,0.431,0.431,0.431,0.431,0.431,0.431,0.431,0.43,0.43,0.43,0.43,0.43,0.43,0.43,0.43,0.43,0.43,0.429,0.429,0.429,0.429,0.429,0.429,0.429,0.429,0.429,0.429,0.429,0.429,0.429,0.429,0.428,0.428,0.428,0.428,0.428,0.428,0.427,0.427,0.427,0.427,0.427,0.427,0.427,0.427,0.427,0.427,0.427,0.427,0.428,0.427,0.427,0.427,0.428,0.428,0.428,0.428,0.428,0.428,0.428,0.429,0.429,0.429,0.4295,0.43,0.43,0.43,0.431,0.431,0.431,0.431,0.431,0.432,0.432,0.432,0.432,0.432,0.432,0.432,0.432,0.433,0.43274999999999997,0.432,0.434,0.0,0.0,0.0,0.436,0.436,0.436,0.0,0.0,0.437,0.437,0.437,0.437,0.437,0.437,0.438,0.438,0.438,0.438,0.438,0.438,0.438,0.438,0.0,0.0,0.0,0.438,0.0,0.0,0.0,0.0,0.0,0.0,0.0,0.0,0.439,0.44,0.0,0.0,0.0,0.0,0.445,0.44775,0.45,0.451,0.452,0.453,0.455,0.456,0.457,0.453,0.453,0.454,0.454,0.455,0.455,0.456,0.456,0.456,0.457,0.457,0.458,0.4585,0.46375,0.469,0.46399999999999997,0.46499999999999997,0.46699999999999997,0.46799999999999997,0.46975,0.474,0.474,0.475,0.475,0.475,0.475,0.475,0.474,0.473,0.46699999999999997,0.4655,0.46375,0.462,0.461,0.0,0.459,0.458,0.457,0.457,0.457,0.456,0.455,0.454,0.454,0.453,0.453,0.453,0.452,0.452,0.452,0.452,0.452,0.452,0.452,0.452,0.4525,0.453,0.453,0.453,0.454,0.455,0.456,0.457,0.457,0.457,0.458,0.0,0.0,0.0,0.0,0.0,0.0,0.0,0.0,0.0,0.0,0.0,0.0,0.0,0.0,0.0,0.0,0.0,0.0,0.707,0.706,0.706,0.706,0.705,0.702,0.7,0.699,0.699,0.698,0.697,0.696,0.696,0.696,0.695,0.695,0.694,0.693,0.693,0.693,0.692,0.692,0.69,0.688,0.687,0.684,0.683,0.683,0.682,0.681,0.681,0.68,0.68,0.68,0.68,0.68,0.68,0.68,0.0,0.0,0.0,0.0,0.0,0.0,0.0,0.0,0.0,0.0,0.0,0.0,0.0,0.0,0.0,0.0,0.0,0.0,0.0,0.0,0.0
3.946,3.973,3.973,3.987,4.014,4.028,4.07,4.085,4.128,4.158,4.188,4.203,4.218,4.233,4.249,4.249,4.249,4.249,4.264,4.264,4.264,4.28,4.28,4.28,4.28,4.28,4.28,4.296,4.296,4.296,4.312,4.312,4.328,4.328,4.344,4.36,4.376,4.393,4.41,4.426,4.46,4.512,4.53,4.565,4.583,4.638,4.638,4.657,4.694,4.694,4.657,4.657,4.657,4.657,4.638,4.638,4.601,4.601,4.583,4.583,4.565,4.53,4.53,4.512,4.512,4.512,4.477,4.477,4.477,4.46,4.46,4.46,4.46,4.46,4.46,4.46,4.46,4.46,4.477,4.512,4.53,4.565,4.583,4.601,4.638,4.657,4.694,4.713,4.713,4.713,4.713,4.694,4.657,4.638,4.601,4.583,4.565,4.53,4.512,4.46,4.426,4.41,4.393,4.376,4.376,4.376,4.36,4.36,4.344,0.0,0.0,0.0,0.0,0.0,0.0,0.0,0.0,0.0,0.0,0.0,0.0,0.0,0.0,0.915,0.919,0.92,0.922,0.925,0.93,0.934,0.935,0.937,0.937,0.937,0.937,0.937,0.937,0.935,0.934,0.934,0.932,0.932,0.931,0.932,0.932,0.931,0.932,0.932,0.934,0.934,0.935,0.935,0.934,0.934,0.931,0.93,0.93,0.928,0.926,0.923,0.922,0.937,0.934,0.931,0.931,0.93,0.928,0.927,0.926,0.925,0.925,0.924,0.923,0.922,0.922,0.922,0.922,0.922,0.922,0.922,0.922,0.923,0.923,0.922,0.921,0.92,0.917,0.914,0.909,0.904,0.901,0.9,0.898,0.898,0.897,0.896,0.894,0.894,0.893,0.893,0.891,0.893,0.893,0.893,0.893,0.893,0.894,0.89475,0.896,0.898,0.898,0.9,0.0,0.0,0.0,0.0,0.0,0.0,0.0,0.0,0.0,0.0,0.0,0.0,0.0,0.0,0.0,0.0,0.0,0.0,0.0,0.0,0.437,0.437,0.437,0.437,0.437,0.438,0.438,0.438,0.438,0.438,0.439,0.439,0.438,0.438,0.437,0.437,0.437,0.436,0.436,0.436,0.436,0.435,0.435,0.435,0.434,0.434,0.433,0.433,0.432,0.432,0.431,0.431,0.431,0.431,0.431,0.431,0.431,0.431,0.43,0.43,0.43,0.43,0.43,0.429,0.429,0.429,0.429,0.429,0.429,0.429,0.429,0.429,0.429,0.428,0.428,0.428,0.428,0.428,0.428,0.428,0.427,0.427,0.427,0.427,0.427,0.427,0.427,0.427,0.427,0.426,0.426,0.426,0.426,0.426,0.426,0.426,0.426,0.426,0.426,0.426,0.426,0.426,0.426,0.426,0.426,0.426,0.426,0.426,0.426,0.427,0.427,0.427,0.427,0.427,0.428,0.428,0.429,0.429,0.42924999999999996,0.43,0.43,0.43,0.43,0.4305,0.431,0.431,0.431,0.431,0.431,0.431,0.431,0.431,0.431,0.431,0.431,0.4315,0.432,0.433,0.434,0.434,0.434,0.435,0.435,0.436,0.436,0.436,0.436,0.436,0.436,0.436,0.436,0.437,0.437,0.437,0.437,0.437,0.437,0.437,0.437,0.0,0.0,0.0,0.437,0.0,0.0,0.0,0.0,0.0,0.0,0.0,0.0,0.438,0.4385,0.0,0.0,0.0,0.441,0.442,0.445,0.4465,0.44787499999999997,0.45,0.452,0.449,0.452,0.453,0.451,0.452,0.452,0.452,0.452,0.452,0.452,0.453,0.452,0.453,0.455,0.455,0.456,0.4564375,0.458,0.458,0.459,0.461,0.461,0.462,0.0,0.46599999999999997,0.4665,0.0,0.0,0.0,0.475,0.462,0.462,0.461,0.46,0.459,0.459,0.4585,0.45825000000000005,0.458,0.457,0.457,0.456,0.456,0.455,0.453,0.453,0.453,0.453,0.452,0.452,0.452,0.452,0.452,0.452,0.452,0.452,0.452,0.452,0.452,0.452,0.4525,0.453,0.454,0.455,0.456,0.456,0.457,0.457,0.458,0.0,0.0,0.0,0.0,0.0,0.0,0.0,0.0,0.0,0.0,0.0,0.0,0.0,0.0,0.0,0.0,0.0,0.0,0.0,0.7,0.698,0.697,0.695,0.694,0.694,0.6935,0.693,0.693,0.693,0.692,0.691,0.691,0.69,0.69,0.688,0.688,0.686,0.685,0.683,0.682,0.681,0.681,0.68,0.68,0.679,0.679,0.678,0.677,0.677,0.677,0.676,0.676,0.676,0.676,0.675,0.676,0.0,0.0,0.0,0.0,0.0,0.0,0.0,0.0,0.0,0.0,0.0,0.0,0.0,0.0,0.0,0.0,0.0,0.0,0.0,0.0,0.0
3.946,3.973,3.973,3.987,4.014,4.028,4.07,4.085,4.128,4.158,4.188,4.203,4.218,4.233,4.249,4.249,4.249,4.264,4.264,4.264,4.28,4.28,4.28,4.28,4.28,4.28,4.28,4.296,4.296,4.296,4.312,4.312,4.328,4.328,4.328,4.344,4.36,4.376,4.393,4.41,4.426,4.46,4.477,4.512,4.53,4.565,4.583,4.583,4.583,4.583,4.583,4.601,4.583,4.583,4.583,4.565,4.565,4.565,4.53,4.53,4.53,4.477,4.477,4.477,4.477,4.46,4.46,4.46,4.426,4.426,4.426,4.41,4.41,4.41,4.41,4.41,4.41,4.41,4.426,4.426,4.477,4.512,4.53,4.565,4.601,4.638,4.638,4.657,4.657,4.694,4.694,4.657,4.657,4.638,4.601,4.565,4.53,4.512,4.477,4.426,4.41,4.393,4.376,4.376,4.36,4.36,4.36,0.0,0.0,0.0,0.0,0.0,0.0,0.0,0.0,0.0,0.0,0.0,0.0,0.0,0.9,0.902,0.906,0.91,0.9122500000000001,0.914,0.918,0.92,0.921,0.922,0.923,0.923,0.923,0.923,0.923,0.923,0.922,0.922,0.921,0.921,0.92,0.92,0.92,0.92,0.919,0.919,0.92,0.92,0.92,0.92,0.92,0.92,0.92,0.92,0.919,0.919,0.919,0.918,0.917,0.915,0.913,0.912,0.91,0.91,0.921,0.92,0.92,0.92,0.92,0.92,0.92,0.92,0.918,0.917,0.917,0.917,0.917,0.917,0.917,0.918,0.919,0.92,0.918,0.917,0.913,0.908,0.903,0.9,0.898,0.893,0.891,0.888,0.887,0.885,0.883,0.883,0.883,0.883,0.882,0.881,0.881,0.882,0.882,0.883,0.883,0.883,0.886,0.889,0.891,0.894,0.0,0.0,0.0,0.0,0.0,0.0,0.0,0.0,0.0,0.0,0.0,0.0,0.0,0.0,0.0,0.0,0.0,0.0,0.0,0.0,0.0,0.437,0.436,0.436,0.437,0.437,0.437,0.437,0.437,0.437,0.437,0.437,0.438,0.438,0.437,0.437,0.437,0.436,0.436,0.436,0.436,0.435,0.435,0.435,0.434,0.434,0.433,0.433,0.432,0.432,0.432,0.431,0.431,0.431,0.431,0.431,0.431,0.43,0.43,0.43,0.43,0.43,0.429,0.429,0.429,0.428,0.428,0.428,0.428,0.428,0.428,0.428,0.428,0.428,0.427,0.427,0.427,0.427,0.427,0.427,0.427,0.427,0.426,0.426,0.426,0.426,0.426,0.426,0.426,0.426,0.426,0.426,0.426,0.426,0.425,0.425,0.425,0.425,0.425,0.425,0.425,0.425,0.425,0.425,0.425,0.425,0.425,0.425,0.425,0.426,0.426,0.426,0.426,0.426,0.426,0.426,0.426,0.427,0.427,0.428,0.428,0.429,0.429,0.42924999999999996,0.43,0.43,0.43,0.43,0.43,0.43,0.43,0.43,0.431,0.431,0.431,0.431,0.431,0.431,0.431,0.432,0.432,0.432,0.43275,0.433,0.434,0.434,0.435,0.435,0.435,0.435,0.436,0.436,0.436,0.436,0.436,0.436,0.436,0.436,0.436,0.436,0.436,0.436,0.436,0.436,0.436,0.436,0.436,0.436,0.437,0.436,0.436,0.436,0.436,0.437,0.437,0.439,0.438,0.439,0.44,0.441,0.442,0.443,0.444,0.4455,0.447,0.44675000000000004,0.447,0.447,0.448,0.448,0.449,0.45,0.451,0.451,0.451,0.451,0.451,0.452,0.452,0.451,0.449,0.448,0.448,0.447,0.4525,0.454,0.45475000000000004,0.457,0.4575,0.458,0.458,0.0,0.0,0.0,0.0,0.45,0.456,0.45625,0.456,0.457,0.456,0.456,0.456,0.456,0.456,0.455,0.455,0.454,0.453,0.453,0.453,0.452,0.452,0.452,0.452,0.452,0.452,0.452,0.452,0.452,0.452,0.452,0.452,0.452,0.452,0.452,0.453,0.4535,0.454,0.455,0.456,0.457,0.457,0.457,0.0,0.0,0.0,0.0,0.0,0.0,0.0,0.0,0.0,0.0,0.0,0.0,0.0,0.0,0.0,0.0,0.0,0.0,0.0,0.6944999999999999,0.0,0.6915,0.6895,0.6881249999999999,0.688,0.688,0.687,0.687,0.683,0.683,0.682,0.682,0.681,0.681,0.68,0.68,0.68,0.68,0.679,0.678,0.677,0.676,0.675,0.674,0.673,0.672,0.67,0.67,0.669,0.669,0.669,0.669,0.669,0.669,0.669,0.0,0.0,0.0,0.0,0.0,0.0,0.0,0.0,0.0,0.0,0.0,0.0,0.0,0.0,0.0,0.0,0.0,0.0,0.0,0.0,0.0,0.0
3.946,3.973,3.987,4.014,4.028,4.056,4.07,4.085,4.128,4.158,4.188,4.203,4.218,4.233,4.249,4.249,4.249,4.264,4.264,4.264,4.28,4.28,4.28,4.28,4.28,4.28,4.28,4.296,4.296,4.296,4.312,4.312,4.328,4.328,4.328,4.344,4.36,4.36,4.376,4.393,4.41,4.41,4.426,4.46,4.477,4.477,4.512,4.512,4.512,4.512,4.512,4.512,4.512,4.477,4.477,4.477,4.477,4.477,4.477,4.477,4.46,4.46,4.426,4.426,4.426,4.426,4.41,4.41,4.393,4.393,4.393,4.393,4.376,4.376,4.36,4.376,4.376,4.376,4.393,4.393,4.41,4.46,4.477,4.53,4.565,4.583,4.601,4.638,4.638,4.638,4.657,4.657,4.638,4.638,4.601,4.565,4.53,4.512,4.477,4.426,4.41,4.376,4.36,4.36,0.0,0.0,0.0,0.0,0.0,0.0,0.0,0.0,0.0,0.0,0.0,0.0,0.0,0.886,0.891,0.893,0.8965000000000001,0.899,0.9,0.902,0.906,0.909,0.911,0.913,0.915,0.917,0.917,0.917,0.917,0.917,0.915,0.914,0.912,0.91,0.909,0.908,0.907,0.906,0.906,0.905,0.906,0.906,0.906,0.908,0.907,0.908,0.908,0.908,0.907,0.906,0.905,0.904,0.902,0.902,0.902,0.9,0.9,0.9,0.898,0.898,0.909,0.897,0.896,0.905,0.904,0.904,0.903,0.904,0.903,0.904,0.905,0.906,0.906,0.907,0.907,0.907,0.906,0.905,0.905,0.902,0.898,0.889,0.886,0.882,0.879,0.878,0.877,0.877,0.877,0.877,0.877,0.877,0.877,0.877,0.877,0.873,0.8734999999999999,0.874625,0.877,0.877,0.877,0.877,0.878,0.879,0.881,0.884,0.0,0.0,0.0,0.0,0.0,0.0,0.0,0.0,0.0,0.0,0.0,0.0,0.0,0.0,0.0,0.0,0.0,0.0,0.0,0.0,0.436,0.436,0.436,0.436,0.436,0.436,0.436,0.436,0.436,0.436,0.436,0.436,0.437,0.436,0.436,0.436,0.436,0.436,0.436,0.436,0.435,0.435,0.434,0.434,0.433,0.433,0.433,0.432,0.432,0.432,0.431,0.431,0.431,0.431,0.431,0.43,0.43,0.43,0.429,0.429,0.429,0.429,0.428,0.428,0.427,0.427,0.427,0.427,0.427,0.427,0.427,0.427,0.427,0.426,0.426,0.426,0.426,0.426,0.426,0.426,0.426,0.426,0.426,0.426,0.425,0.425,0.425,0.425,0.425,0.425,0.425,0.425,0.425,0.425,0.425,0.425,0.425,0.425,0.425,0.425,0.425,0.425,0.425,0.425,0.425,0.425,0.425,0.425,0.425,0.425,0.425,0.425,0.425,0.425,0.425,0.426,0.426,0.426,0.426,0.426,0.427,0.427,0.427,0.428,0.428,0.428,0.429,0.429,0.429,0.429,0.43,0.43,0.43,0.43,0.43,0.43,0.43,0.431,0.431,0.431,0.431,0.431,0.432,0.432,0.43275,0.433,0.433,0.434,0.435,0.435,0.435,0.435,0.435,0.436,0.436,0.435,0.436,0.436,0.436,0.436,0.436,0.435,0.436,0.436,0.436,0.436,0.436,0.436,0.436,0.436,0.436,0.436,0.436,0.436,0.437,0.437,0.4375,0.438,0.438,0.439,0.44,0.441,0.441,0.441,0.442,0.444,0.444,0.445,0.446,0.446,0.447,0.448,0.448,0.448,0.449,0.448,0.449,0.448,0.448,0.448,0.447,0.447,0.447,0.446,0.446,0.447,0.447,0.447,0.447,0.446,0.447,0.447,0.0,0.0,0.0,0.449,0.45,0.452,0.452,0.453,0.454,0.45425000000000004,0.455,0.455,0.455,0.454,0.453,0.453,0.453,0.452,0.452,0.452,0.452,0.452,0.452,0.451,0.451,0.451,0.451,0.451,0.451,0.451,0.452,0.452,0.452,0.452,0.453,0.45337500000000003,0.454,0.455,0.455,0.456,0.457,0.0,0.0,0.0,0.0,0.0,0.0,0.0,0.0,0.0,0.0,0.0,0.0,0.0,0.0,0.0,0.0,0.0,0.0,0.0,0.69,0.689,0.6875,0.686,0.684,0.681,0.681,0.68,0.68,0.68,0.68,0.679,0.679,0.678,0.678,0.676,0.675,0.674,0.673,0.673,0.672,0.671,0.67,0.669,0.668,0.668,0.668,0.667,0.667,0.667,0.667,0.667,0.666,0.666,0.666,0.666,0.666,0.0,0.0,0.0,0.0,0.0,0.0,0.0,0.0,0.0,0.0,0.0,0.0,0.0,0.0,0.0,0.0,0.0,0.0,0.0,0.0,0.0,0.0
3.973,3.987,4.014,4.014,4.028,4.056,4.07,4.114,4.128,4.158,4.188,4.203,4.218,4.233,4.249,4.249,4.249,4.264,4.264,4.264,4.28,4.28,4.28,4.28,4.28,4.28,4.28,4.28,4.296,4.296,4.312,4.312,4.312,4.328,4.328,4.328,4.344,4.344,4.36,4.376,4.376,4.393,4.393,4.41,4.41,4.41,4.41,4.41,4.41,4.426,4.426,4.426,4.426,4.41,4.41,4.41,4.41,4.41,4.426,4.41,4.41,4.41,4.41,4.393,4.393,4.393,4.376,4.376,4.376,4.36,4.36,4.344,4.344,4.328,4.328,4.328,4.328,4.328,4.344,4.36,4.376,4.393,4.426,4.477,4.512,4.565,4.583,4.601,4.601,4.638,4.638,4.638,4.638,4.638,4.601,4.583,4.53,4.512,4.46,4.426,4.393,4.376,4.36,0.0,0.0,0.0,0.0,0.0,0.0,0.0,0.0,0.0,0.0,0.0,0.0,0.0,0.88,0.882,0.885,0.889,0.894,0.897,0.898,0.9,0.9,0.902,0.904,0.906,0.907,0.907,0.906,0.905,0.904,0.902,0.902,0.9,0.9,0.9,0.9,0.899,0.898,0.898,0.898,0.898,0.898,0.898,0.898,0.899,0.9,0.9,0.899,0.898,0.898,0.898,0.897,0.896,0.895,0.894,0.893,0.891,0.891,0.887,0.886,0.884,0.882,0.881,0.879,0.879,0.879,0.879,0.894,0.895,0.895,0.895,0.896,0.897,0.897,0.897,0.897,0.896,0.891,0.888,0.884,0.879,0.877,0.876,0.875,0.873,0.871,0.869,0.869,0.867,0.868,0.868,0.868,0.867,0.867,0.867,0.866,0.865,0.866,0.866,0.866,0.867,0.868,0.869,0.873,0.875,0.876,0.0,0.0,0.0,0.0,0.0,0.0,0.0,0.0,0.0,0.0,0.0,0.0,0.0,0.0,0.0,0.0,0.0,0.0,0.437,0.436,0.436,0.436,0.436,0.436,0.436,0.436,0.436,0.436,0.436,0.436,0.436,0.436,0.436,0.436,0.436,0.436,0.436,0.436,0.436,0.435,0.435,0.434,0.434,0.433,0.433,0.433,0.432,0.432,0.432,0.431,0.431,0.431,0.431,0.431,0.43,0.43,0.43,0.429,0.429,0.428,0.428,0.428,0.427,0.427,0.426,0.426,0.426,0.426,0.426,0.426,0.426,0.426,0.426,0.426,0.426,0.426,0.426,0.426,0.426,0.425,0.425,0.425,0.425,0.425,0.425,0.425,0.425,0.425,0.425,0.425,0.425,0.425,0.424,0.424,0.424,0.424,0.424,0.424,0.424,0.424,0.424,0.424,0.424,0.424,0.424,0.424,0.423,0.424,0.424,0.424,0.424,0.424,0.425,0.425,0.425,0.425,0.425,0.425,0.425,0.426,0.426,0.426,0.426,0.426,0.426,0.426,0.427,0.427,0.428,0.428,0.428,0.429,0.429,0.429,0.429,0.43,0.43,0.43,0.43,0.43,0.431,0.431,0.431,0.431,0.431,0.432,0.432,0.432,0.433,0.433,0.4335,0.434,0.434,0.435,0.435,0.433,0.434,0.434,0.435,0.435,0.435,0.435,0.435,0.435,0.435,0.4355,0.436,0.436,0.436,0.436,0.436,0.436,0.436,0.436,0.436,0.436,0.437,0.437,0.437,0.438,0.43825000000000003,0.439,0.439,0.44,0.441,0.441,0.441,0.441,0.442,0.443,0.444,0.445,0.446,0.446,0.446,0.447,0.447,0.447,0.447,0.447,0.446,0.446,0.446,0.446,0.446,0.446,0.446,0.446,0.446,0.446,0.446,0.446,0.446,0.446,0.446,0.447,0.448,0.449,0.449,0.451,0.4515,0.452,0.452,0.452,0.453,0.453,0.452,0.452,0.452,0.452,0.452,0.452,0.451,0.451,0.451,0.451,0.451,0.451,0.45,0.45,0.45,0.451,0.451,0.451,0.451,0.452,0.452,0.452,0.453,0.4535,0.454,0.455,0.455,0.456,0.0,0.0,0.0,0.0,0.0,0.0,0.0,0.0,0.0,0.0,0.0,0.0,0.0,0.0,0.0,0.0,0.0,0.0,0.0,0.677,0.679,0.678,0.677,0.676,0.676,0.677,0.677,0.676,0.676,0.674,0.674,0.673,0.673,0.671,0.67,0.669,0.668,0.668,0.667,0.666,0.666,0.665,0.665,0.664,0.663,0.662,0.662,0.661,0.661,0.66,0.659,0.659,0.659,0.658,0.658,0.658,0.0,0.0,0.0,0.0,0.0,0.0,0.0,0.0,0.0,0.0,0.0,0.0,0.0,0.0,0.0,0.0,0.0,0.0,0.0,0.0,0.0,0.0
3.987,4.014,4.028,4.028,4.056,4.07,4.085,4.114,4.128,4.173,4.188,4.203,4.218,4.233,4.233,4.249,4.249,4.264,4.264,4.264,4.264,4.28,4.28,4.28,4.28,4.28,4.28,4.28,4.28,4.296,4.312,4.312,4.312,4.328,4.328,4.328,4.328,4.344,4.344,4.36,4.36,4.36,4.36,4.376,4.376,4.36,4.376,4.376,4.36,4.36,4.36,4.36,4.36,4.376,4.376,4.36,4.376,4.376,4.376,4.376,4.376,4.376,4.376,4.376,4.36,4.36,4.36,4.344,4.344,4.328,4.328,4.328,4.312,4.312,4.312,4.296,4.296,4.312,4.312,4.328,4.328,4.36,4.393,4.426,4.477,4.53,4.565,4.583,4.601,4.638,4.638,4.638,4.638,4.638,4.601,4.583,4.565,4.512,4.46,4.426,4.393,4.376,0.0,0.0,0.0,0.0,0.0,0.0,0.0,0.0,0.0,0.0,0.0,0.0,0.0,0.877,0.877,0.879,0.881,0.884,0.888,0.891,0.894,0.895,0.897,0.898,0.896,0.8975,0.899,0.898,0.898,0.898,0.897,0.897,0.896,0.895,0.895,0.894,0.893,0.893,0.893,0.891,0.893,0.893,0.893,0.893,0.893,0.894,0.894,0.893,0.893,0.891,0.889,0.884,0.882,0.881,0.879,0.879,0.878,0.877,0.877,0.876,0.875,0.875,0.874,0.873,0.87,0.87,0.871,0.87,0.879,0.872,0.872,0.881,0.88,0.883,0.886,0.886,0.885,0.883,0.876,0.874,0.87,0.866,0.863,0.86,0.859,0.858,0.858,0.858,0.858,0.858,0.858,0.857,0.857,0.857,0.856,0.856,0.855,0.855,0.855,0.855,0.856,0.857,0.858,0.859,0.86225,0.862,0.0,0.0,0.0,0.0,0.0,0.0,0.0,0.0,0.0,0.0,0.0,0.0,0.0,0.0,0.0,0.0,0.0,0.437,0.436,0.436,0.436,0.436,0.436,0.436,0.436,0.436,0.435,0.435,0.435,0.435,0.435,0.435,0.435,0.436,0.436,0.435,0.435,0.435,0.435,0.435,0.434,0.434,0.433,0.433,0.432,0.432,0.432,0.432,0.431,0.431,0.431,0.431,0.431,0.43,0.43,0.43,0.429,0.429,0.428,0.428,0.427,0.427,0.426,0.426,0.426,0.426,0.426,0.426,0.426,0.426,0.426,0.426,0.426,0.426,0.425,0.425,0.425,0.425,0.425,0.425,0.425,0.425,0.425,0.425,0.425,0.425,0.425,0.425,0.424,0.424,0.424,0.424,0.424,0.423,0.423,0.423,0.423,0.423,0.423,0.423,0.423,0.423,0.423,0.423,0.422,0.422,0.422,0.422,0.422,0.422,0.422,0.423,0.423,0.423,0.424,0.424,0.424,0.425,0.425,0.425,0.425,0.425,0.425,0.425,0.425,0.425,0.426,0.426,0.426,0.426,0.427,0.427,0.427,0.428,0.428,0.429,0.429,0.429,0.43,0.43,0.43,0.43,0.43,0.431,0.431,0.431,0.431,0.431,0.432,0.432,0.431,0.432,0.432,0.432,0.432,0.433,0.433,0.433,0.433,0.434,0.434,0.434,0.435,0.435,0.435,0.435,0.435,0.435,0.4355,0.436,0.436,0.436,0.436,0.436,0.436,0.436,0.436,0.436,0.436,0.437,0.437,0.437,0.438,0.438,0.43875000000000003,0.439,0.43975,0.44,0.44,0.441,0.441,0.442,0.442,0.443,0.444,0.444,0.445,0.445,0.445,0.446,0.446,0.446,0.445,0.446,0.446,0.446,0.445,0.446,0.446,0.446,0.446,0.445,0.446,0.446,0.446,0.446,0.446,0.0,0.4475,0.448,0.449,0.45,0.451,0.451,0.452,0.452,0.452,0.451,0.452,0.451,0.451,0.451,0.451,0.451,0.45,0.45,0.449,0.449,0.449,0.449,0.449,0.449,0.449,0.45,0.45,0.451,0.451,0.452,0.452,0.453,0.453,0.4535,0.454,0.455,0.456,0.0,0.0,0.0,0.0,0.0,0.0,0.0,0.0,0.0,0.0,0.0,0.0,0.0,0.0,0.0,0.0,0.0,0.0,0.0,0.664,0.666,0.666,0.666,0.667,0.668,0.668,0.668,0.669,0.669,0.668,0.668,0.668,0.668,0.667,0.665,0.664,0.663,0.662,0.66,0.659,0.658,0.658,0.657,0.657,0.657,0.656,0.656,0.655,0.655,0.655,0.655,0.655,0.655,0.655,0.654,0.655,0.0,0.0,0.0,0.0,0.0,0.0,0.0,0.0,0.0,0.0,0.0,0.0,0.0,0.0,0.0,0.0,0.0,0.0,0.0,0.0,0.0,0.0
4.000500000000001,4.014,4.028,4.056,4.07,4.085,4.114,4.128,4.158,4.173,4.173,4.188,4.203,4.218,4.233,4.249,4.249,4.249,4.249,4.264,4.264,4.264,4.264,4.28,4.28,4.28,4.28,4.28,4.28,4.296,4.296,4.312,4.312,4.312,4.328,4.328,4.328,4.328,4.328,4.328,4.328,4.328,4.344,4.328,4.328,4.328,4.328,4.328,4.328,4.328,4.328,4.328,4.328,4.328,4.328,4.328,4.344,4.344,4.344,4.344,4.344,4.344,4.344,4.344,4.344,4.328,4.328,4.328,4.312,4.312,4.312,4.296,4.28,4.28,4.264,4.264,4.264,4.264,4.28,4.28,4.312,4.328,4.36,4.393,4.46,4.477,4.53,4.583,4.601,4.638,4.638,4.657,4.638,4.638,4.638,4.601,0.0,0.0,0.0,0.0,0.0,0.0,0.0,0.0,0.0,0.0,0.0,0.0,0.0,0.0,0.865,0.868,0.869,0.87,0.873,0.874,0.876,0.877,0.878,0.879,0.88,0.882,0.883,0.885,0.885,0.887,0.888,0.889,0.891,0.889,0.888,0.889,0.889,0.888,0.887,0.885,0.885,0.884,0.884,0.883,0.882,0.88275,0.883,0.883,0.883,0.881,0.882,0.881,0.879,0.879,0.877,0.876,0.875,0.874,0.873,0.87,0.87,0.869,0.867,0.867,0.865,0.863,0.862,0.86,0.86,0.859,0.858,0.858,0.858,0.859,0.859,0.86,0.86,0.859,0.858,0.872,0.875,0.878,0.876,0.86575,0.857,0.855,0.853,0.851,0.85,0.849,0.849,0.848,0.848,0.85,0.851,0.852,0.851,0.85,0.848,0.848,0.847,0.844,0.842,0.843,0.843,0.843,0.845,0.847,0.85,0.852,0.855,0.0,0.0,0.0,0.0,0.0,0.0,0.0,0.0,0.0,0.0,0.0,0.0,0.0,0.0,0.0,0.0,0.0,0.437,0.436,0.436,0.436,0.436,0.436,0.436,0.435,0.435,0.435,0.435,0.435,0.435,0.435,0.435,0.435,0.435,0.435,0.434,0.434,0.434,0.434,0.434,0.433,0.433,0.433,0.432,0.432,0.432,0.432,0.431,0.431,0.431,0.431,0.431,0.431,0.43,0.43,0.43,0.429,0.428,0.427,0.427,0.426,0.426,0.426,0.426,0.426,0.426,0.425,0.425,0.425,0.425,0.425,0.425,0.425,0.425,0.425,0.425,0.425,0.425,0.425,0.425,0.425,0.425,0.425,0.424,0.424,0.424,0.424,0.424,0.424,0.423,0.423,0.423,0.423,0.422,0.422,0.422,0.422,0.422,0.422,0.422,0.422,0.422,0.422,0.422,0.421,0.421,0.421,0.421,0.421,0.421,0.421,0.421,0.421,0.42174999999999996,0.422,0.422,0.423,0.423,0.423,0.424,0.424,0.425,0.425,0.425,0.425,0.425,0.425,0.425,0.425,0.425,0.0,0.0,0.0,0.0,0.427,0.427,0.428,0.428,0.428,0.429,0.429,0.429,0.43,0.43,0.43,0.43,0.43,0.43,0.43,0.431,0.431,0.431,0.431,0.431,0.431,0.431,0.431,0.432,0.432,0.432,0.432,0.433,0.433,0.433,0.434,0.434,0.434,0.435,0.435,0.435,0.435,0.435,0.435,0.435,0.436,0.436,0.436,0.436,0.436,0.436,0.436,0.437,0.436,0.437,0.437,0.438,0.438,0.439,0.439,0.43925,0.44,0.44,0.441,0.441,0.441,0.442,0.442,0.442,0.443,0.443,0.443,0.444,0.443,0.443,0.443,0.443,0.443,0.444,0.444,0.444,0.444,0.444,0.444,0.444,0.444,0.444,0.445,0.445,0.4455,0.446,0.44675000000000004,0.447,0.447,0.448,0.449,0.45,0.45,0.45,0.45,0.45,0.45,0.45,0.449,0.449,0.449,0.449,0.448,0.448,0.448,0.448,0.448,0.448,0.448,0.448,0.449,0.449,0.45,0.451,0.451,0.452,0.452,0.453,0.453,0.454,0.4545,0.455,0.456,0.0,0.0,0.0,0.0,0.0,0.0,0.0,0.0,0.0,0.0,0.0,0.0,0.0,0.0,0.0,0.0,0.0,0.655,0.655,0.656,0.657,0.6587500000000001,0.658,0.66,0.661,0.661,0.662,0.662,0.662,0.661,0.661,0.66,0.658,0.657,0.657,0.656,0.656,0.655,0.655,0.655,0.654,0.654,0.654,0.653,0.653,0.651,0.651,0.65,0.649,0.649,0.649,0.648,0.648,0.648,0.0,0.0,0.0,0.0,0.0,0.0,0.0,0.0,0.0,0.0,0.0,0.0,0.0,0.0,0.0,0.0,0.0,0.0,0.0,0.0,0.0,0.0,0.0
4.010875,4.028,4.056,4.07,4.085,4.114,4.114,4.128,4.158,4.173,4.188,4.188,4.203,4.218,4.218,4.233,4.249,4.249,4.249,4.249,4.264,4.264,4.264,4.264,4.264,4.264,4.28,4.28,4.28,4.28,4.296,4.296,4.312,4.312,4.312,4.312,4.328,4.328,4.328,4.328,4.328,4.328,4.328,4.312,4.312,4.312,4.312,4.312,4.312,4.312,4.296,4.296,4.312,4.312,4.312,4.328,4.328,4.328,4.328,4.328,4.328,4.328,4.328,4.328,4.328,4.328,4.312,4.312,4.296,4.296,4.28,4.28,4.264,4.249,4.249,4.249,4.249,4.249,4.264,4.264,4.28,4.296,4.328,4.344,4.41,4.46,4.512,4.565,4.583,4.601,4.638,4.638,0.0,0.0,0.0,0.0,0.0,0.0,0.0,0.0,0.0,0.0,0.0,0.0,0.0,0.0,0.857,0.857,0.858,0.859,0.861,0.864,0.866,0.869,0.8695,0.871,0.873,0.874,0.875,0.875,0.876,0.877,0.877,0.877,0.877,0.878,0.879,0.879,0.879,0.879,0.879,0.879,0.879,0.878,0.877,0.877,0.876,0.876,0.875,0.875,0.875,0.875,0.875,0.875,0.875,0.874,0.874,0.873,0.871,0.868,0.866,0.863,0.861,0.86,0.859,0.858,0.857,0.857,0.857,0.856,0.855,0.854,0.853,0.853,0.853,0.852,0.852,0.853,0.853,0.853,0.853,0.853,0.851,0.848,0.846,0.843,0.839,0.838,0.847,0.847,0.843,0.838,0.838,0.838,0.838,0.838,0.838,0.838,0.838,0.839,0.839,0.84,0.839,0.838,0.838,0.837,0.836,0.836,0.835,0.835,0.835,0.835,0.836,0.838,0.839,0.842,0.847,0.0,0.0,0.0,0.0,0.0,0.0,0.0,0.0,0.0,0.0,0.0,0.0,0.0,0.0,0.0,0.0,0.437,0.436,0.436,0.436,0.436,0.436,0.435,0.435,0.435,0.435,0.434,0.434,0.433,0.433,0.433,0.433,0.433,0.433,0.433,0.433,0.433,0.433,0.432,0.432,0.432,0.432,0.432,0.431,0.431,0.431,0.431,0.431,0.431,0.431,0.43,0.43,0.43,0.43,0.429,0.429,0.428,0.426,0.426,0.426,0.426,0.425,0.425,0.425,0.425,0.425,0.425,0.425,0.425,0.425,0.425,0.425,0.425,0.425,0.425,0.425,0.425,0.425,0.425,0.425,0.424,0.424,0.424,0.424,0.423,0.423,0.423,0.423,0.423,0.423,0.422,0.422,0.422,0.422,0.422,0.422,0.422,0.421,0.421,0.421,0.421,0.421,0.421,0.421,0.421,0.421,0.421,0.421,0.421,0.421,0.421,0.421,0.421,0.421,0.421,0.4215,0.422,0.422,0.422,0.423,0.423,0.424,0.423,0.424,0.424,0.424,0.424,0.425,0.424,0.425,0.0,0.0,0.0,0.0,0.426,0.426,0.427,0.427,0.427,0.428,0.427,0.427,0.428,0.428,0.428,0.429,0.429,0.429,0.43,0.43,0.43,0.43,0.431,0.431,0.431,0.431,0.431,0.431,0.431,0.431,0.432,0.432,0.432,0.432,0.433,0.433,0.433,0.434,0.434,0.434,0.434,0.434,0.434,0.435,0.435,0.435,0.435,0.435,0.436,0.436,0.436,0.436,0.436,0.436,0.437,0.437,0.437,0.438,0.438,0.438,0.439,0.439,0.44,0.44,0.4405,0.441,0.441,0.441,0.44175,0.442,0.442,0.442,0.442,0.442,0.442,0.442,0.442,0.442,0.442,0.442,0.443,0.442,0.443,0.443,0.443,0.443,0.444,0.444,0.445,0.445,0.446,0.446,0.4465,0.447,0.447,0.448,0.448,0.448,0.448,0.448,0.448,0.448,0.448,0.448,0.448,0.448,0.447,0.447,0.447,0.447,0.447,0.447,0.447,0.448,0.448,0.448,0.449,0.45,0.451,0.452,0.452,0.452,0.453,0.453,0.45387500000000003,0.455,0.456,0.0,0.0,0.0,0.0,0.0,0.0,0.0,0.0,0.0,0.0,0.0,0.0,0.0,0.0,0.0,0.0,0.0,0.6495,0.65,0.652,0.653,0.654,0.6532500000000001,0.655,0.655,0.655,0.655,0.655,0.655,0.655,0.655,0.655,0.655,0.654,0.654,0.654,0.653,0.652,0.651,0.649,0.648,0.648,0.647,0.646,0.646,0.645,0.645,0.645,0.644,0.644,0.644,0.644,0.644,0.644,0.0,0.0,0.0,0.0,0.0,0.0,0.0,0.0,0.0,0.0,0.0,0.0,0.0,0.0,0.0,0.0,0.0,0.0,0.0,0.0,0.0,0.0,0.0
4.028,4.056,4.085,4.114,4.114,4.128,4.128,4.158,4.158,4.173,4.188,4.188,4.203,4.203,4.218,4.218,4.233,4.233,4.249,4.249,4.249,4.249,4.264,4.264,4.264,4.264,4.264,4.28,4.28,4.28,4.28,4.296,4.296,4.312,4.312,4.312,4.312,4.312,4.312,4.312,4.312,4.312,4.312,4.312,4.296,4.296,4.296,4.28,4.28,4.28,4.28,4.28,4.296,4.296,4.312,4.312,4.312,4.312,4.312,4.312,4.312,4.312,4.312,4.312,4.312,4.312,4.312,4.296,4.28,4.28,4.264,4.264,4.249,4.233,4.218,4.218,4.203,4.218,4.233,4.249,4.249,4.28,4.28,4.328,4.393,4.426,4.477,4.53,4.565,4.583,0.0,0.0,0.0,0.0,0.0,0.0,0.0,0.0,0.0,0.0,0.0,0.0,0.0,0.0,0.85,0.8525,0.855,0.855,0.856,0.857,0.858,0.86,0.861,0.863,0.865,0.865,0.867,0.868,0.868,0.869,0.871,0.869,0.869,0.869,0.87,0.871,0.872,0.872,0.873,0.872,0.872,0.873,0.873,0.871,0.868,0.867,0.866,0.865,0.864,0.863,0.862,0.862,0.862,0.862,0.861,0.86,0.86,0.859,0.858,0.857,0.856,0.855,0.853,0.852,0.85,0.849,0.847,0.847,0.845,0.845,0.844,0.843,0.841,0.842,0.841,0.841,0.842,0.842,0.841,0.839,0.839,0.838,0.838,0.836,0.835,0.822,0.819,0.818,0.819,0.819,0.834,0.832,0.829,0.83,0.83,0.829,0.83,0.83,0.832,0.832,0.832,0.833,0.832,0.832,0.83,0.829,0.826,0.826,0.827,0.827,0.829,0.829,0.832,0.831,0.8334999999999999,0.836,0.0,0.0,0.0,0.0,0.0,0.0,0.0,0.0,0.0,0.0,0.0,0.0,0.0,0.0,0.0,0.437,0.436,0.436,0.436,0.436,0.436,0.435,0.435,0.435,0.434,0.434,0.433,0.433,0.433,0.433,0.432,0.432,0.432,0.432,0.432,0.432,0.432,0.431,0.431,0.431,0.431,0.431,0.431,0.431,0.431,0.431,0.431,0.431,0.43,0.43,0.43,0.43,0.43,0.429,0.429,0.428,0.427,0.426,0.426,0.425,0.425,0.425,0.425,0.425,0.425,0.425,0.425,0.425,0.425,0.425,0.425,0.425,0.424,0.425,0.425,0.425,0.424,0.424,0.424,0.424,0.424,0.424,0.423,0.423,0.423,0.423,0.423,0.423,0.422,0.422,0.422,0.422,0.421,0.421,0.421,0.421,0.421,0.421,0.421,0.421,0.421,0.421,0.421,0.421,0.42,0.42,0.42,0.42,0.42,0.42,0.42,0.42,0.42,0.42,0.42,0.421,0.421,0.421,0.421,0.421,0.42174999999999996,0.422,0.422,0.423,0.423,0.423,0.423,0.423,0.423,0.423,0.424,0.424,0.0,0.0,0.425,0.426,0.425,0.426,0.426,0.426,0.426,0.426,0.427,0.427,0.427,0.427,0.428,0.428,0.429,0.429,0.429,0.43,0.43,0.43,0.43,0.43,0.43,0.431,0.431,0.431,0.431,0.431,0.431,0.431,0.432,0.432,0.432,0.432,0.432,0.433,0.433,0.433,0.433,0.433,0.434,0.434,0.434,0.435,0.435,0.435,0.435,0.436,0.436,0.436,0.436,0.436,0.436,0.436,0.437,0.437,0.437,0.438,0.438,0.439,0.44,0.44,0.44,0.44,0.441,0.441,0.441,0.441,0.441,0.441,0.441,0.441,0.441,0.441,0.441,0.442,0.442,0.442,0.442,0.442,0.442,0.443,0.443,0.443,0.443,0.444,0.445,0.445,0.446,0.446,0.446,0.447,0.447,0.447,0.447,0.447,0.447,0.447,0.447,0.447,0.447,0.447,0.447,0.447,0.447,0.447,0.447,0.447,0.447,0.447,0.447,0.447,0.447,0.448,0.449,0.45,0.451,0.452,0.452,0.452,0.453,0.453,0.0,0.0,0.0,0.0,0.0,0.0,0.0,0.0,0.0,0.0,0.0,0.0,0.0,0.0,0.0,0.0,0.0,0.0,0.0,0.644,0.644,0.645,0.64625,0.646,0.646,0.6472500000000001,0.647,0.646,0.647,0.6485000000000001,0.6485000000000001,0.648375,0.648,0.649,0.649,0.648,0.649,0.649,0.647,0.646,0.646,0.645,0.645,0.644,0.644,0.644,0.643,0.643,0.642,0.641,0.64,0.64,0.64,0.639,0.638,0.638,0.0,0.0,0.0,0.0,0.0,0.0,0.0,0.0,0.0,0.0,0.0,0.0,0.0,0.0,0.0,0.0,0.0,0.0,0.0,0.0,0.0,0.0,0.0
4.056,4.085,4.114,4.128,4.128,4.158,4.158,4.158,4.158,4.173,4.173,4.188,4.188,4.203,4.203,4.203,4.218,4.218,4.233,4.233,4.249,4.249,4.249,4.249,4.264,4.264,4.264,4.264,4.28,4.28,4.28,4.28,4.296,4.296,4.312,4.312,4.312,4.312,4.312,4.312,4.312,4.296,4.296,4.28,4.28,4.28,4.28,4.264,4.264,4.264,4.264,4.28,4.28,4.28,4.28,4.296,4.296,4.296,4.312,4.312,4.312,4.312,4.312,4.312,4.312,4.296,4.296,4.28,4.28,4.264,4.264,4.249,4.249,4.218,4.203,4.188,4.173,4.188,4.188,4.218,4.233,4.249,4.28,4.312,4.36,0.0,0.0,0.0,0.0,0.0,0.0,0.0,0.0,0.0,0.0,0.0,0.0,0.0,0.0,0.834,0.836,0.837,0.8394999999999999,0.842,0.847,0.851,0.852,0.854,0.855,0.855,0.856,0.857,0.858,0.858,0.859,0.859,0.86,0.86,0.86,0.86,0.86,0.86,0.859,0.86,0.86,0.861,0.861,0.862,0.862,0.862,0.862,0.863,0.861,0.86,0.859,0.857,0.857,0.856,0.856,0.855,0.855,0.855,0.855,0.855,0.855,0.854,0.853,0.851,0.848,0.847,0.845,0.842,0.841,0.84,0.839,0.838,0.838,0.837,0.836,0.836,0.836,0.836,0.835,0.835,0.835,0.835,0.835,0.835,0.833,0.832,0.83,0.824,0.822,0.82,0.818,0.816,0.816,0.815,0.814,0.815,0.815,0.815,0.816,0.819,0.819,0.819,0.819,0.82,0.82,0.82,0.82,0.82,0.819,0.819,0.819,0.819,0.818,0.819,0.819,0.819,0.819,0.82,0.822,0.824,0.828,0.0,0.0,0.0,0.0,0.0,0.0,0.0,0.0,0.0,0.0,0.0,0.0,0.0,0.0,0.0,0.436,0.436,0.436,0.436,0.435,0.435,0.435,0.435,0.435,0.434,0.433,0.433,0.432,0.432,0.432,0.432,0.431,0.431,0.431,0.431,0.431,0.431,0.431,0.431,0.431,0.431,0.431,0.431,0.431,0.431,0.431,0.43,0.43,0.43,0.43,0.43,0.429,0.429,0.429,0.428,0.428,0.426,0.426,0.426,0.425,0.425,0.425,0.425,0.425,0.425,0.424,0.424,0.424,0.424,0.424,0.424,0.424,0.424,0.424,0.424,0.424,0.424,0.424,0.424,0.423,0.423,0.423,0.423,0.422,0.422,0.422,0.422,0.422,0.422,0.422,0.421,0.421,0.421,0.421,0.421,0.421,0.421,0.421,0.421,0.421,0.421,0.42,0.42,0.42,0.42,0.42,0.42,0.42,0.419,0.419,0.419,0.419,0.419,0.419,0.42,0.42,0.42,0.42,0.42,0.421,0.421,0.421,0.421,0.421,0.42174999999999996,0.422,0.422,0.422,0.422,0.422,0.422,0.422,0.423,0.423,0.424,0.424,0.425,0.425,0.425,0.426,0.426,0.426,0.426,0.426,0.426,0.426,0.427,0.427,0.427,0.427,0.428,0.428,0.429,0.429,0.429,0.429,0.43,0.43,0.43,0.43,0.43,0.431,0.431,0.431,0.431,0.431,0.431,0.431,0.431,0.432,0.432,0.432,0.432,0.433,0.432,0.433,0.433,0.433,0.434,0.434,0.434,0.435,0.435,0.435,0.435,0.436,0.436,0.436,0.436,0.436,0.436,0.436,0.437,0.437,0.437,0.438,0.439,0.439,0.439,0.44,0.44,0.44,0.44,0.441,0.441,0.441,0.441,0.441,0.441,0.441,0.441,0.441,0.441,0.441,0.442,0.442,0.442,0.442,0.442,0.442,0.443,0.444,0.444,0.445,0.446,0.446,0.446,0.446,0.446,0.446,0.446,0.446,0.446,0.446,0.446,0.446,0.446,0.446,0.446,0.446,0.446,0.446,0.446,0.446,0.446,0.447,0.447,0.447,0.447,0.448,0.449,0.45,0.451,0.452,0.452,0.452,0.453,0.0,0.0,0.0,0.0,0.0,0.0,0.0,0.0,0.0,0.0,0.0,0.0,0.0,0.0,0.0,0.0,0.0,0.636,0.638,0.638,0.639,0.64,0.641,0.641,0.641,0.641,0.641,0.641,0.642,0.642,0.642,0.642,0.643,0.643,0.644,0.644,0.644,0.644,0.644,0.644,0.643,0.643,0.642,0.641,0.64,0.639,0.638,0.636,0.635,0.635,0.634,0.633,0.633,0.633,0.633,0.0,0.0,0.0,0.0,0.0,0.0,0.0,0.0,0.0,0.0,0.0,0.0,0.0,0.0,0.0,0.0,0.0,0.0,0.0,0.0,0.0,0.0,0.0,0.0
4.07,4.085,4.114,4.158,4.158,4.158,4.158,4.173,4.158,4.173,4.173,4.173,4.173,4.188,4.188,4.203,4.203,4.203,4.218,4.218,4.233,4.233,4.249,4.249,4.249,4.264,4.264,4.264,4.264,4.28,4.28,4.28,4.296,4.296,4.312,4.312,4.312,4.312,4.312,4.312,4.312,4.296,4.28,4.28,4.28,4.28,4.264,4.264,4.264,4.264,4.264,4.264,4.28,4.28,4.28,4.28,4.296,4.296,4.296,4.296,4.296,4.296,4.296,4.296,4.296,4.296,4.296,4.28,4.28,4.264,4.264,4.249,4.233,4.203,4.173,4.173,4.158,4.158,4.158,4.173,4.203,4.218,4.249,4.28,0.0,0.0,0.0,0.0,0.0,0.0,0.0,0.0,0.0,0.0,0.0,0.0,0.0,0.0,0.0,0.832,0.834,0.836,0.837,0.839,0.842,0.847,0.85,0.852,0.853,0.854,0.855,0.855,0.855,0.855,0.855,0.855,0.855,0.856,0.855,0.855,0.855,0.855,0.855,0.855,0.856,0.856,0.857,0.857,0.857,0.857,0.857,0.856,0.855,0.855,0.853,0.852,0.85,0.847,0.847,0.847,0.847,0.845,0.845,0.845,0.84525,0.844,0.842,0.841,0.839,0.838,0.836,0.836,0.835,0.833,0.832,0.83,0.829,0.828,0.828,0.827,0.827,0.827,0.827,0.824,0.824,0.824,0.822,0.821,0.82,0.818,0.817,0.816,0.815,0.813,0.811,0.81,0.808,0.807,0.807,0.806,0.807,0.807,0.807,0.807,0.806,0.806,0.814,0.814,0.814,0.814,0.814,0.813,0.812,0.812,0.812,0.812,0.811,0.812,0.813,0.814,0.815,0.816,0.817,0.818,0.82,0.0,0.0,0.0,0.0,0.0,0.0,0.0,0.0,0.0,0.0,0.0,0.0,0.0,0.436,0.436,0.436,0.4355,0.435,0.435,0.435,0.434,0.434,0.433,0.433,0.432,0.432,0.432,0.431,0.431,0.431,0.431,0.431,0.431,0.431,0.431,0.431,0.431,0.43,0.43,0.43,0.43,0.43,0.43,0.43,0.43,0.43,0.43,0.43,0.429,0.429,0.429,0.429,0.428,0.428,0.427,0.426,0.426,0.425,0.425,0.425,0.425,0.424,0.424,0.424,0.424,0.424,0.424,0.424,0.423,0.423,0.423,0.423,0.423,0.423,0.423,0.423,0.423,0.423,0.423,0.422,0.422,0.422,0.422,0.422,0.422,0.422,0.422,0.421,0.421,0.421,0.421,0.421,0.421,0.421,0.421,0.421,0.421,0.42,0.42,0.42,0.42,0.42,0.42,0.42,0.42,0.419,0.419,0.418,0.418,0.418,0.418,0.418,0.418,0.418,0.419,0.419,0.42,0.42,0.42,0.42,0.42,0.421,0.421,0.421,0.421,0.421,0.421,0.421,0.421,0.421,0.421,0.421,0.422,0.4225,0.423,0.424,0.424,0.425,0.425,0.425,0.425,0.426,0.426,0.426,0.426,0.426,0.426,0.426,0.427,0.427,0.427,0.427,0.427,0.428,0.428,0.428,0.429,0.429,0.429,0.43,0.43,0.43,0.43,0.43,0.431,0.431,0.431,0.431,0.431,0.431,0.431,0.431,0.432,0.432,0.432,0.432,0.432,0.432,0.433,0.433,0.433,0.434,0.434,0.434,0.435,0.435,0.435,0.435,0.436,0.436,0.436,0.436,0.436,0.436,0.436,0.437,0.437,0.438,0.438,0.438,0.439,0.439,0.44,0.44,0.44,0.44,0.44,0.44,0.44,0.441,0.441,0.441,0.441,0.441,0.441,0.441,0.441,0.442,0.442,0.442,0.442,0.443,0.444,0.444,0.445,0.445,0.445,0.445,0.446,0.446,0.446,0.446,0.446,0.446,0.446,0.446,0.446,0.446,0.446,0.446,0.446,0.446,0.446,0.446,0.446,0.446,0.446,0.447,0.447,0.447,0.448,0.449,0.45,0.451,0.452,0.452,0.452,0.0,0.0,0.0,0.0,0.0,0.0,0.0,0.0,0.0,0.0,0.0,0.0,0.0,0.0,0.0,0.0,0.632,0.632,0.632,0.632,0.632,0.633,0.633,0.633,0.634,0.633,0.633,0.633,0.634,0.634,0.634,0.634,0.634,0.635,0.636,0.638,0.639,0.64,0.64,0.639,0.639,0.639,0.638,0.636,0.635,0.634,0.633,0.633,0.632,0.631,0.631,0.631,0.63,0.629,0.629,0.0,0.0,0.0,0.0,0.0,0.0,0.0,0.0,0.0,0.0,0.0,0.0,0.0,0.0,0.0,0.0,0.0,0.0,0.0,0.0,0.0,0.0,0.0,0.0
4.07,4.085,4.114,4.128,4.128,4.158,4.158,4.158,4.158,4.158,4.158,4.158,4.173,4.173,4.188,4.188,4.188,4.188,4.203,4.203,4.218,4.218,4.233,4.249,4.249,4.249,4.264,4.264,4.264,4.28,4.28,4.28,4.28,4.296,4.312,4.312,4.312,4.312,4.312,4.296,4.296,4.296,4.28,4.28,4.28,4.264,4.264,4.264,4.264,4.264,4.264,4.264,4.28,4.28,4.28,4.28,4.28,4.296,4.296,4.296,4.296,4.296,4.296,4.312,4.296,4.296,4.28,4.28,4.28,4.264,4.249,4.249,4.218,4.188,4.173,4.158,4.128,4.128,4.114,4.128,4.173,4.188,0.0,0.0,0.0,0.0,0.0,0.0,0.0,0.0,0.0,0.0,0.0,0.0,0.0,0.0,0.0,0.824,0.828,0.83,0.832,0.834,0.836,0.838,0.84,0.843,0.845,0.847,0.848,0.85,0.851,0.851,0.852,0.852,0.851,0.852,0.851,0.851,0.85,0.85,0.849,0.849,0.849,0.85,0.85,0.851,0.852,0.852,0.852,0.852,0.852,0.85,0.845,0.8454999999999999,0.843125,0.839,0.839,0.838,0.838,0.838,0.838,0.838,0.837,0.838,0.837,0.836,0.836,0.835,0.833,0.83,0.828,0.824,0.821,0.82,0.819,0.819,0.819,0.819,0.819,0.819,0.819,0.819,0.819,0.818,0.818,0.817,0.816,0.816,0.815,0.812,0.81,0.808,0.806,0.805,0.803,0.803,0.802,0.801,0.801,0.801,0.801,0.801,0.801,0.801,0.801,0.8,0.8,0.799,0.803,0.803,0.802,0.802,0.802,0.801,0.801,0.801,0.801,0.802,0.802,0.803,0.806,0.808,0.81,0.0,0.0,0.0,0.0,0.0,0.0,0.0,0.0,0.0,0.0,0.0,0.0,0.0,0.0,0.436,0.436,0.436,0.435,0.435,0.435,0.434,0.434,0.433,0.432,0.432,0.432,0.431,0.431,0.431,0.431,0.431,0.431,0.431,0.43,0.43,0.43,0.43,0.43,0.43,0.43,0.429,0.429,0.43,0.429,0.429,0.429,0.429,0.429,0.429,0.429,0.428,0.428,0.428,0.427,0.427,0.426,0.426,0.426,0.425,0.425,0.425,0.425,0.424,0.424,0.424,0.424,0.423,0.423,0.423,0.423,0.423,0.423,0.423,0.423,0.423,0.423,0.422,0.422,0.422,0.422,0.422,0.422,0.422,0.422,0.421,0.421,0.421,0.421,0.421,0.421,0.421,0.421,0.421,0.421,0.421,0.421,0.421,0.42,0.42,0.42,0.42,0.42,0.42,0.42,0.42,0.419,0.419,0.418,0.418,0.418,0.418,0.417,0.417,0.417,0.417,0.418,0.418,0.418,0.418,0.419,0.419,0.42,0.42,0.42,0.42,0.42,0.42,0.42,0.42,0.42,0.42,0.42,0.421,0.421,0.421,0.422,0.422,0.423,0.4235,0.424,0.425,0.425,0.425,0.425,0.425,0.425,0.426,0.426,0.426,0.426,0.426,0.426,0.426,0.426,0.427,0.427,0.427,0.427,0.428,0.428,0.428,0.429,0.429,0.43,0.43,0.43,0.43,0.43,0.43,0.431,0.431,0.431,0.431,0.431,0.431,0.431,0.431,0.431,0.431,0.432,0.432,0.432,0.432,0.433,0.433,0.433,0.434,0.434,0.435,0.435,0.435,0.435,0.436,0.436,0.436,0.436,0.436,0.436,0.436,0.437,0.437,0.437,0.438,0.438,0.438,0.439,0.439,0.439,0.439,0.44,0.44,0.44,0.44,0.44,0.441,0.441,0.441,0.441,0.441,0.441,0.441,0.442,0.442,0.442,0.442,0.443,0.443,0.443,0.444,0.444,0.444,0.444,0.444,0.444,0.445,0.445,0.445,0.445,0.445,0.445,0.445,0.445,0.445,0.445,0.445,0.446,0.446,0.446,0.446,0.446,0.447,0.447,0.447,0.448,0.449,0.45,0.451,0.451,0.452,0.0,0.0,0.0,0.0,0.0,0.0,0.0,0.0,0.0,0.0,0.0,0.0,0.0,0.0,0.0,0.0,0.627,0.628,0.628,0.628,0.629,0.629,0.63,0.63,0.629,0.629,0.629,0.629,0.629,0.629,0.629,0.629,0.629,0.631,0.631,0.632,0.633,0.633,0.633,0.633,0.633,0.633,0.633,0.631,0.63,0.629,0.628,0.627,0.627,0.626,0.625,0.626,0.626,0.626,0.626,0.0,0.0,0.0,0.0,0.0,0.0,0.0,0.0,0.0,0.0,0.0,0.0,0.0,0.0,0.0,0.0,0.0,0.0,0.0,0.0,0.0,0.0,0.0,0.0
4.056,4.07,4.085,4.114,4.128,4.128,4.128,4.128,4.128,4.128,4.128,4.158,4.158,4.158,4.173,4.173,4.173,4.188,4.188,4.203,4.203,4.218,4.233,4.233,4.249,4.249,4.264,4.264,4.264,4.28,4.28,4.28,4.28,4.296,4.312,4.312,4.312,4.312,4.312,4.312,4.296,4.296,4.296,4.28,4.28,4.28,4.264,4.264,4.264,4.264,4.264,4.264,4.28,4.28,4.28,4.28,4.296,4.296,4.296,4.312,4.312,4.312,4.312,4.312,4.312,4.296,4.296,4.28,4.28,4.264,4.249,4.233,4.203,4.173,4.128,4.128,4.114,4.085,4.085,4.114,0.0,0.0,0.0,0.0,0.0,0.0,0.0,0.0,0.0,0.0,0.0,0.0,0.0,0.0,0.818,0.818,0.819,0.822,0.824,0.828,0.83,0.832,0.834,0.836,0.838,0.838,0.841,0.841,0.842,0.843,0.843,0.844,0.843,0.843,0.843,0.843,0.843,0.842,0.842,0.841,0.839,0.84,0.84,0.84,0.841,0.841,0.841,0.841,0.841,0.841,0.839,0.838,0.838,0.836,0.835,0.834,0.833,0.833,0.833,0.832,0.832,0.832,0.83,0.83,0.83,0.828,0.826,0.82,0.819,0.818,0.816,0.816,0.815,0.814,0.814,0.814,0.814,0.814,0.814,0.814,0.815,0.814,0.812,0.81,0.81,0.808,0.806,0.804,0.803,0.802,0.801,0.801,0.8,0.8,0.799,0.799,0.797,0.797,0.797,0.796,0.796,0.796,0.795,0.795,0.794,0.794,0.792,0.792,0.792,0.792,0.792,0.798,0.798,0.798,0.798,0.798,0.799,0.8,0.8,0.8005,0.801,0.0,0.0,0.0,0.0,0.0,0.0,0.0,0.0,0.0,0.0,0.0,0.0,0.0,0.0,0.0,0.436,0.436,0.435,0.435,0.435,0.435,0.433,0.433,0.432,0.432,0.431,0.431,0.431,0.431,0.431,0.431,0.43,0.43,0.43,0.43,0.43,0.429,0.429,0.429,0.429,0.429,0.428,0.428,0.428,0.428,0.428,0.428,0.428,0.428,0.428,0.427,0.427,0.427,0.427,0.426,0.426,0.426,0.426,0.425,0.425,0.425,0.425,0.424,0.424,0.424,0.423,0.424,0.423,0.423,0.423,0.423,0.423,0.423,0.422,0.422,0.422,0.422,0.422,0.422,0.422,0.422,0.421,0.421,0.421,0.421,0.421,0.421,0.421,0.421,0.421,0.421,0.421,0.421,0.421,0.421,0.421,0.42,0.42,0.42,0.42,0.42,0.42,0.42,0.42,0.419,0.419,0.419,0.418,0.418,0.418,0.417,0.417,0.417,0.417,0.417,0.417,0.417,0.417,0.417,0.417,0.418,0.418,0.417,0.418,0.418,0.418,0.418,0.419,0.419,0.419,0.42,0.42,0.42,0.42,0.42,0.421,0.421,0.421,0.422,0.422,0.423,0.4235,0.424,0.425,0.425,0.425,0.425,0.425,0.425,0.425,0.426,0.426,0.426,0.426,0.426,0.426,0.426,0.426,0.426,0.427,0.427,0.427,0.427,0.428,0.428,0.429,0.429,0.429,0.43,0.43,0.43,0.43,0.43,0.43,0.43,0.431,0.431,0.431,0.431,0.431,0.431,0.431,0.431,0.431,0.432,0.432,0.432,0.433,0.433,0.433,0.434,0.434,0.434,0.435,0.435,0.435,0.435,0.436,0.436,0.436,0.436,0.436,0.436,0.436,0.437,0.437,0.437,0.438,0.438,0.438,0.438,0.439,0.439,0.439,0.44,0.44,0.44,0.44,0.441,0.441,0.441,0.441,0.441,0.441,0.441,0.442,0.442,0.442,0.442,0.442,0.442,0.442,0.443,0.443,0.443,0.443,0.443,0.443,0.444,0.444,0.444,0.444,0.444,0.444,0.444,0.444,0.445,0.445,0.446,0.446,0.446,0.446,0.446,0.447,0.447,0.448,0.448,0.449,0.449,0.451,0.0,0.0,0.0,0.0,0.0,0.0,0.0,0.0,0.0,0.0,0.0,0.0,0.0,0.0,0.0,0.0,0.0,0.6245,0.624625,0.624,0.624,0.624,0.625,0.624,0.624,0.623,0.623,0.623,0.623,0.623,0.623,0.623,0.624,0.624,0.625,0.627,0.628,0.628,0.629,0.628,0.627,0.627,0.626,0.625,0.624,0.623,0.622,0.622,0.622,0.622,0.621,0.621,0.621,0.621,0.621,0.621,0.0,0.0,0.0,0.0,0.0,0.0,0.0,0.0,0.0,0.0,0.0,0.0,0.0,0.0,0.0,0.0,0.0,0.0,0.0,0.0,0.0,0.0,0.0,0.0
4.028,4.056,4.07,4.085,4.085,4.114,4.085,4.114,4.114,4.114,4.114,4.114,4.128,4.128,4.158,4.158,4.173,4.173,4.188,4.188,4.203,4.218,4.218,4.233,4.249,4.249,4.249,4.264,4.264,4.28,4.28,4.28,4.296,4.296,4.312,4.312,4.312,4.312,4.312,4.312,4.312,4.312,4.296,4.296,4.28,4.28,4.28,4.28,4.28,4.28,4.28,4.28,4.28,4.28,4.296,4.296,4.296,4.312,4.312,4.312,4.312,4.312,4.312,4.312,4.312,4.312,4.296,4.296,4.28,4.264,4.264,4.233,4.218,4.188,4.128,4.114,4.085,4.07,4.085,0.0,0.0,0.0,0.0,0.0,0.0,0.0,0.0,0.0,0.0,0.0,0.0,0.0,0.0,0.816,0.817,0.817,0.818,0.819,0.822,0.824,0.828,0.8294999999999999,0.832,0.834,0.835,0.836,0.837,0.838,0.838,0.838,0.838,0.838,0.838,0.838,0.838,0.838,0.838,0.837,0.836,0.836,0.836,0.836,0.836,0.835,0.836,0.836,0.836,0.836,0.836,0.835,0.834,0.832,0.83,0.826,0.824,0.822,0.822,0.822,0.82,0.82,0.82,0.819,0.819,0.819,0.818,0.817,0.815,0.814,0.811,0.81,0.807,0.805,0.804,0.804,0.803,0.803,0.803,0.803,0.804,0.805,0.804,0.803,0.802,0.801,0.801,0.8,0.798,0.797,0.796,0.794,0.794,0.792,0.792,0.792,0.792,0.792,0.79,0.789,0.788,0.788,0.787,0.788,0.787,0.787,0.786,0.786,0.786,0.786,0.786,0.786,0.786,0.787,0.787,0.794,0.794,0.794,0.796,0.797,0.798,0.0,0.0,0.0,0.0,0.0,0.0,0.0,0.0,0.0,0.0,0.0,0.0,0.0,0.0,0.0,0.0,0.0,0.435,0.435,0.435,0.434,0.433,0.433,0.432,0.432,0.431,0.431,0.431,0.431,0.431,0.43,0.43,0.43,0.43,0.429,0.429,0.429,0.429,0.428,0.428,0.428,0.427,0.427,0.427,0.427,0.427,0.427,0.427,0.427,0.427,0.427,0.427,0.426,0.426,0.426,0.426,0.426,0.426,0.425,0.425,0.425,0.425,0.425,0.424,0.424,0.424,0.423,0.423,0.423,0.423,0.423,0.422,0.422,0.422,0.422,0.422,0.422,0.422,0.422,0.422,0.421,0.421,0.421,0.421,0.421,0.421,0.421,0.421,0.421,0.421,0.421,0.421,0.421,0.421,0.421,0.42,0.42,0.42,0.42,0.42,0.42,0.419,0.419,0.419,0.419,0.419,0.419,0.418,0.418,0.418,0.417,0.417,0.417,0.417,0.417,0.417,0.416,0.416,0.416,0.416,0.416,0.416,0.416,0.417,0.417,0.417,0.417,0.417,0.418,0.418,0.418,0.418,0.419,0.419,0.419,0.42,0.42,0.42,0.42,0.421,0.421,0.421,0.422,0.423,0.42324999999999996,0.424,0.424,0.424,0.425,0.425,0.425,0.425,0.425,0.425,0.425,0.425,0.425,0.426,0.426,0.426,0.426,0.426,0.426,0.427,0.427,0.427,0.428,0.428,0.428,0.429,0.429,0.429,0.429,0.43,0.43,0.43,0.43,0.43,0.43,0.43,0.43,0.431,0.431,0.431,0.431,0.431,0.431,0.431,0.432,0.432,0.432,0.433,0.433,0.433,0.434,0.434,0.434,0.435,0.435,0.435,0.435,0.435,0.436,0.436,0.436,0.436,0.436,0.436,0.437,0.437,0.437,0.438,0.438,0.438,0.439,0.439,0.439,0.44,0.44,0.44,0.44,0.441,0.441,0.441,0.441,0.441,0.441,0.441,0.441,0.441,0.442,0.442,0.442,0.442,0.442,0.442,0.442,0.442,0.442,0.442,0.443,0.443,0.443,0.443,0.443,0.443,0.444,0.444,0.444,0.445,0.445,0.446,0.446,0.446,0.446,0.447,0.447,0.448,0.448,0.448,0.449,0.0,0.0,0.0,0.0,0.0,0.0,0.0,0.0,0.0,0.0,0.0,0.0,0.0,0.0,0.0,0.0,0.0,0.622,0.622,0.622,0.622,0.622,0.622,0.622,0.622,0.622,0.622,0.621,0.621,0.621,0.621,0.621,0.621,0.622,0.622,0.622,0.622,0.622,0.622,0.622,0.622,0.622,0.622,0.621,0.621,0.62,0.619,0.618,0.618,0.617,0.615,0.615,0.615,0.615,0.615,0.615,0.0,0.0,0.0,0.0,0.0,0.0,0.0,0.0,0.0,0.0,0.0,0.0,0.0,0.0,0.0,0.0,0.0,0.0,0.0,0.0,0.0,0.0,0.0,0.0,0.0
4.014,4.028,4.056,4.07,4.07,4.085,4.07,4.07,4.085,4.085,4.085,4.114,4.114,4.128,4.128,4.158,4.158,4.173,4.173,4.188,4.203,4.203,4.218,4.233,4.249,4.249,4.249,4.264,4.264,4.28,4.28,4.28,4.296,4.296,4.312,4.312,4.312,4.312,4.312,4.312,4.312,4.312,4.312,4.312,4.296,4.296,4.28,4.28,4.28,4.28,4.28,4.28,4.28,4.296,4.296,4.312,4.312,4.312,4.312,4.312,4.312,4.312,4.312,4.312,4.312,4.312,4.312,4.296,4.28,4.28,4.264,4.249,4.218,4.188,4.158,4.128,0.0,0.0,0.0,0.0,0.0,0.0,0.0,0.0,0.0,0.0,0.0,0.0,0.0,0.0,0.815,0.814,0.815,0.815,0.815,0.816,0.817,0.819,0.819,0.822,0.824,0.826,0.829,0.832,0.8322499999999999,0.834,0.835,0.835,0.835,0.836,0.836,0.836,0.836,0.836,0.836,0.835,0.835,0.835,0.834,0.833,0.832,0.832,0.832,0.83,0.83,0.829,0.827,0.824,0.822,0.82,0.819,0.818,0.817,0.816,0.816,0.816,0.816,0.815,0.815,0.815,0.814,0.814,0.812,0.811,0.81,0.806,0.804,0.803,0.802,0.801,0.801,0.8,0.8,0.799,0.799,0.8,0.8,0.8,0.799,0.799,0.799,0.798,0.795,0.792,0.79,0.787,0.786,0.784,0.784,0.783,0.783,0.783,0.783,0.783,0.783,0.783,0.783,0.783,0.783,0.782,0.782,0.782,0.782,0.782,0.782,0.782,0.782,0.782,0.782,0.782,0.783,0.783,0.784,0.784,0.784,0.786,0.792,0.794,0.796,0.0,0.0,0.0,0.0,0.0,0.0,0.0,0.0,0.0,0.0,0.0,0.0,0.0,0.0,0.0,0.0,0.435,0.435,0.435,0.433,0.433,0.432,0.432,0.431,0.431,0.431,0.431,0.43,0.43,0.43,0.43,0.43,0.429,0.429,0.429,0.429,0.428,0.428,0.428,0.427,0.427,0.427,0.426,0.426,0.426,0.426,0.426,0.426,0.426,0.426,0.426,0.426,0.426,0.426,0.426,0.426,0.425,0.425,0.425,0.425,0.425,0.425,0.424,0.424,0.424,0.423,0.423,0.423,0.423,0.422,0.422,0.422,0.422,0.422,0.422,0.422,0.421,0.421,0.421,0.421,0.421,0.421,0.421,0.421,0.421,0.421,0.421,0.421,0.421,0.421,0.421,0.421,0.421,0.42,0.42,0.42,0.42,0.42,0.419,0.419,0.419,0.419,0.418,0.418,0.418,0.418,0.418,0.418,0.417,0.417,0.417,0.417,0.417,0.416,0.416,0.416,0.416,0.416,0.416,0.416,0.416,0.416,0.416,0.416,0.416,0.416,0.416,0.417,0.417,0.417,0.417,0.418,0.418,0.418,0.418,0.419,0.419,0.42,0.42,0.42,0.421,0.421,0.421,0.422,0.422,0.423,0.423,0.42324999999999996,0.424,0.424,0.424,0.425,0.425,0.425,0.425,0.425,0.425,0.425,0.425,0.426,0.426,0.426,0.426,0.426,0.426,0.427,0.427,0.427,0.427,0.428,0.428,0.428,0.429,0.429,0.429,0.429,0.429,0.43,0.43,0.43,0.43,0.43,0.43,0.431,0.431,0.431,0.431,0.431,0.431,0.431,0.432,0.432,0.432,0.432,0.433,0.433,0.434,0.434,0.435,0.435,0.435,0.435,0.435,0.436,0.436,0.436,0.436,0.436,0.436,0.437,0.437,0.437,0.437,0.438,0.438,0.438,0.439,0.439,0.439,0.44,0.44,0.44,0.441,0.441,0.441,0.441,0.441,0.441,0.441,0.441,0.441,0.441,0.441,0.441,0.441,0.442,0.442,0.442,0.442,0.442,0.442,0.442,0.442,0.443,0.443,0.443,0.443,0.444,0.444,0.445,0.445,0.446,0.446,0.446,0.446,0.447,0.447,0.447,0.448,0.448,0.4485,0.0,0.0,0.0,0.0,0.0,0.0,0.0,0.0,0.0,0.0,0.0,0.0,0.0,0.0,0.0,0.0,0.619,0.619,0.619,0.619,0.619,0.619,0.618,0.618,0.618,0.618,0.618,0.618,0.617,0.617,0.617,0.617,0.617,0.617,0.617,0.618,0.618,0.618,0.617,0.617,0.617,0.616,0.616,0.615,0.613,0.613,0.612,0.612,0.612,0.612,0.611,0.611,0.611,0.611,0.611,0.611,0.0,0.0,0.0,0.0,0.0,0.0,0.0,0.0,0.0,0.0,0.0,0.0,0.0,0.0,0.0,0.0,0.0,0.0,0.0,0.0,0.0,0.0,0.0,0.0,0.0
4.014,4.028,4.028,4.056,4.028,4.056,4.056,4.056,4.056,4.056,4.07,4.07,4.085,4.114,4.128,4.128,4.158,4.158,4.173,4.188,4.203,4.218,4.218,4.233,4.249,4.249,4.264,4.264,4.264,4.28,4.28,4.28,4.296,4.312,4.312,4.312,4.328,4.328,4.328,4.328,4.328,4.328,4.328,4.312,4.312,4.296,4.296,4.296,4.28,4.28,4.28,4.28,4.296,4.296,4.312,4.312,4.312,4.312,4.312,4.312,4.312,4.312,4.312,4.312,4.312,4.312,4.312,4.312,4.296,4.28,4.264,4.249,4.233,0.0,0.0,0.0,0.0,0.0,0.0,0.0,0.0,0.0,0.0,0.0,0.0,0.0,0.808,0.81,0.809,0.81,0.81,0.81,0.811,0.812,0.813,0.814,0.816,0.817,0.818,0.819,0.82,0.821,0.823,0.826,0.828,0.83,0.83,0.83,0.83,0.83,0.83,0.829,0.828,0.826,0.826,0.824,0.824,0.824,0.824,0.824,0.823,0.822,0.822,0.821,0.82,0.819,0.818,0.816,0.813,0.81,0.808,0.806,0.806,0.806,0.806,0.806,0.805,0.804,0.803,0.803,0.802,0.801,0.8,0.7982500000000001,0.798,0.798,0.797,0.797,0.796,0.795,0.794,0.794,0.794,0.794,0.794,0.795,0.795,0.792,0.792,0.79,0.788,0.786,0.785,0.782,0.78,0.779,0.777,0.777,0.775,0.775,0.775,0.775,0.775,0.775,0.776,0.777,0.777,0.776,0.776,0.776,0.776,0.775,0.775,0.776,0.775,0.776,0.777,0.777,0.777,0.777,0.779,0.779,0.78,0.781,0.781,0.784,0.787,0.782,0.783,0.0,0.0,0.0,0.0,0.0,0.0,0.0,0.0,0.0,0.0,0.0,0.0,0.0,0.0,0.436,0.435,0.435,0.435,0.433,0.433,0.432,0.432,0.431,0.431,0.431,0.43,0.43,0.43,0.43,0.429,0.429,0.429,0.428,0.428,0.428,0.428,0.427,0.427,0.427,0.426,0.426,0.426,0.426,0.426,0.425,0.425,0.425,0.425,0.425,0.425,0.425,0.425,0.425,0.425,0.425,0.425,0.425,0.425,0.425,0.425,0.425,0.424,0.424,0.423,0.423,0.423,0.422,0.422,0.422,0.422,0.422,0.422,0.422,0.422,0.421,0.421,0.421,0.421,0.421,0.421,0.421,0.421,0.421,0.421,0.421,0.421,0.421,0.421,0.42,0.42,0.42,0.42,0.42,0.42,0.42,0.42,0.42,0.419,0.419,0.418,0.418,0.418,0.418,0.418,0.418,0.417,0.417,0.417,0.417,0.417,0.416,0.416,0.416,0.416,0.416,0.416,0.416,0.416,0.416,0.416,0.416,0.416,0.416,0.416,0.416,0.416,0.416,0.416,0.416,0.416,0.416,0.417,0.417,0.417,0.417,0.418,0.418,0.419,0.419,0.42,0.42,0.42,0.421,0.421,0.421,0.422,0.422,0.422,0.423,0.423,0.424,0.424,0.4245,0.425,0.425,0.425,0.425,0.425,0.425,0.425,0.425,0.4255,0.426,0.426,0.426,0.426,0.426,0.4265,0.427,0.427,0.427,0.427,0.427,0.428,0.428,0.428,0.429,0.429,0.429,0.43,0.43,0.43,0.43,0.43,0.43,0.431,0.431,0.431,0.431,0.431,0.431,0.431,0.432,0.432,0.432,0.433,0.433,0.434,0.434,0.434,0.435,0.435,0.435,0.435,0.436,0.436,0.436,0.436,0.436,0.436,0.436,0.437,0.437,0.437,0.437,0.438,0.438,0.439,0.439,0.439,0.44,0.44,0.44,0.441,0.441,0.441,0.441,0.441,0.441,0.441,0.441,0.441,0.441,0.441,0.441,0.441,0.441,0.442,0.442,0.442,0.442,0.442,0.442,0.442,0.442,0.443,0.443,0.443,0.444,0.444,0.445,0.446,0.446,0.446,0.446,0.446,0.447,0.447,0.447,0.448,0.448,0.0,0.0,0.0,0.0,0.0,0.0,0.0,0.0,0.0,0.0,0.0,0.0,0.0,0.0,0.0,0.0,0.615,0.616,0.615,0.615,0.615,0.614,0.614,0.614,0.614,0.614,0.613,0.613,0.613,0.613,0.613,0.613,0.613,0.613,0.613,0.613,0.613,0.613,0.612,0.612,0.612,0.612,0.611,0.611,0.61,0.61,0.61,0.609,0.609,0.609,0.608,0.608,0.608,0.607,0.60725,0.608,0.0,0.0,0.0,0.0,0.0,0.0,0.0,0.0,0.0,0.0,0.0,0.0,0.0,0.0,0.0,0.0,0.0,0.0,0.0,0.0,0.0,0.0,0.0,0.0,0.0
3.987,3.987,4.014,4.014,4.014,4.014,4.028,4.028,4.028,4.028,4.056,4.07,4.07,4.085,4.114,4.128,4.128,4.158,4.188,4.188,4.203,4.218,4.233,4.249,4.249,4.249,4.264,4.264,4.28,4.28,4.28,4.296,4.312,4.312,4.312,4.328,4.328,4.328,4.344,4.344,4.328,4.328,4.328,4.328,4.312,4.312,4.296,4.296,4.28,4.28,4.28,4.28,4.296,4.296,4.312,4.312,4.312,4.312,4.328,4.328,4.328,4.328,4.328,4.328,4.328,4.328,4.312,4.312,4.312,4.296,0.0,0.0,0.0,0.0,0.0,0.0,0.0,0.0,0.0,0.0,0.0,0.0,0.0,0.0,0.0,0.0,0.8035000000000001,0.8043750000000001,0.804,0.805,0.806,0.807,0.808,0.809,0.81,0.81,0.813,0.815,0.815,0.816,0.817,0.818,0.819,0.82,0.822,0.822,0.822,0.822,0.822,0.821,0.82,0.819,0.819,0.818,0.817,0.816,0.817,0.816,0.816,0.816,0.816,0.816,0.815,0.815,0.811,0.808,0.805,0.802,0.801,0.8,0.801,0.8,0.8,0.8,0.8,0.8,0.799,0.798,0.798,0.796,0.794,0.788,0.786,0.784,0.784,0.783,0.783,0.783,0.783,0.783,0.783,0.784,0.784,0.784,0.784,0.784,0.783,0.783,0.782,0.781,0.78,0.778,0.775,0.771,0.768,0.767,0.767,0.766,0.766,0.766,0.766,0.766,0.766,0.766,0.766,0.766,0.766,0.766,0.766,0.766,0.766,0.766,0.766,0.766,0.766,0.766,0.767,0.76575,0.765,0.766,0.765,0.0,0.0,0.0,0.0,0.0,0.0,0.0,0.0,0.0,0.0,0.0,0.0,0.0,0.0,0.0,0.0,0.0,0.0,0.0,0.0,0.0,0.436,0.436,0.435,0.435,0.433,0.433,0.432,0.432,0.431,0.431,0.431,0.43,0.43,0.43,0.429,0.429,0.428,0.428,0.428,0.427,0.427,0.427,0.427,0.426,0.426,0.426,0.426,0.425,0.425,0.425,0.425,0.425,0.425,0.425,0.425,0.425,0.425,0.425,0.425,0.425,0.425,0.425,0.425,0.425,0.425,0.425,0.424,0.424,0.424,0.423,0.423,0.423,0.422,0.422,0.422,0.422,0.422,0.422,0.421,0.421,0.421,0.421,0.421,0.421,0.421,0.421,0.421,0.421,0.421,0.42,0.42,0.42,0.42,0.42,0.42,0.42,0.42,0.42,0.42,0.42,0.42,0.42,0.419,0.419,0.419,0.418,0.418,0.418,0.418,0.417,0.417,0.417,0.417,0.417,0.416,0.416,0.416,0.416,0.416,0.416,0.416,0.416,0.416,0.416,0.415,0.415,0.415,0.415,0.415,0.415,0.415,0.415,0.415,0.415,0.416,0.416,0.416,0.416,0.416,0.416,0.416,0.417,0.417,0.417,0.418,0.418,0.419,0.419,0.42,0.42,0.42,0.421,0.421,0.421,0.421,0.422,0.422,0.423,0.424,0.424,0.424,0.424,0.4245,0.425,0.425,0.425,0.425,0.425,0.425,0.425,0.425,0.4255,0.426,0.426,0.426,0.426,0.426,0.4265,0.427,0.427,0.427,0.4275,0.428,0.428,0.428,0.429,0.429,0.429,0.429,0.43,0.43,0.43,0.43,0.43,0.431,0.431,0.431,0.431,0.431,0.431,0.431,0.432,0.432,0.433,0.433,0.434,0.434,0.434,0.434,0.435,0.435,0.435,0.436,0.436,0.436,0.436,0.436,0.436,0.436,0.436,0.437,0.437,0.437,0.438,0.438,0.439,0.439,0.439,0.44,0.44,0.44,0.44,0.441,0.441,0.441,0.441,0.441,0.441,0.441,0.441,0.441,0.441,0.441,0.441,0.441,0.441,0.442,0.442,0.442,0.442,0.442,0.442,0.442,0.443,0.443,0.444,0.444,0.445,0.445,0.446,0.446,0.446,0.446,0.446,0.447,0.447,0.447,0.447,0.448,0.448,0.0,0.0,0.0,0.0,0.0,0.0,0.0,0.0,0.0,0.0,0.0,0.0,0.0,0.0,0.612,0.612,0.612,0.612,0.612,0.612,0.611,0.612,0.612,0.611,0.611,0.611,0.611,0.611,0.611,0.611,0.611,0.611,0.611,0.611,0.611,0.611,0.61,0.609,0.609,0.608,0.607,0.605,0.605,0.604,0.604,0.604,0.603,0.603,0.603,0.603,0.603,0.603,0.603,0.603,0.0,0.0,0.0,0.0,0.0,0.0,0.0,0.0,0.0,0.0,0.0,0.0,0.0,0.0,0.0,0.0,0.0,0.0,0.0,0.0,0.0,0.0,0.0,0.0,0.0
3.973,3.973,3.973,3.987,3.973,3.987,3.987,4.014,4.014,4.014,4.028,4.028,4.07,4.07,4.114,4.114,4.158,4.173,4.188,4.203,4.218,4.233,4.233,4.249,4.249,4.264,4.264,4.264,4.28,4.28,4.28,4.296,4.312,4.312,4.312,4.328,4.328,4.328,4.328,4.328,4.328,4.328,4.328,4.328,4.312,4.312,4.296,4.28,4.28,4.28,4.28,4.28,4.296,4.296,4.312,4.312,4.312,4.312,4.312,4.328,4.328,4.328,4.328,4.328,4.336,4.332000000000001,4.328,4.328,4.312,4.312,0.0,0.0,0.0,0.0,0.0,0.0,0.0,0.0,0.0,0.0,0.0,0.0,0.0,0.792,0.795,0.798,0.799,0.8,0.801,0.801,0.802,0.803,0.803,0.805,0.806,0.806,0.808,0.81,0.811,0.813,0.815,0.816,0.816,0.817,0.818,0.818,0.817,0.817,0.816,0.815,0.814,0.813,0.811,0.807,0.806,0.807,0.808,0.808,0.808,0.808,0.806,0.804,0.803,0.802,0.8,0.799,0.798,0.796,0.794,0.792,0.792,0.794,0.794,0.794,0.792,0.791,0.787,0.786,0.784,0.7832500000000001,0.781,0.78,0.777,0.777,0.776,0.775,0.775,0.775,0.775,0.775,0.777,0.777,0.778,0.778,0.777,0.777,0.776,0.775,0.771,0.767,0.766,0.766,0.765,0.763,0.762,0.76,0.76,0.759,0.759,0.76,0.759,0.759,0.758,0.758,0.759,0.759,0.759,0.758,0.758,0.759,0.758,0.758,0.758,0.757,0.757,0.757,0.757,0.754,0.753,0.753,0.752,0.0,0.0,0.0,0.0,0.0,0.0,0.0,0.0,0.0,0.0,0.0,0.0,0.0,0.0,0.0,0.0,0.0,0.0,0.0,0.0,0.436,0.436,0.435,0.435,0.434,0.434,0.433,0.432,0.431,0.431,0.431,0.43,0.43,0.43,0.429,0.429,0.428,0.428,0.427,0.427,0.427,0.427,0.426,0.426,0.426,0.426,0.425,0.425,0.425,0.425,0.425,0.425,0.425,0.425,0.425,0.425,0.425,0.425,0.425,0.425,0.425,0.425,0.425,0.425,0.425,0.425,0.425,0.424,0.424,0.423,0.423,0.423,0.422,0.422,0.422,0.422,0.422,0.421,0.421,0.421,0.421,0.421,0.421,0.421,0.421,0.421,0.421,0.421,0.42,0.42,0.42,0.42,0.42,0.42,0.42,0.42,0.42,0.42,0.42,0.42,0.42,0.419,0.419,0.419,0.419,0.418,0.418,0.418,0.417,0.417,0.417,0.417,0.416,0.416,0.416,0.416,0.416,0.416,0.416,0.416,0.416,0.416,0.415,0.415,0.415,0.415,0.415,0.415,0.415,0.415,0.415,0.415,0.415,0.415,0.415,0.415,0.415,0.415,0.415,0.416,0.416,0.416,0.416,0.416,0.417,0.417,0.417,0.418,0.418,0.418,0.419,0.42,0.42,0.42,0.421,0.421,0.421,0.422,0.422,0.423,0.423,0.423,0.424,0.424,0.424,0.425,0.425,0.425,0.425,0.425,0.425,0.425,0.425,0.425,0.426,0.426,0.426,0.426,0.426,0.426,0.427,0.427,0.427,0.427,0.427,0.4275,0.428,0.4285,0.429,0.429,0.429,0.429,0.43,0.43,0.43,0.43,0.43,0.431,0.431,0.431,0.431,0.431,0.431,0.432,0.432,0.432,0.433,0.433,0.433,0.434,0.434,0.435,0.435,0.435,0.435,0.436,0.436,0.436,0.436,0.436,0.436,0.436,0.437,0.437,0.437,0.438,0.438,0.439,0.439,0.44,0.44,0.44,0.44,0.44,0.441,0.441,0.441,0.441,0.441,0.441,0.441,0.441,0.441,0.441,0.441,0.441,0.441,0.441,0.442,0.442,0.442,0.442,0.442,0.442,0.443,0.443,0.444,0.444,0.444,0.445,0.446,0.446,0.446,0.446,0.446,0.447,0.447,0.447,0.447,0.447,0.448,0.0,0.0,0.0,0.0,0.0,0.0,0.0,0.0,0.0,0.0,0.0,0.0,0.0,0.0,0.0,0.611,0.611,0.611,0.611,0.61,0.609,0.609,0.61,0.609,0.609,0.608,0.608,0.608,0.608,0.608,0.608,0.608,0.607,0.605,0.606,0.605,0.603,0.603,0.603,0.602,0.602,0.602,0.602,0.601,0.601,0.601,0.601,0.601,0.601,0.601,0.601,0.601,0.601,0.601,0.0,0.0,0.0,0.0,0.0,0.0,0.0,0.0,0.0,0.0,0.0,0.0,0.0,0.0,0.0,0.0,0.0,0.0,0.0,0.0,0.0,0.0,0.0,0.0,0.0
3.933,3.946,3.946,3.973,3.946,3.973,3.973,3.987,3.987,4.014,4.014,4.028,4.056,4.07,4.085,4.114,4.158,4.173,4.188,4.203,4.218,4.233,4.249,4.249,4.264,4.264,4.264,4.28,4.28,4.28,4.28,4.296,4.312,4.312,4.312,4.328,4.328,4.328,4.328,4.328,4.328,4.328,4.328,4.312,4.312,4.296,4.28,4.28,4.28,4.28,4.28,4.28,4.28,4.28,4.28,4.312,4.296,4.312,4.312,4.328,4.328,4.328,4.328,4.344,4.344,0.0,0.0,4.344,0.0,0.0,0.0,0.0,0.0,0.0,0.0,0.0,0.0,0.0,0.0,0.0,0.783,0.0,0.0,0.79,0.7925,0.795,0.7965,0.798,0.799,0.8,0.8,0.801,0.801,0.801,0.801,0.802,0.802,0.803,0.804,0.805,0.806,0.807,0.807,0.808,0.808,0.808,0.807,0.804,0.803,0.801,0.801,0.801,0.8,0.799,0.799,0.8,0.8,0.8,0.8,0.8,0.8,0.798,0.798,0.796,0.792,0.789,0.785,0.784,0.784,0.784,0.785,0.784,0.784,0.784,0.783,0.782,0.7775000000000001,0.7763749999999999,0.775,0.772,0.769,0.767,0.766,0.766,0.766,0.766,0.766,0.766,0.766,0.767,0.767,0.767,0.768,0.767,0.766,0.766,0.766,0.7645,0.763,0.761,0.759,0.757,0.755,0.754,0.753,0.752,0.752,0.752,0.752,0.752,0.752,0.751,0.751,0.75,0.751,0.751,0.751,0.75,0.75,0.75,0.75,0.75,0.75,0.75,0.749,0.749,0.748,0.0,0.0,0.0,0.741,0.0,0.0,0.0,0.0,0.0,0.0,0.0,0.0,0.0,0.0,0.0,0.0,0.0,0.0,0.0,0.0,0.0,0.437,0.4365,0.436,0.436,0.436,0.436,0.435,0.435,0.433,0.433,0.432,0.431,0.431,0.431,0.43,0.43,0.429,0.429,0.428,0.427,0.427,0.427,0.426,0.426,0.426,0.426,0.426,0.425,0.425,0.425,0.425,0.425,0.425,0.424,0.424,0.424,0.424,0.424,0.424,0.424,0.424,0.424,0.425,0.425,0.425,0.425,0.425,0.424,0.424,0.424,0.424,0.424,0.423,0.423,0.422,0.422,0.422,0.422,0.421,0.421,0.421,0.421,0.421,0.421,0.421,0.421,0.421,0.421,0.42,0.42,0.42,0.42,0.42,0.42,0.42,0.42,0.42,0.42,0.42,0.42,0.42,0.42,0.42,0.419,0.419,0.418,0.418,0.418,0.418,0.417,0.417,0.417,0.417,0.416,0.416,0.416,0.416,0.416,0.416,0.416,0.416,0.416,0.416,0.415,0.415,0.415,0.415,0.415,0.415,0.415,0.415,0.415,0.415,0.415,0.415,0.415,0.414,0.414,0.415,0.415,0.415,0.415,0.415,0.415,0.416,0.416,0.416,0.416,0.416,0.417,0.417,0.417,0.418,0.418,0.419,0.419,0.42,0.42,0.42,0.421,0.421,0.421,0.422,0.422,0.423,0.423,0.424,0.424,0.424,0.424,0.424,0.425,0.425,0.425,0.425,0.425,0.425,0.425,0.425,0.426,0.426,0.426,0.426,0.426,0.426,0.426,0.427,0.427,0.427,0.427,0.428,0.428,0.4285,0.429,0.429,0.429,0.43,0.43,0.43,0.43,0.43,0.431,0.431,0.431,0.431,0.431,0.431,0.432,0.432,0.433,0.433,0.433,0.433,0.434,0.434,0.435,0.435,0.435,0.436,0.436,0.436,0.436,0.436,0.436,0.436,0.436,0.437,0.437,0.437,0.438,0.438,0.439,0.439,0.44,0.44,0.44,0.44,0.441,0.441,0.441,0.441,0.441,0.441,0.441,0.441,0.441,0.441,0.441,0.441,0.441,0.442,0.442,0.442,0.442,0.442,0.442,0.442,0.442,0.443,0.443,0.444,0.444,0.445,0.445,0.446,0.446,0.446,0.446,0.446,0.447,0.447,0.447,0.447,0.448,0.448,0.0,0.0,0.0,0.0,0.0,0.0,0.0,0.0,0.0,0.0,0.0,0.0,0.0,0.0,0.6065,0.608,0.608,0.605,0.604,0.604,0.606,0.604,0.603,0.603,0.603,0.602,0.602,0.602,0.602,0.602,0.601,0.601,0.601,0.601,0.601,0.6,0.599,0.599,0.599,0.599,0.599,0.598,0.598,0.598,0.597,0.597,0.596,0.596,0.597,0.597,0.597,0.597,0.0,0.0,0.0,0.0,0.0,0.0,0.0,0.0,0.0,0.0,0.0,0.0,0.0,0.0,0.0,0.0,0.0,0.0,0.0,0.0,0.0,0.0,0.0,0.0,0.0,0.0
3.92,3.933,3.933,3.933,3.946,3.946,3.973,3.973,3.987,4.014,4.014,4.028,4.056,4.07,4.085,4.114,4.158,4.173,4.188,4.203,4.218,4.233,4.249,4.249,4.264,4.264,4.264,4.28,4.28,4.28,4.28,4.296,4.296,4.312,4.312,4.312,4.312,4.312,4.312,4.312,4.312,4.312,4.312,4.312,4.296,4.28,4.28,4.28,4.264,4.264,4.264,4.264,4.264,4.264,4.28,4.28,4.296,4.296,4.312,0.0,0.0,0.0,0.0,0.0,0.0,0.0,0.0,0.0,0.0,0.0,0.0,0.0,0.0,0.0,0.0,0.0,0.0,0.777,0.0,0.0,0.0,0.782,0.784,0.786,0.79,0.792,0.794,0.794,0.796,0.797,0.798,0.798,0.798,0.799,0.798,0.799,0.8,0.8,0.8005,0.801,0.801,0.801,0.801,0.801,0.8,0.8,0.798,0.797,0.79525,0.796,0.794,0.792,0.791,0.791,0.79,0.791,0.792,0.792,0.794,0.792,0.791,0.79,0.788,0.786,0.782,0.782,0.78,0.78,0.779,0.779,0.779,0.778,0.777,0.776,0.774,0.7709999999999999,0.768,0.767,0.765,0.764,0.761,0.759,0.758,0.759,0.759,0.759,0.76,0.761,0.762,0.763,0.763,0.762,0.761,0.76,0.759,0.758,0.7575000000000001,0.75525,0.752,0.751,0.75,0.75,0.749,0.749,0.748,0.747,0.747,0.747,0.747,0.747,0.746,0.744,0.743,0.743,0.744,0.744,0.743,0.742,0.742,0.741,0.741,0.74,0.738,0.737,0.737,0.736,0.735,0.0,0.0,0.0,0.73,0.73,0.0,0.0,0.0,0.0,0.0,0.0,0.0,0.0,0.0,0.0,0.0,0.0,0.0,0.0,0.0,0.437,0.437,0.436,0.436,0.436,0.436,0.436,0.435,0.435,0.433,0.433,0.432,0.431,0.431,0.43,0.43,0.43,0.429,0.428,0.428,0.427,0.427,0.426,0.426,0.426,0.426,0.425,0.425,0.425,0.425,0.425,0.424,0.424,0.424,0.424,0.424,0.423,0.423,0.423,0.423,0.424,0.424,0.424,0.424,0.424,0.424,0.424,0.424,0.424,0.424,0.424,0.424,0.423,0.423,0.423,0.422,0.422,0.422,0.421,0.421,0.421,0.421,0.421,0.421,0.421,0.421,0.421,0.42,0.42,0.42,0.42,0.42,0.42,0.42,0.42,0.42,0.42,0.42,0.42,0.419,0.419,0.419,0.419,0.419,0.419,0.418,0.418,0.418,0.417,0.417,0.417,0.417,0.416,0.416,0.416,0.416,0.416,0.416,0.416,0.416,0.416,0.416,0.415,0.415,0.415,0.415,0.415,0.415,0.415,0.415,0.415,0.415,0.415,0.414,0.414,0.414,0.414,0.414,0.414,0.414,0.414,0.414,0.4145,0.415,0.415,0.415,0.416,0.416,0.416,0.416,0.416,0.417,0.417,0.417,0.417,0.418,0.418,0.419,0.42,0.42,0.42,0.421,0.421,0.421,0.422,0.422,0.422,0.423,0.423,0.423,0.424,0.424,0.424,0.424,0.425,0.425,0.425,0.425,0.425,0.425,0.425,0.425,0.425,0.426,0.426,0.426,0.426,0.426,0.426,0.427,0.427,0.427,0.428,0.428,0.428,0.4285,0.429,0.4295,0.43,0.43,0.43,0.43,0.43,0.4305,0.431,0.431,0.431,0.431,0.4315,0.432,0.432,0.432,0.433,0.433,0.433,0.434,0.434,0.435,0.435,0.435,0.435,0.436,0.436,0.436,0.436,0.436,0.436,0.437,0.437,0.437,0.438,0.438,0.439,0.439,0.439,0.44,0.44,0.44,0.44,0.441,0.441,0.441,0.441,0.441,0.441,0.441,0.441,0.441,0.441,0.441,0.441,0.442,0.442,0.442,0.442,0.442,0.442,0.442,0.442,0.443,0.443,0.443,0.444,0.444,0.445,0.445,0.446,0.446,0.446,0.446,0.446,0.447,0.447,0.447,0.447,0.0,0.0,0.0,0.0,0.0,0.0,0.0,0.0,0.0,0.0,0.0,0.0,0.0,0.0,0.0,0.602,0.602,0.0,0.0,0.6,0.6,0.6,0.6,0.599,0.599,0.599,0.598,0.598,0.598,0.597,0.596,0.594,0.594,0.593,0.594,0.594,0.593,0.594,0.593,0.593,0.594,0.594,0.594,0.593,0.593,0.593,0.593,0.592,0.593,0.593,0.593,0.593,0.593,0.0,0.0,0.0,0.0,0.0,0.0,0.0,0.0,0.0,0.0,0.0,0.0,0.0,0.0,0.0,0.0,0.0,0.0,0.0,0.0,0.0,0.0,0.0,0.0,0.0,0.0
3.933,3.933,3.933,3.933,3.946,3.946,3.946,3.973,3.987,4.014,4.014,4.028,4.056,4.085,4.085,4.128,4.158,4.173,4.188,4.218,4.233,4.233,4.249,4.249,4.264,4.264,4.264,4.28,4.28,4.28,4.28,4.28,4.28,4.296,4.296,4.296,4.296,4.312,4.312,4.312,4.312,4.296,4.296,4.28,4.28,4.264,4.264,4.264,4.264,4.249,4.249,4.249,4.249,4.264,4.264,4.28,4.28,4.28,4.296,0.0,0.0,0.0,0.0,0.0,0.0,0.0,0.0,0.0,0.0,0.0,0.0,0.0,0.0,0.0,0.0,0.0,0.0,0.0,0.0,0.0,0.0,0.78,0.781,0.782,0.784,0.786,0.787,0.788,0.79,0.791,0.792,0.794,0.794,0.795,0.796,0.796,0.796,0.797,0.797,0.797,0.796,0.796,0.796,0.794,0.792,0.79,0.787,0.786,0.785,0.784,0.784,0.784,0.783,0.783,0.783,0.783,0.783,0.784,0.784,0.784,0.782,0.782,0.781,0.779,0.777,0.775,0.771,0.77,0.769,0.768,0.767,0.767,0.766,0.765,0.7625,0.76,0.757,0.754,0.753,0.752,0.751,0.751,0.751,0.752,0.752,0.752,0.753,0.753,0.753,0.753,0.753,0.753,0.752,0.751,0.75,0.75,0.749,0.747,0.745,0.742,0.741,0.741,0.741,0.74,0.739,0.738,0.738,0.738,0.739,0.738,0.737,0.736,0.736,0.736,0.736,0.735,0.735,0.734,0.734,0.734,0.734,0.734,0.733,0.732,0.73,0.729,0.7275,0.725,0.721,0.721,0.721,0.72,0.0,0.0,0.0,0.0,0.0,0.0,0.0,0.0,0.0,0.0,0.0,0.0,0.0,0.0,0.438,0.437,0.437,0.436,0.436,0.436,0.436,0.436,0.435,0.435,0.434,0.432,0.432,0.431,0.431,0.43,0.43,0.429,0.429,0.428,0.427,0.427,0.426,0.426,0.426,0.426,0.425,0.425,0.425,0.425,0.425,0.424,0.424,0.423,0.423,0.423,0.423,0.423,0.423,0.423,0.423,0.423,0.423,0.423,0.424,0.424,0.424,0.424,0.424,0.424,0.424,0.424,0.423,0.423,0.422,0.422,0.422,0.422,0.421,0.421,0.421,0.421,0.421,0.421,0.421,0.421,0.42,0.42,0.42,0.42,0.42,0.42,0.42,0.42,0.42,0.42,0.419,0.419,0.419,0.419,0.419,0.418,0.418,0.418,0.418,0.418,0.417,0.417,0.417,0.417,0.417,0.417,0.416,0.416,0.416,0.416,0.416,0.416,0.416,0.416,0.416,0.415,0.415,0.415,0.415,0.415,0.415,0.415,0.415,0.415,0.414,0.414,0.414,0.414,0.414,0.414,0.414,0.413,0.413,0.413,0.414,0.414,0.414,0.414,0.4145,0.415,0.415,0.415,0.416,0.416,0.416,0.416,0.416,0.416,0.417,0.417,0.417,0.418,0.418,0.419,0.42,0.42,0.42,0.421,0.421,0.421,0.421,0.422,0.422,0.422,0.423,0.423,0.423,0.423,0.424,0.424,0.425,0.425,0.425,0.425,0.425,0.425,0.425,0.425,0.425,0.426,0.426,0.426,0.426,0.426,0.426,0.426,0.427,0.427,0.427,0.428,0.428,0.429,0.429,0.4295,0.43,0.43,0.43,0.43,0.430375,0.431,0.431,0.431,0.431,0.431375,0.432,0.432,0.432,0.432,0.4325,0.433,0.433,0.434,0.434,0.435,0.435,0.435,0.436,0.436,0.436,0.436,0.436,0.436,0.436,0.437,0.437,0.438,0.438,0.439,0.439,0.44,0.44,0.44,0.44,0.441,0.441,0.441,0.441,0.441,0.441,0.441,0.441,0.441,0.441,0.441,0.442,0.441,0.442,0.442,0.442,0.442,0.442,0.442,0.442,0.442,0.443,0.443,0.443,0.443,0.444,0.444,0.445,0.445,0.446,0.446,0.446,0.446,0.447,0.447,0.447,0.447,0.0,0.0,0.0,0.0,0.0,0.0,0.0,0.0,0.0,0.0,0.0,0.0,0.0,0.0,0.0,0.597,0.596,0.0,0.0,0.592,0.592,0.592,0.592,0.592,0.592,0.592,0.592,0.591,0.591,0.591,0.0,0.5885,0.589,0.58925,0.591,0.591,0.591,0.591,0.591,0.591,0.591,0.591,0.591,0.591,0.591,0.591,0.59,0.59,0.59,0.59,0.59,0.591,0.591,0.0,0.0,0.0,0.0,0.0,0.0,0.0,0.0,0.0,0.0,0.0,0.0,0.0,0.0,0.0,0.0,0.0,0.0,0.0,0.0,0.0,0.0,0.0,0.0,0.0,0.0
3.933,3.933,3.933,3.933,3.946,3.946,3.973,3.973,3.987,4.014,4.028,4.056,4.07,4.085,4.114,4.158,4.173,4.188,4.203,4.218,4.233,4.249,4.249,4.264,4.264,4.264,4.264,4.264,4.28,4.28,4.28,4.28,4.28,4.28,4.28,4.28,4.28,4.28,4.28,4.28,4.28,4.28,4.28,4.264,4.264,4.264,4.249,4.249,4.233,4.233,4.233,4.233,4.249,4.249,4.249,4.264,4.264,4.264,4.28,4.28,4.296,4.296,0.0,0.0,0.0,0.0,0.0,0.0,0.0,0.0,0.0,0.0,0.0,0.0,0.0,0.0,0.0,0.0,0.77,0.773,0.775,0.778,0.78,0.781,0.782,0.783,0.783,0.784,0.784,0.786,0.787,0.787,0.788,0.789,0.789,0.789,0.79,0.79,0.79,0.79,0.789,0.787,0.787,0.786,0.783,0.783,0.781,0.78,0.779,0.777,0.776,0.775,0.775,0.775,0.776,0.777,0.776,0.777,0.775,0.775,0.772,0.77,0.77,0.767,0.766,0.766,0.764,0.763,0.762,0.759,0.757,0.754,0.753,0.752,0.751,0.75,0.749,0.749,0.748,0.748,0.747,0.748,0.748,0.749,0.749,0.749,0.749,0.749,0.749,0.749,0.748,0.747,0.745,0.74,0.739,0.738,0.736,0.735,0.735,0.735,0.734,0.735,0.735,0.735,0.734,0.734,0.734,0.734,0.734,0.734,0.733,0.733,0.731,0.73,0.731,0.729,0.729,0.728,0.727,0.727,0.727,0.726,0.726,0.724,0.722,0.721,0.721,0.72,0.719,0.719,0.718,0.718,0.0,0.0,0.0,0.0,0.0,0.0,0.0,0.0,0.0,0.0,0.0,0.0,0.0,0.438,0.437,0.437,0.437,0.437,0.436,0.436,0.436,0.436,0.435,0.435,0.433,0.432,0.431,0.431,0.431,0.43,0.43,0.429,0.428,0.428,0.427,0.427,0.426,0.426,0.426,0.425,0.425,0.425,0.425,0.425,0.424,0.424,0.423,0.423,0.423,0.423,0.423,0.422,0.422,0.422,0.422,0.423,0.423,0.423,0.423,0.423,0.423,0.424,0.424,0.423,0.423,0.423,0.423,0.422,0.422,0.422,0.422,0.421,0.421,0.421,0.421,0.421,0.421,0.421,0.421,0.42,0.42,0.42,0.42,0.42,0.42,0.42,0.42,0.42,0.42,0.419,0.419,0.419,0.419,0.418,0.418,0.418,0.418,0.418,0.418,0.418,0.417,0.417,0.417,0.417,0.417,0.417,0.416,0.416,0.416,0.416,0.416,0.416,0.415,0.415,0.415,0.415,0.415,0.415,0.415,0.415,0.415,0.415,0.414,0.414,0.414,0.414,0.414,0.414,0.413,0.413,0.413,0.413,0.413,0.413,0.413,0.414,0.414,0.414,0.414,0.4145,0.415,0.415,0.415,0.415,0.415,0.416,0.416,0.416,0.416,0.416,0.417,0.417,0.418,0.418,0.419,0.42,0.42,0.42,0.421,0.421,0.421,0.421,0.422,0.422,0.422,0.422,0.423,0.423,0.423,0.424,0.424,0.424,0.425,0.425,0.425,0.425,0.425,0.425,0.425,0.425,0.425,0.426,0.426,0.426,0.426,0.426,0.427,0.427,0.427,0.428,0.428,0.428,0.429,0.429,0.4295,0.43,0.43,0.43,0.43,0.4305,0.431,0.431,0.431,0.431,0.4315,0.432,0.432,0.432,0.432,0.4325,0.433,0.434,0.434,0.434,0.435,0.435,0.435,0.436,0.436,0.436,0.436,0.436,0.436,0.437,0.437,0.437,0.438,0.439,0.439,0.44,0.44,0.44,0.44,0.441,0.441,0.441,0.441,0.441,0.441,0.441,0.441,0.441,0.441,0.441,0.442,0.442,0.442,0.442,0.442,0.442,0.442,0.442,0.442,0.442,0.443,0.443,0.443,0.443,0.444,0.444,0.445,0.445,0.445,0.446,0.446,0.446,0.446,0.446,0.447,0.447,0.447,0.0,0.0,0.0,0.0,0.0,0.0,0.0,0.0,0.0,0.0,0.0,0.0,0.0,0.0,0.5905,0.591,0.0,0.0,0.588,0.587,0.587,0.587,0.586,0.586,0.585,0.585,0.584,0.584,0.584,0.5834999999999999,0.583,0.584,0.584,0.584,0.585,0.586,0.587,0.587,0.588,0.587,0.586,0.586,0.586,0.584,0.583,0.583,0.583,0.583,0.583,0.583,0.584,0.0,0.0,0.0,0.0,0.0,0.0,0.0,0.0,0.0,0.0,0.0,0.0,0.0,0.0,0.0,0.0,0.0,0.0,0.0,0.0,0.0,0.0,0.0,0.0,0.0,0.0,0.0
3.933,3.933,3.933,3.933,3.946,3.946,3.973,3.973,3.987,4.014,4.028,4.056,4.085,4.085,4.128,4.158,4.173,4.203,4.218,4.233,4.249,4.249,4.264,4.264,4.264,4.264,4.264,4.264,4.264,4.264,4.28,4.264,4.264,4.264,4.264,4.264,4.264,4.264,4.264,4.264,4.264,4.264,4.249,4.249,4.249,4.233,4.233,4.218,4.203,4.203,4.203,4.218,4.233,4.233,4.249,4.249,4.249,4.264,4.264,4.28,0.0,0.0,0.0,0.0,0.0,0.0,0.0,0.0,0.0,0.0,0.0,0.0,0.0,0.0,0.0,0.765,0.766,0.766,0.767,0.769,0.77,0.772,0.774,0.777,0.778,0.78,0.781,0.781,0.782,0.782,0.783,0.783,0.784,0.784,0.784,0.784,0.784,0.784,0.784,0.783,0.782,0.781,0.781,0.775,0.773,0.769,0.767,0.767,0.767,0.766,0.766,0.766,0.766,0.766,0.766,0.766,0.766,0.765,0.765,0.764,0.763,0.762,0.76,0.756,0.754,0.753,0.752,0.751,0.75,0.75,0.749,0.747,0.745,0.743,0.742,0.741,0.74,0.739,0.739,0.739,0.741,0.741,0.742,0.742,0.742,0.741,0.741,0.739,0.738,0.737,0.736,0.734,0.734,0.733,0.732,0.731,0.729,0.728,0.727,0.727,0.727,0.728,0.728,0.728,0.728,0.727,0.727,0.727,0.727,0.725,0.724,0.724,0.723,0.723,0.722,0.721,0.721,0.72,0.72,0.72,0.72,0.72,0.719,0.718,0.717,0.716,0.716,0.714,0.712,0.712,0.712,0.0,0.0,0.0,0.0,0.0,0.0,0.0,0.0,0.0,0.0,0.0,0.0,0.0,0.438,0.437,0.437,0.437,0.437,0.436,0.436,0.436,0.436,0.436,0.435,0.433,0.432,0.431,0.431,0.431,0.43,0.43,0.429,0.429,0.428,0.427,0.427,0.426,0.426,0.426,0.425,0.425,0.425,0.425,0.425,0.424,0.424,0.424,0.423,0.423,0.422,0.422,0.422,0.422,0.422,0.422,0.422,0.422,0.422,0.422,0.423,0.423,0.423,0.423,0.423,0.423,0.423,0.423,0.422,0.422,0.422,0.422,0.421,0.421,0.421,0.421,0.421,0.421,0.421,0.42,0.42,0.42,0.42,0.42,0.42,0.42,0.42,0.419,0.419,0.419,0.419,0.419,0.419,0.419,0.418,0.418,0.418,0.418,0.418,0.418,0.417,0.417,0.417,0.417,0.417,0.417,0.417,0.416,0.416,0.416,0.416,0.416,0.416,0.416,0.416,0.415,0.415,0.415,0.415,0.415,0.415,0.415,0.415,0.414,0.414,0.414,0.414,0.413,0.413,0.413,0.413,0.413,0.413,0.413,0.413,0.413,0.413,0.413,0.413,0.414,0.414,0.414,0.4145,0.415,0.415,0.415,0.415,0.4155,0.416,0.416,0.416,0.416,0.417,0.417,0.417,0.418,0.419,0.42,0.42,0.42,0.421,0.421,0.421,0.421,0.421,0.422,0.422,0.422,0.422,0.422,0.423,0.423,0.424,0.424,0.424,0.425,0.425,0.425,0.425,0.425,0.425,0.425,0.425,0.425,0.425,0.426,0.426,0.426,0.426,0.426,0.427,0.427,0.428,0.428,0.429,0.429,0.429,0.4295,0.43,0.43,0.43,0.430375,0.431,0.431,0.431,0.431,0.431,0.4315,0.432,0.432,0.432,0.4325,0.433,0.433,0.434,0.434,0.435,0.435,0.435,0.435,0.436,0.436,0.436,0.436,0.436,0.436,0.437,0.437,0.438,0.439,0.439,0.44,0.44,0.44,0.44,0.441,0.441,0.441,0.441,0.441,0.441,0.441,0.441,0.441,0.441,0.442,0.442,0.442,0.442,0.442,0.442,0.442,0.442,0.442,0.442,0.442,0.443,0.443,0.443,0.443,0.444,0.444,0.444,0.445,0.445,0.445,0.446,0.446,0.446,0.446,0.446,0.446,0.446,0.447,0.447,0.0,0.0,0.0,0.0,0.0,0.0,0.0,0.0,0.0,0.0,0.0,0.0,0.584,0.583,0.0,0.0,0.5814999999999999,0.582,0.582,0.582,0.58075,0.581,0.581,0.581,0.58,0.58,0.579,0.579,0.579,0.58,0.58,0.581,0.581,0.582,0.582,0.582,0.582,0.581,0.581,0.581,0.579,0.578,0.577,0.577,0.576,0.576,0.575,0.576,0.58,0.0,0.0,0.0,0.0,0.0,0.0,0.0,0.0,0.0,0.0,0.0,0.0,0.0,0.0,0.0,0.0,0.0,0.0,0.0,0.0,0.0,0.0,0.0,0.0,0.0,0.0,0.0
3.92,3.933,3.933,3.933,3.946,3.946,3.973,3.973,4.014,4.014,4.056,4.07,4.085,4.114,4.158,4.173,4.188,4.218,4.233,4.249,4.249,4.264,4.264,4.264,4.264,4.264,4.264,4.264,4.264,4.264,4.264,4.264,4.249,4.249,4.249,4.249,4.249,4.233,4.233,4.233,4.218,4.218,4.218,4.218,4.203,4.188,4.188,4.188,4.173,4.173,4.173,4.188,4.203,4.218,4.218,4.233,4.249,0.0,0.0,0.0,0.0,0.0,0.0,0.0,0.0,0.0,0.0,0.0,0.0,0.0,0.0,0.0,0.0,0.765,0.765,0.765,0.765,0.766,0.766,0.767,0.768,0.769,0.77,0.772,0.775,0.777,0.778,0.779,0.779,0.78,0.78,0.781,0.781,0.782,0.782,0.781,0.781,0.78,0.779,0.773,0.768,0.767,0.76725,0.765,0.763,0.761,0.76,0.76,0.76,0.76,0.759,0.758,0.759,0.758,0.759,0.757,0.757,0.754,0.754,0.753,0.752,0.751,0.75,0.749,0.748,0.746,0.744,0.743,0.741,0.739,0.737,0.736,0.735,0.735,0.735,0.735,0.735,0.735,0.735,0.736,0.735,0.736,0.736,0.735,0.735,0.734,0.734,0.734,0.733,0.73,0.728,0.725,0.724,0.723,0.723,0.722,0.722,0.721,0.721,0.721,0.722,0.722,0.722,0.722,0.721,0.721,0.721,0.72,0.72,0.72,0.719,0.719,0.718,0.718,0.718,0.718,0.717,0.716,0.715,0.714,0.714,0.713,0.712,0.709,0.708,0.708,0.708,0.707,0.707,0.707,0.0,0.0,0.0,0.0,0.0,0.0,0.0,0.0,0.0,0.0,0.0,0.0,0.438,0.438,0.437,0.437,0.437,0.437,0.436,0.436,0.436,0.436,0.436,0.435,0.433,0.432,0.431,0.431,0.431,0.43,0.43,0.429,0.429,0.428,0.427,0.427,0.426,0.426,0.426,0.425,0.425,0.425,0.425,0.425,0.424,0.424,0.424,0.423,0.423,0.422,0.422,0.422,0.422,0.422,0.422,0.421,0.422,0.422,0.422,0.422,0.422,0.422,0.422,0.422,0.422,0.422,0.422,0.422,0.422,0.422,0.421,0.421,0.421,0.421,0.421,0.421,0.421,0.421,0.42,0.42,0.42,0.42,0.42,0.419,0.419,0.419,0.419,0.419,0.419,0.419,0.419,0.418,0.418,0.418,0.418,0.418,0.418,0.417,0.417,0.417,0.417,0.417,0.417,0.417,0.417,0.416,0.416,0.416,0.416,0.416,0.416,0.416,0.416,0.416,0.415,0.415,0.415,0.415,0.415,0.415,0.415,0.415,0.414,0.414,0.414,0.414,0.413,0.413,0.413,0.413,0.413,0.413,0.413,0.412,0.412,0.412,0.412,0.413,0.413,0.413,0.414,0.414,0.414,0.4145,0.415,0.415,0.415,0.415,0.4155,0.416,0.416,0.416,0.416,0.417,0.417,0.418,0.419,0.419,0.42,0.42,0.421,0.421,0.421,0.421,0.421,0.421,0.421,0.422,0.422,0.422,0.422,0.423,0.423,0.424,0.424,0.424,0.425,0.425,0.425,0.425,0.425,0.425,0.425,0.425,0.426,0.426,0.426,0.426,0.426,0.426,0.427,0.427,0.427,0.428,0.428,0.429,0.429,0.4295,0.43,0.43,0.43,0.43,0.4305,0.431,0.431,0.431,0.431,0.431,0.4315,0.432,0.432,0.432375,0.433,0.433,0.433,0.434,0.435,0.435,0.435,0.435,0.436,0.436,0.436,0.436,0.436,0.436,0.437,0.437,0.438,0.439,0.439,0.44,0.44,0.44,0.44,0.441,0.441,0.441,0.441,0.441,0.441,0.441,0.442,0.442,0.442,0.442,0.442,0.442,0.442,0.442,0.442,0.442,0.442,0.442,0.443,0.443,0.443,0.443,0.443,0.443,0.444,0.444,0.444,0.444,0.445,0.445,0.445,0.446,0.446,0.446,0.446,0.446,0.446,0.447,0.447,0.0,0.0,0.0,0.0,0.0,0.0,0.0,0.0,0.0,0.0,0.0,0.0,0.0,0.58,0.578,0.577,0.575,0.575,0.576,0.575,0.574,0.574,0.574,0.574,0.574,0.573,0.573,0.573,0.574,0.574,0.575,0.575,0.576,0.576,0.575,0.575,0.574,0.573,0.573,0.573,0.573,0.572,0.571,0.5705,0.57,0.57,0.0,0.0,0.0,0.0,0.0,0.0,0.0,0.0,0.0,0.0,0.0,0.0,0.0,0.0,0.0,0.0,0.0,0.0,0.0,0.0,0.0,0.0,0.0,0.0,0.0,0.0,0.0,0.0,0.0,0.0
3.92,3.933,3.933,3.933,3.946,3.946,3.973,3.987,4.014,4.028,4.056,4.085,4.114,4.128,4.158,4.188,4.203,4.233,4.249,4.249,4.264,4.264,4.264,4.264,4.28,4.264,4.264,4.264,4.264,4.264,4.249,4.249,4.249,4.233,4.218,4.203,4.203,4.203,4.188,4.188,4.173,4.173,4.173,4.173,4.173,4.173,4.158,4.158,4.158,4.158,4.158,4.173,4.188,4.203,4.203,0.0,0.0,0.0,0.0,0.0,0.0,0.0,0.0,0.0,0.0,0.0,0.0,0.0,0.0,0.0,0.0,0.76,0.762,0.762,0.762,0.762,0.762,0.763,0.765,0.765,0.765,0.766,0.767,0.768,0.769,0.771,0.773,0.774,0.775,0.776,0.777,0.777,0.778,0.778,0.776,0.775,0.77,0.768,0.766,0.765,0.761,0.758,0.756,0.754,0.753,0.752,0.752,0.753,0.753,0.752,0.752,0.752,0.752,0.752,0.751,0.751,0.75,0.75,0.749,0.749,0.747,0.745,0.743,0.74,0.738,0.736,0.735,0.733,0.732,0.73,0.729,0.729,0.729,0.729,0.73,0.73,0.731,0.732,0.732,0.732,0.732,0.732,0.732,0.73,0.728,0.727,0.726,0.724,0.723,0.722,0.721,0.72,0.72,0.719,0.719,0.719,0.719,0.719,0.719,0.719,0.719,0.719,0.718,0.718,0.717,0.716,0.715,0.714,0.714,0.712,0.712,0.711,0.71,0.71,0.71,0.709,0.709,0.708,0.708,0.707,0.707,0.706,0.7044999999999999,0.7033749999999999,0.704,0.703,0.703,0.702,0.702,0.0,0.0,0.0,0.0,0.0,0.0,0.0,0.0,0.0,0.0,0.0,0.0,0.0,0.438,0.437,0.437,0.437,0.437,0.436,0.436,0.436,0.436,0.436,0.435,0.433,0.432,0.431,0.431,0.431,0.43,0.43,0.429,0.429,0.428,0.428,0.427,0.427,0.426,0.426,0.425,0.425,0.425,0.425,0.425,0.424,0.424,0.423,0.423,0.423,0.422,0.422,0.421,0.422,0.421,0.421,0.421,0.421,0.421,0.421,0.421,0.421,0.421,0.422,0.422,0.422,0.422,0.422,0.422,0.421,0.421,0.421,0.421,0.421,0.421,0.421,0.421,0.421,0.421,0.42,0.42,0.42,0.42,0.42,0.42,0.419,0.419,0.419,0.419,0.419,0.418,0.418,0.418,0.418,0.418,0.418,0.418,0.417,0.417,0.417,0.417,0.417,0.417,0.417,0.417,0.417,0.416,0.416,0.416,0.416,0.416,0.416,0.416,0.416,0.415,0.415,0.415,0.415,0.415,0.415,0.415,0.415,0.415,0.414,0.414,0.414,0.414,0.413,0.413,0.413,0.413,0.413,0.413,0.413,0.412,0.412,0.412,0.412,0.412,0.412,0.413,0.413,0.413,0.414,0.414,0.414,0.414,0.415,0.415,0.415,0.415,0.4155,0.416,0.416,0.416,0.416,0.417,0.418,0.418,0.419,0.42,0.42,0.42,0.421,0.421,0.421,0.421,0.421,0.421,0.421,0.421,0.422,0.422,0.422,0.423,0.423,0.424,0.424,0.424,0.425,0.425,0.425,0.425,0.425,0.425,0.425,0.425,0.426,0.426,0.426,0.426,0.426,0.426,0.427,0.427,0.427,0.428,0.429,0.429,0.429375,0.43,0.43,0.43,0.43,0.4305,0.431,0.431,0.431,0.431,0.431,0.431,0.432,0.432,0.432,0.43275,0.433,0.433,0.434,0.435,0.435,0.435,0.435,0.435,0.436,0.436,0.436,0.436,0.436,0.437,0.437,0.438,0.439,0.439,0.44,0.44,0.44,0.44,0.441,0.441,0.441,0.441,0.441,0.441,0.442,0.442,0.442,0.442,0.442,0.442,0.442,0.443,0.443,0.443,0.443,0.443,0.443,0.443,0.443,0.443,0.443,0.443,0.443,0.444,0.444,0.444,0.444,0.445,0.445,0.445,0.446,0.446,0.446,0.446,0.446,0.446,0.446,0.447,0.0,0.0,0.0,0.0,0.0,0.0,0.0,0.0,0.0,0.0,0.0,0.0,0.0,0.574,0.573,0.573,0.572,0.572,0.572,0.571,0.571,0.571,0.571,0.57,0.57,0.571,0.57,0.571,0.571,0.571,0.571,0.571,0.571,0.571,0.57,0.569,0.566,0.566,0.565,0.565,0.564,0.564,0.564,0.564,0.564,0.564,0.0,0.0,0.0,0.0,0.0,0.0,0.0,0.0,0.0,0.0,0.0,0.0,0.0,0.0,0.0,0.0,0.0,0.0,0.0,0.0,0.0,0.0,0.0,0.0,0.0,0.0,0.0,0.0,0.0,0.0
