6.095,6.127,6.127,6.159,6.225,6.225,6.225,6.225,6.225,6.225,6.159,6.225,6.159,6.159,6.225,6.225,6.225,6.259,6.259,6.327,6.361,6.361,6.361,6.361,6.361,6.361,6.327,6.327,6.327,6.259,6.225,6.225,6.225,6.159,6.127,6.127,6.095,6.001,5.939,5.85,5.763,5.707,5.3625,0.0,4.325749999999999,3.987,3.92,3.868,3.868,3.842,3.829,3.817,3.817,3.804,3.804,3.804,3.804,3.792,3.792,3.792,3.792,3.817,3.893,3.973,0.0,0.0,0.0,0.0,5.22,5.624,5.85,5.909,5.909,6.001,6.032,6.095,6.127,6.159,6.225,6.259,6.327,6.361,6.396,6.432,6.467,6.504,6.504,6.54,6.54,6.577,6.577,6.577,6.577,6.614,6.614,6.614,6.614,6.577,6.614,6.614,6.614,6.614,6.614,6.614,6.614,6.614,6.577,6.577,6.577,6.614,6.614,6.614,6.614,6.614,6.614,6.652,6.652,6.614,6.614,6.577,6.577,6.577,6.577,6.54,6.54,6.54,6.504,6.467,6.432,6.396,6.327,6.259,6.225,6.159,6.127,6.127,6.095,6.032,6.032,6.032,6.001,6.001,5.939,5.939,5.939,6.001,6.001,6.001,6.001,6.001,5.939,5.909,5.85,5.85,5.821,5.792,5.763,5.763,5.707,5.679,5.651,5.624,5.597,5.597,5.57,5.57,5.57,5.597,5.597,5.597,5.597,5.597,5.597,5.597,5.597,5.597,5.57,5.57,5.57,5.57,5.543,5.543,5.517,5.491,5.465,5.44,5.415,5.389,5.34,5.34,5.34,5.389,5.389,5.415,5.465,5.491,5.543,5.543,5.57,5.597,5.624,5.651,5.651,5.679,5.679,5.679,5.679,5.679,5.679,5.679,5.679,5.679,5.679,5.679,5.679,5.679,5.679,5.679,5.679,5.679,5.679,5.679,5.679,5.679,5.679,5.679,5.679,5.679,5.679,5.651,5.651,5.624,5.597,5.597,5.57,5.57,5.543,5.543,5.517,5.491,5.491,5.465,5.465,5.465,5.44,5.44,5.44,5.44,5.44,5.44,5.44,5.44,5.44,5.44,5.44,5.44,5.415,5.44,5.44,5.44,5.44,5.44,5.44,5.44,5.415,5.415,5.415,5.415,5.389,5.389,5.389,5.34,5.316,5.316,5.316,5.316,5.316,5.316,5.316,5.316,5.316,5.268,5.268,5.268,5.268,5.268,5.244,5.244,5.244,5.244,5.244,5.244,5.244,5.244,5.244,5.244,5.22,5.22,5.22,5.174,5.174,5.151,5.151,5.106,5.084,5.084,5.084,5.04,5.04,5.04,5.04,5.04,5.04,5.084,5.084,5.084,5.04,5.04,5.04,5.018,4.996,4.975,4.954,4.933,4.912,4.912,4.912,4.912,4.912,4.912,4.912,4.912,4.912,4.912,4.912,4.912,4.933,4.954,4.954,4.954,4.975,4.975,4.975,4.954,4.954,4.933,4.912,4.912,4.912,4.891,4.891,4.871,4.851,4.851,4.83,4.83,4.81,4.81,4.791,4.791,4.791,4.771,4.771,4.791,4.771,4.791,4.791,4.81,4.81,4.81,4.81,4.81,4.83,4.83,4.83,4.83,4.83,4.83,4.83,4.83,4.83,4.83,4.83,4.83,4.83,4.83,4.83,4.83,4.81,4.81,4.791,4.771,4.752,4.732,4.713,4.694,4.694,4.657,4.657,4.638,4.657,4.771,4.851,4.912,5.018,5.151,4.912,4.975,4.996,4.996,4.933,4.912,4.891,4.891,4.912,4.891,4.851,4.891,5.415,0.0,0.0,0.0,0.0,6.381,0.0,0.0,6.971,7.055,7.186,8.084,0.0,0.0,0.0,4.912,4.851,4.83,4.851,4.851,4.851,4.851,4.851,4.83,4.83,4.83,4.791,4.771,4.752,4.752,4.713,4.694,4.694,4.657,4.694,4.694,4.694,4.713,4.752,4.791,4.83,4.851,4.871,4.891,4.912,4.954,4.975,5.018,4.996,4.996,5.018,5.04,5.151,5.151,5.22,5.268,5.389,5.491,5.57,5.57,5.651,5.651,5.707,5.735,5.763,5.792,5.792,5.792,5.821,5.85,5.909,5.939,6.001,6.095,6.159,6.259,6.396,6.504,6.54,6.614,6.69,6.729,6.848,6.929,7.098,7.322,7.511,7.659,7.813,7.866,7.919,8.028,8.084,8.198,8.256,8.375,8.497,8.56,8.753,8.819,8.955,9.024,9.024,9.024,8.955,8.819,8.819,8.753,8.497,8.436,8.315,8.256,8.315,8.256,8.198,8.141,8.028,7.919,7.761,7.511,7.231,6.971
6.225,6.225,6.259,6.259,6.327,6.327,6.327,6.259,6.225,6.225,6.225,6.159,6.159,6.159,6.159,6.225,6.225,6.225,6.259,6.327,6.327,6.327,6.361,6.361,6.361,6.327,6.361,6.361,6.327,6.327,6.327,6.327,6.259,6.259,6.259,6.259,6.225,6.159,6.095,6.001,5.939,5.909,5.707,4.978,4.249,3.987,3.92,3.868,3.868,3.855,3.829,3.817,3.817,3.804,3.804,3.804,3.804,3.804,3.792,3.792,3.792,3.817,3.855,3.973,0.0,0.0,0.0,0.0,4.933,5.543,5.763,5.821,5.909,5.909,6.001,6.032,6.095,6.127,6.159,6.225,6.327,6.327,6.361,6.432,6.467,6.504,6.504,6.54,6.54,6.577,6.577,6.577,6.577,6.577,6.614,6.614,6.614,6.577,6.577,6.577,6.577,6.577,6.577,6.577,6.577,6.577,6.577,6.577,6.577,6.577,6.577,6.577,6.577,6.614,6.614,6.614,6.614,6.614,6.577,6.577,6.54,6.54,6.54,6.54,6.54,6.504,6.467,6.432,6.396,6.327,6.225,6.159,6.127,6.095,6.032,6.032,6.001,6.001,5.939,5.939,5.939,5.939,5.909,5.909,5.909,5.909,5.909,5.939,5.909,5.909,5.85,5.85,5.821,5.792,5.763,5.735,5.735,5.679,5.679,5.651,5.624,5.597,5.597,5.57,5.57,5.57,5.57,5.597,5.597,5.597,5.624,5.624,5.624,5.597,5.597,5.597,5.57,5.57,5.57,5.57,5.543,5.543,5.517,5.491,5.465,5.44,5.389,5.34,5.34,5.389,5.389,5.415,5.415,5.465,5.491,5.517,5.543,5.57,5.57,5.597,5.624,5.651,5.651,5.679,5.679,5.679,5.679,5.679,5.679,5.679,5.679,5.679,5.679,5.707,5.707,5.679,5.679,5.679,5.679,5.679,5.707,5.707,5.679,5.707,5.679,5.707,5.707,5.679,5.679,5.679,5.651,5.651,5.624,5.624,5.597,5.57,5.57,5.543,5.543,5.517,5.517,5.491,5.491,5.465,5.465,5.465,5.44,5.44,5.415,5.415,5.415,5.415,5.415,5.415,5.415,5.415,5.415,5.415,5.415,5.415,5.415,5.415,5.415,5.415,5.415,5.389,5.389,5.34,5.34,5.34,5.316,5.316,5.316,5.268,5.268,5.268,5.268,5.268,5.268,5.268,5.268,5.268,5.268,5.268,5.244,5.244,5.244,5.244,5.244,5.22,5.22,5.22,5.22,5.22,5.22,5.22,5.22,5.174,5.174,5.151,5.151,5.106,5.084,5.084,5.04,5.018,5.018,5.018,5.018,5.018,5.018,5.018,5.018,5.04,5.04,5.04,5.04,5.04,5.04,5.018,4.996,4.975,4.954,4.954,4.933,4.933,4.933,4.912,4.912,4.912,4.912,4.933,4.933,4.933,4.933,4.933,4.954,4.975,4.975,4.975,4.996,4.996,4.996,4.975,4.954,4.954,4.933,4.912,4.912,4.912,4.891,4.891,4.871,4.851,4.851,4.83,4.83,4.83,4.81,4.81,4.81,4.81,4.81,4.81,4.81,4.81,4.81,4.81,4.81,4.81,4.83,4.83,4.83,4.83,4.83,4.83,4.83,4.83,4.83,4.83,4.83,4.83,4.83,4.83,4.83,4.83,4.83,4.83,4.83,4.81,4.81,4.81,4.791,4.771,4.752,4.732,4.694,4.694,4.694,4.694,4.752,4.851,4.975,5.244,5.44,5.378,5.316,5.491,5.597,5.862500000000001,0.0,6.005,6.432,0.0,7.3885000000000005,0.0,6.279999999999999,6.275,6.323,0.0,0.0,0.0,0.0,7.055,7.231,7.368,7.415,7.415,7.368,7.415,6.941,6.467,0.0,0.0,5.084,4.975,4.954,4.933,4.912,4.912,4.912,4.891,4.871,4.851,4.83,4.81,4.791,4.791,4.752,4.713,4.713,4.713,4.713,4.732,4.732,4.752,4.791,4.83,4.871,4.891,4.912,4.954,4.996,5.04,5.151,5.151,5.151,5.04,5.084,5.106,5.22,5.244,5.34,5.415,5.491,5.57,5.624,5.651,5.707,5.763,5.792,5.821,5.85,5.85,5.85,5.85,5.909,5.909,5.909,5.939,6.032,6.095,6.225,6.327,6.396,6.504,6.54,6.614,6.69,6.768,6.848,6.971,7.186,7.368,7.511,7.709,7.8134999999999994,7.866,7.973,8.028,8.141,8.256,8.375,8.497,8.623,8.819,8.955,9.024,9.239,9.313,9.313,9.239,9.239,9.166,9.024,8.955,8.623,8.623,8.497,8.497,8.497,8.375,8.315,8.198,8.084,7.973,7.919,7.659,7.415,7.186
6.259,6.327,6.361,6.361,6.361,6.361,6.361,6.327,6.327,6.259,6.225,6.225,6.159,6.127,6.159,6.127,6.159,6.225,6.225,6.259,6.327,6.327,6.361,6.327,6.361,6.361,6.361,6.361,6.327,6.327,6.361,6.327,6.327,6.327,6.327,6.327,6.327,6.259,6.225,6.159,6.127,6.095,5.85,0.0,4.2645,3.987,3.92,3.88,3.868,3.855,3.829,3.829,3.817,3.804,3.804,3.804,3.804,3.804,3.792,3.792,3.792,3.804,3.829,3.88,0.0,0.0,0.0,0.0,0.0,5.268,5.651,5.821,5.821,5.909,5.939,6.001,6.032,6.127,6.159,6.225,6.259,6.327,6.361,6.396,6.432,6.467,6.504,6.54,6.54,6.54,6.577,6.577,6.577,6.577,6.577,6.577,6.614,6.577,6.577,6.577,6.577,6.577,6.577,6.577,6.577,6.577,6.54,6.54,6.54,6.54,6.54,6.54,6.577,6.577,6.577,6.577,6.577,6.577,6.54,6.54,6.54,6.54,6.54,6.504,6.504,6.467,6.432,6.396,6.361,6.259,6.225,6.127,6.095,6.032,6.001,6.001,5.939,5.909,5.909,5.909,5.909,5.85,5.85,5.821,5.85,5.85,5.85,5.85,5.85,5.85,5.821,5.821,5.792,5.763,5.735,5.707,5.679,5.679,5.651,5.624,5.597,5.597,5.597,5.597,5.57,5.57,5.57,5.597,5.597,5.624,5.651,5.651,5.624,5.597,5.597,5.597,5.57,5.57,5.57,5.57,5.543,5.543,5.517,5.465,5.44,5.415,5.389,5.389,5.389,5.415,5.415,5.44,5.465,5.491,5.517,5.543,5.57,5.57,5.57,5.597,5.624,5.651,5.651,5.651,5.679,5.679,5.679,5.679,5.679,5.679,5.679,5.679,5.679,5.707,5.707,5.707,5.707,5.707,5.707,5.707,5.707,5.707,5.707,5.707,5.707,5.707,5.707,5.707,5.679,5.679,5.679,5.651,5.651,5.651,5.597,5.597,5.57,5.57,5.543,5.543,5.517,5.517,5.491,5.465,5.44,5.44,5.44,5.415,5.415,5.415,5.389,5.389,5.389,5.389,5.389,5.389,5.389,5.389,5.389,5.389,5.389,5.389,5.389,5.389,5.34,5.34,5.34,5.34,5.316,5.316,5.268,5.268,5.268,5.268,5.244,5.244,5.244,5.244,5.268,5.268,5.268,5.268,5.268,5.244,5.244,5.244,5.244,5.244,5.22,5.22,5.22,5.22,5.22,5.22,5.22,5.174,5.174,5.174,5.151,5.106,5.084,5.084,5.04,5.018,5.018,4.996,4.996,4.996,4.996,4.996,4.996,4.996,4.996,5.018,5.018,5.018,5.04,5.018,5.018,5.018,4.996,4.975,4.975,4.954,4.954,4.954,4.954,4.933,4.933,4.933,4.933,4.933,4.933,4.954,4.954,4.954,4.975,4.975,4.996,4.996,4.996,4.996,4.996,4.975,4.975,4.954,4.933,4.912,4.912,4.912,4.891,4.891,4.871,4.871,4.851,4.851,4.851,4.83,4.83,4.83,4.83,4.83,4.83,4.83,4.83,4.83,4.83,4.83,4.83,4.83,4.83,4.83,4.83,4.83,4.851,4.851,4.851,4.851,4.851,4.851,4.851,4.851,4.851,4.851,4.851,4.83,4.83,4.83,4.83,4.83,4.83,4.81,4.81,4.771,4.771,4.752,4.713,4.713,4.713,4.713,4.81,4.975,5.268,5.57,0.0,0.0,5.939,6.361,6.577,6.729,6.9135,7.098,7.973,8.919,9.865,8.786999999999999,7.709,7.659,7.231,7.415,7.709,7.919,7.973,8.436,8.436,8.256,8.375,8.436,8.375,8.436,8.32525,8.141,7.761,0.0,0.0,5.57,5.174,5.084,4.996,4.975,4.933,4.912,4.912,4.891,4.871,4.851,4.83,4.81,4.791,4.771,4.752,4.752,4.771,4.771,4.791,4.81,4.83,4.851,4.912,4.933,4.996,5.04,5.084,5.151,5.22,5.244,5.22,5.151,5.151,5.174,5.268,5.34,5.44,5.517,5.57,0.0,0.0,5.779999999999999,5.821,5.85,5.85,5.909,5.909,5.909,5.909,5.909,5.909,5.939,5.939,6.001,6.032,6.127,6.259,6.361,6.467,6.54,6.614,6.69,6.729,6.848,6.971,7.098,7.322,7.511,7.709,7.774249999999999,7.866,7.973,8.028,8.084,8.256,8.315,8.497,8.753,8.819,9.024,9.166,9.239,9.464,9.464,9.542,9.464,9.464,9.313,9.313,9.239,9.166,9.024,8.955,8.819,8.753,8.56,8.436,8.315,8.198,8.028,7.973,7.761,7.559,7.368
6.361,6.396,6.432,6.432,6.432,6.396,6.396,6.396,6.327,6.259,6.225,6.225,6.159,6.127,6.127,6.127,6.159,6.183999999999999,6.225,6.259,6.259,6.327,6.327,6.327,6.361,6.327,6.327,6.327,6.361,6.361,6.327,6.327,6.361,6.361,6.361,6.361,6.361,6.327,6.327,6.259,6.225,6.225,6.001,5.1405,4.28,4.056,3.92,3.893,3.88,3.868,3.842,3.829,3.817,3.804,3.804,3.804,3.804,3.804,3.804,3.792,3.792,3.792,3.817,3.855,0.0,0.0,0.0,0.0,0.0,0.0,5.597,5.792,5.821,5.85,5.909,6.001,6.032,6.127,6.159,6.225,6.259,6.327,6.361,6.396,6.467,6.467,6.504,6.54,6.54,6.577,6.577,6.577,6.577,6.577,6.577,6.577,6.577,6.577,6.577,6.577,6.577,6.577,6.54,6.54,6.54,6.54,6.504,6.504,6.504,6.504,6.504,6.504,6.504,6.54,6.54,6.54,6.54,6.54,6.504,6.504,6.504,6.504,6.504,6.467,6.467,6.432,6.396,6.361,6.327,6.259,6.159,6.095,6.032,6.001,5.939,5.939,5.909,5.909,5.85,5.85,5.85,5.85,5.821,5.821,5.821,5.821,5.821,5.821,5.821,5.821,5.792,5.763,5.763,5.707,5.707,5.679,5.679,5.679,5.651,5.651,5.624,5.597,5.597,5.597,5.597,5.597,5.597,5.624,5.624,5.651,5.651,5.651,5.624,5.624,5.597,5.597,5.57,5.57,5.57,5.57,5.543,5.543,5.517,5.491,5.44,5.415,5.389,5.389,5.415,5.44,5.44625,5.465,5.491,5.517,5.543,5.543,5.57,5.597,5.597,5.624,5.651,5.651,5.651,5.679,5.679,5.679,5.679,5.679,5.679,5.679,5.679,5.679,5.707,5.707,5.707,5.735,5.735,5.735,5.735,5.735,5.735,5.735,5.735,5.735,5.735,5.735,5.735,5.707,5.707,5.679,5.679,5.679,5.651,5.651,5.624,5.597,5.597,5.57,5.543,5.543,5.543,5.517,5.491,5.465,5.44,5.44,5.415,5.415,5.389,5.389,5.389,5.389,5.389,5.389,5.34,5.34,5.34,5.34,5.34,5.34,5.34,5.34,5.34,5.34,5.34,5.34,5.316,5.316,5.268,5.268,5.268,5.244,5.244,5.22,5.22,5.22,5.22,5.22,5.244,5.244,5.244,5.244,5.244,5.244,5.244,5.244,5.244,5.22,5.22,5.22,5.22,5.22,5.22,5.22,5.174,5.174,5.174,5.151,5.151,5.106,5.084,5.04,5.018,5.018,4.996,4.996,4.975,4.975,4.975,4.975,4.975,4.975,4.996,4.996,5.018,5.018,5.018,5.018,5.018,5.018,4.996,4.996,4.975,4.975,4.975,4.954,4.954,4.954,4.954,4.954,4.954,4.954,4.954,4.954,4.954,4.975,4.975,4.996,4.996,5.018,4.996,4.996,4.996,4.996,4.975,4.954,4.933,4.912,4.912,4.912,4.912,4.891,4.891,4.891,4.871,4.871,4.851,4.851,4.851,4.851,4.851,4.851,4.851,4.851,4.851,4.83,4.83,4.83,4.83,4.83,4.83,4.83,4.83,4.83,4.851,4.851,4.851,4.851,4.851,4.851,4.851,4.851,4.851,4.851,4.851,4.851,4.851,4.851,4.851,4.83,4.83,4.83,4.81,4.81,4.81,4.771,4.771,4.771,4.752,4.752,4.891,5.316,5.4647499999999996,5.624,0.0,0.0,6.652,6.929,7.415,7.58125,7.866,8.028,8.141,8.256,9.95,10.212,10.212,10.302,10.302,10.302,10.123,10.123,10.036,9.95,9.865,9.865,9.464,9.701,9.783,9.783,9.783,8.727,8.257,0.0,0.0,6.127,5.679,5.543,5.174,5.04,4.975,4.975,4.954,4.912,4.912,4.891,4.871,4.851,4.83,4.81,4.81,4.81,4.81,4.81,4.83,4.83,4.851,4.891,4.9544999999999995,5.018,5.106,5.174,5.244,5.268,5.34,5.34,5.34,5.22,5.174,5.244,5.389,5.491,5.543,5.57,5.651,0.0,0.0,5.909,5.939,5.939,6.001,6.001,5.939,5.939,5.909,5.909,5.939,5.939,6.001,6.032,6.095,6.159,6.327,6.432,6.54,6.577,6.69,6.729,6.888,6.971,7.186,7.368,7.511,7.659,7.761749999999999,7.813,7.973,8.028,8.084,8.198,8.315,8.497,8.753,8.819,8.955,9.166,9.239,9.313,9.542,9.542,9.542,9.542,9.542,9.542,9.464,9.464,9.464,9.239,9.239,9.166,9.166,8.753,8.56,8.375,8.256,8.141,8.028,7.919,7.761,7.659
6.396,6.432,6.467,6.467,6.467,6.432,6.432,6.396,6.361,6.327,6.259,6.225,6.159,6.127,6.127,6.127,6.127,6.127,6.159,6.225,6.225,6.259,6.259,6.259,6.327,6.327,6.327,6.327,6.327,6.361,6.361,6.361,6.361,6.361,6.361,6.361,6.396,6.361,6.327,6.327,6.327,6.327,6.095,5.2115,4.328,4.085,3.933,3.906,3.893,3.868,3.855,3.829,3.817,3.817,3.804,3.804,3.804,3.804,3.804,3.804,3.792,3.792,3.804,3.829,0.0,0.0,0.0,0.0,0.0,0.0,5.543,5.792,5.821,5.85,5.909,5.939,6.001,6.095,6.127,6.225,6.259,6.327,6.396,6.432,6.467,6.504,6.54,6.54,6.54,6.577,6.577,6.577,6.577,6.614,6.614,6.577,6.577,6.577,6.577,6.577,6.577,6.54,6.54,6.54,6.504,6.504,6.467,6.432,6.432,6.432,6.432,6.432,6.432,6.467,6.467,6.467,6.504,6.467,6.467,6.467,6.467,6.467,6.467,6.467,6.432,6.396,6.396,6.361,6.327,6.225,6.127,6.127,6.032,6.001,5.939,5.909,5.909,5.909,5.85,5.85,5.821,5.821,5.792,5.821,5.792,5.792,5.792,5.792,5.792,5.792,5.763,5.763,5.735,5.735,5.707,5.707,5.679,5.679,5.679,5.651,5.651,5.651,5.624,5.624,5.624,5.651,5.624,5.651,5.651,5.651,5.651,5.651,5.651,5.651,5.624,5.624,5.597,5.597,5.57,5.57,5.57,5.543,5.517,5.491,5.44,5.415,5.389,5.402,5.415,5.44,5.465,5.491,5.517,5.543,5.57,5.597,5.597,5.624,5.651,5.651,5.651,5.679,5.679,5.679,5.679,5.679,5.679,5.679,5.679,5.679,5.679,5.679,5.707,5.707,5.707,5.735,5.735,5.735,5.763,5.763,5.763,5.763,5.735,5.735,5.735,5.735,5.735,5.735,5.707,5.707,5.679,5.679,5.679,5.651,5.624,5.624,5.597,5.57,5.57,5.543,5.543,5.517,5.491,5.465,5.44,5.415,5.415,5.389,5.389,5.389,5.389,5.389,5.34,5.34,5.34,5.34,5.34,5.34,5.34,5.34,5.34,5.34,5.34,5.34,5.34,5.316,5.316,5.268,5.268,5.244,5.244,5.22,5.22,5.22,5.22,5.22,5.22,5.22,5.22,5.22,5.22,5.244,5.244,5.244,5.244,5.244,5.22,5.22,5.22,5.22,5.22,5.22,5.22,5.22,5.22,5.174,5.151,5.151,5.106,5.084,5.084,5.04,5.018,4.996,4.996,4.996,4.975,4.975,4.975,4.975,4.975,4.975,4.975,4.996,4.996,4.996,4.996,5.018,4.996,4.996,4.996,4.975,4.975,4.954,4.954,4.954,4.954,4.954,4.954,4.954,4.954,4.954,4.954,4.954,4.954,4.975,4.975,4.996,4.996,5.018,5.018,5.018,4.996,4.996,4.975,4.954,4.933,4.933,4.912,4.912,4.912,4.891,4.891,4.891,4.891,4.891,4.891,4.891,4.891,4.891,4.891,4.871,4.871,4.871,4.851,4.851,4.83,4.83,4.83,4.83,4.83,4.83,4.83,4.83,4.83,4.83,4.83,4.851,4.851,4.851,4.851,4.851,4.851,4.851,4.851,4.851,4.851,4.851,4.851,4.83,4.83,4.83,4.83,4.83,4.81,4.81,4.81,4.83,4.83,4.83,5.084,5.3675,5.651,0.0,0.0,0.0,7.425000000000001,7.709,8.028,8.315,8.819,9.239,9.464,9.783,9.95,10.212,10.212,10.302,10.302,10.302,10.302,10.212,10.212,10.212,10.036,10.123,10.123,10.036,9.95,9.783,9.783,9.313,8.753,0.0,0.0,0.0,6.327,5.821,5.597,5.244,5.106,5.04,4.996,4.954,4.912,4.891,4.871,0.0,0.0,0.0,0.0,0.0,0.0,4.83,4.83,0.0,0.0,0.0,0.0,0.0,0.0,0.0,5.316,5.378,5.44,0.0,0.0,5.22,5.174,5.34,5.517,5.57,5.6245,5.679,5.735,5.868,6.001,6.127,6.095,6.032,6.032,6.001,6.001,6.001,5.939,5.939,6.001,6.001,6.032,6.095,6.159,6.327,6.432,6.54,6.614,6.69,6.768,6.929,7.098,7.231,7.368,7.559,7.635,7.709,7.866,7.973,8.028,8.084,8.198,8.256,8.436,8.623,8.819,9.024,9.166,9.239,9.464,9.464,9.701,9.783,9.783,9.701,9.783,9.701,9.783,9.783,9.701,9.542,9.542,9.464,9.313,9.239,8.819,8.56,8.375,8.256,8.141,8.028,7.973,7.866
6.467,6.504,6.504,6.504,6.504,6.467,6.467,6.432,6.361,6.327,6.259,6.225,6.159,6.095,6.095,6.095,6.095,6.095,6.095,6.127,6.127,6.159,6.225,6.225,6.225,6.259,6.259,6.259,6.259,6.327,6.327,6.361,6.361,6.361,6.361,6.361,6.396,6.396,6.361,6.361,6.327,6.361,6.095,5.47325,4.800625,4.128,3.933,3.92,3.893,3.868,3.855,3.829,3.817,3.817,3.804,3.804,3.804,3.804,3.804,3.792,3.792,3.792,3.804,3.817,3.868,0.0,0.0,0.0,0.0,0.0,0.0,5.707,5.821,5.85,5.939,6.001,6.032,6.095,6.159,6.225,6.259,6.327,6.396,6.432,6.504,6.54,6.54,6.577,6.577,6.577,6.614,6.614,6.614,6.614,6.614,6.614,6.577,6.577,6.577,6.54,6.54,6.54,6.54,6.504,6.467,6.432,6.396,6.361,6.327,6.327,6.327,6.361,6.361,6.396,6.396,6.432,6.432,6.432,6.432,6.432,6.432,6.432,6.432,6.467,6.432,6.432,6.396,6.361,6.361,6.259,6.159,6.127,6.095,6.032,6.001,5.939,5.909,5.909,5.821,5.821,5.821,5.792,5.792,5.792,5.792,5.792,5.763,5.763,5.763,5.763,5.763,5.735,5.735,5.735,5.735,5.707,5.707,5.679,5.679,5.679,5.679,5.679,5.651,5.651,5.651,5.651,5.651,5.679,5.679,5.679,5.679,5.679,5.679,5.651,5.651,5.651,5.624,5.597,5.597,5.57,5.57,5.543,5.543,5.517,5.465,5.44,5.415,5.415,5.43375,5.44,5.491,5.517,5.543,5.57,5.597,5.624,5.651,5.651,5.679,5.679,5.679,5.679,5.707,5.707,5.707,5.707,5.679,5.679,5.679,5.679,5.679,5.679,5.679,5.707,5.707,5.735,5.735,5.735,5.735,5.763,5.763,5.763,5.735,5.735,5.735,5.735,5.735,5.735,5.707,5.679,5.679,5.679,5.679,5.651,5.651,5.624,5.597,5.597,5.57,5.57,5.543,5.543,5.517,5.491,5.465,5.44,5.415,5.415,5.389,5.389,5.389,5.389,5.34,5.34,5.34,5.34,5.34,5.34,5.34,5.34,5.34,5.34,5.34,5.34,5.316,5.316,5.268,5.268,5.244,5.244,5.22,5.22,5.22,5.22,5.174,5.174,5.22,5.22,5.22,5.22,5.22,5.244,5.244,5.244,5.244,5.244,5.244,5.244,5.244,5.244,5.244,5.22,5.22,5.22,5.22,5.174,5.151,5.151,5.106,5.084,5.084,5.04,5.018,5.018,4.996,4.996,4.996,4.975,4.975,4.975,4.975,4.975,4.996,4.996,4.996,4.996,4.996,4.996,4.996,4.996,4.975,4.975,4.975,4.975,4.954,4.954,4.954,4.954,4.954,4.954,4.954,4.954,4.954,4.954,4.975,4.975,4.975,4.996,4.996,5.018,4.996,5.018,5.018,4.996,4.975,4.975,4.933,4.933,4.912,4.912,4.912,4.912,4.891,4.912,4.891,4.891,4.891,4.891,4.891,4.891,4.891,4.891,4.871,4.871,4.851,4.851,4.83,4.83,4.83,4.81,4.81,4.81,4.83,4.83,4.83,4.83,4.83,4.83,4.83,4.83,4.83,4.83,4.83,4.83,4.83,4.83,4.851,4.851,4.83,4.83,4.83,4.83,4.83,4.83,4.83,4.83,4.83,4.912,4.996,0.0,0.0,0.0,0.0,0.0,0.0,0.0,8.198,8.436,8.955,9.464,9.783,9.865,9.865,9.95,10.036,10.123,10.212,10.212,10.212,10.212,10.212,10.212,10.036,10.036,9.95,9.95,9.95,9.95,9.865,9.701,9.701,9.313,8.955,8.436,8.028,0.0,7.0440000000000005,6.327,5.821,5.597,5.244,5.106,5.018,4.975,4.954,0.0,0.0,0.0,0.0,0.0,0.0,0.0,0.0,0.0,0.0,0.0,0.0,0.0,0.0,0.0,0.0,0.0,5.415,0.0,0.0,0.0,0.0,0.0,0.0,0.0,0.0,0.0,0.0,0.0,0.0,6.225,6.396,6.361,6.327,6.225,6.159,6.095,6.032,6.001,6.001,6.001,6.095,6.127,6.159,6.259,6.361,6.467,6.577,6.614,6.729,6.808,6.971,7.186,7.368,7.46675,7.559,7.659,7.761,7.919,8.028,8.084,8.198,8.256,8.315,8.436,8.623,8.955,9.166,9.239,9.239,9.313,9.542,9.542,9.701,9.783,9.783,9.865,9.865,9.783,9.865,9.865,9.865,9.783,9.783,9.701,9.542,9.464,9.166,8.753,8.56,8.375,8.256,8.084,8.084,8.028
6.504,6.54,6.54,6.54,6.54,6.504,6.504,6.432,6.396,6.361,6.259,6.225,6.159,6.095,6.032,6.032,6.032,6.032,6.032,6.095,6.095,6.095,6.127,6.127,6.225,6.225,6.225,6.225,6.259,6.259,6.327,6.361,6.361,6.396,6.361,6.396,6.396,6.396,6.396,6.396,6.361,6.361,6.225,5.735,4.9765,4.218,3.973,3.906,3.893,3.868,3.855,3.829,3.817,3.817,3.804,3.804,3.804,3.804,3.804,3.792,3.792,3.792,3.792,3.804,3.829,0.0,0.0,0.0,0.0,0.0,0.0,0.0,5.735,5.909,5.909,5.939,6.001,6.127,6.159,6.259,6.361,6.396,6.467,6.504,6.54,6.54,6.577,6.577,6.577,6.614,6.614,6.614,6.614,6.614,6.614,6.614,6.614,6.577,6.577,6.577,6.54,6.54,6.504,6.467,6.432,6.396,6.361,6.259,6.225,6.225,6.225,6.259,6.327,6.361,6.361,6.396,6.432,6.432,6.432,6.467,6.467,6.467,6.504,6.504,6.504,6.467,6.467,6.432,6.396,6.361,6.259,6.159,6.127,6.095,6.032,6.001,5.939,5.909,5.85,5.821,5.821,5.821,5.792,5.792,5.763,5.763,5.763,5.763,5.763,5.763,5.735,5.735,5.735,5.735,5.735,5.735,5.735,5.735,5.707,5.707,5.707,5.707,5.679,5.679,5.679,5.679,5.679,5.679,5.707,5.707,5.679,5.679,5.679,5.679,5.679,5.651,5.651,5.651,5.624,5.597,5.597,5.57,5.57,5.543,5.491,5.465,5.44,5.44,5.465,5.465,5.517,5.543,5.57,5.597,5.651,5.679,5.679,5.707,5.735,5.735,5.763,5.763,5.763,5.763,5.735,5.735,5.707,5.707,5.679,5.679,5.679,5.679,5.679,5.707,5.735,5.735,5.735,5.763,5.763,5.763,5.763,5.763,5.763,5.763,5.735,5.735,5.735,5.735,5.707,5.679,5.679,5.679,5.679,5.651,5.651,5.624,5.597,5.597,5.597,5.57,5.57,5.543,5.517,5.491,5.465,5.44,5.44,5.415,5.415,5.389,5.389,5.389,5.389,5.34,5.34,5.34,5.34,5.34,5.34,5.34,5.34,5.34,5.34,5.34,5.316,5.316,5.268,5.244,5.244,5.22,5.22,5.174,5.174,5.174,5.174,5.22,5.22,5.22,5.244,5.244,5.268,5.268,5.268,5.268,5.268,5.268,5.268,5.268,5.268,5.268,5.268,5.244,5.244,5.22,5.22,5.174,5.174,5.151,5.106,5.106,5.084,5.04,5.04,5.018,5.018,4.996,4.996,4.996,4.996,4.996,4.996,4.996,4.996,4.996,4.996,4.996,4.996,4.996,4.975,4.975,4.975,4.975,4.954,4.954,4.954,4.954,4.954,4.954,4.954,4.954,4.954,4.954,4.954,4.954,4.954,4.954,4.975,4.975,4.975,4.996,4.996,4.996,4.996,4.996,4.975,4.954,4.954,4.933,4.912,4.912,4.912,4.912,4.912,4.912,4.891,4.891,4.912,4.891,4.891,4.891,4.891,4.891,4.891,4.851,4.851,4.83,4.83,4.83,4.81,4.81,4.81,4.81,4.81,4.81,4.83,4.83,4.83,4.83,4.83,4.83,4.83,4.83,4.83,4.83,4.83,4.83,4.83,4.83,4.83,4.83,4.83,4.83,4.83,4.83,4.83,4.83,0.0,0.0,0.0,0.0,0.0,0.0,0.0,0.0,0.0,0.0,8.819,9.024,9.542,9.783,9.95,9.95,9.95,10.036,10.036,10.123,10.212,10.212,10.212,10.212,10.123,10.036,9.95,9.865,9.865,9.783,9.865,9.783,9.701,9.542,9.464,9.464,9.166,8.623,8.256,8.084,7.761,7.098,0.0,0.0,0.0,5.244,5.084,5.063,0.0,0.0,0.0,0.0,0.0,0.0,0.0,0.0,0.0,0.0,0.0,0.0,0.0,0.0,0.0,0.0,0.0,0.0,0.0,0.0,0.0,0.0,0.0,0.0,0.0,0.0,0.0,0.0,0.0,0.0,0.0,6.577,6.614,6.614,6.577,6.504,6.396,6.259,6.159,6.127,6.095,6.127,6.259,6.327,6.396,6.467,6.54,6.614,6.69,6.768,6.888,7.055,7.231,7.415,7.57625,7.709,7.813,7.919,7.973,8.028,8.084,8.198,8.256,8.375,8.497,8.623,8.955,9.166,9.239,9.313,9.313,9.464,9.542,9.701,9.701,9.783,9.783,9.783,9.865,9.865,9.865,9.95,9.95,9.865,9.865,9.865,9.701,9.542,9.313,9.166,8.753,8.56,8.315,8.198,8.198,8.084
6.54,6.54,6.54,6.54,6.54,6.54,6.504,6.467,6.432,6.361,6.327,6.259,6.159,6.095,6.032,6.032,6.001,6.001,6.001,6.032,6.032,6.032,6.127,6.127,6.127,6.159,6.159,6.225,6.259,6.327,6.327,6.327,6.361,6.396,6.396,6.396,6.396,6.396,6.396,6.396,6.396,6.396,6.259,5.821,5.0504999999999995,4.28,4.028,3.906,3.893,3.868,3.855,3.817,3.817,3.804,3.804,3.804,3.804,3.804,3.804,3.792,3.792,3.792,3.792,3.792,3.817,0.0,0.0,0.0,0.0,0.0,0.0,0.0,5.679,5.85,5.909,5.939,6.032,6.095,6.225,6.327,6.361,6.432,6.504,6.504,6.54,6.577,6.577,6.577,6.614,6.614,6.614,6.614,6.614,6.614,6.614,6.614,6.614,6.577,6.577,6.54,6.54,6.504,6.467,6.396,6.361,6.327,6.259,6.159,6.127,6.159,6.159,6.225,6.259,6.327,6.327,6.361,6.432,6.467,6.467,6.504,6.54,6.54,6.54,6.54,6.54,6.54,6.54,6.504,6.467,6.396,6.361,6.259,6.225,6.127,6.095,6.032,6.001,5.939,5.909,5.85,5.85,5.821,5.821,5.792,5.792,5.763,5.763,5.763,5.735,5.735,5.735,5.707,5.707,5.735,5.735,5.735,5.707,5.735,5.735,5.735,5.735,5.735,5.707,5.707,5.707,5.707,5.707,5.707,5.735,5.707,5.707,5.707,5.707,5.707,5.679,5.679,5.679,5.651,5.651,5.624,5.597,5.597,5.57,5.57,5.517,5.517,5.491,5.491,5.491,5.517,5.543,5.597,5.597,5.651,5.679,5.707,5.735,5.792,5.792,5.792,5.821,5.821,5.821,5.792,5.792,5.735,5.707,5.707,5.679,5.679,5.679,5.679,5.707,5.707,5.707,5.735,5.735,5.763,5.763,5.763,5.763,5.763,5.763,5.763,5.763,5.735,5.735,5.707,5.707,5.679,5.679,5.679,5.679,5.651,5.651,5.651,5.624,5.597,5.597,5.57,5.57,5.543,5.543,5.517,5.491,5.465,5.44,5.44,5.415,5.415,5.389,5.389,5.389,5.389,5.389,5.389,5.389,5.389,5.34,5.34,5.34,5.34,5.34,5.34,5.316,5.316,5.268,5.268,5.244,5.244,5.22,5.22,5.22,5.22,5.22,5.22,5.22,5.244,5.268,5.268,5.268,5.268,5.316,5.316,5.316,5.316,5.316,5.316,5.268,5.268,5.268,5.268,5.244,5.22,5.22,5.174,5.151,5.151,5.106,5.106,5.084,5.04,5.04,5.04,5.018,5.018,5.018,4.996,4.996,4.996,5.018,5.018,4.996,4.996,4.996,4.996,4.975,4.975,4.975,4.954,4.954,4.954,4.954,4.954,4.954,4.954,4.954,4.954,4.954,4.954,4.954,4.954,4.954,4.954,4.954,4.975,4.975,4.996,4.996,5.018,5.018,4.996,4.996,4.996,4.975,4.975,4.954,4.933,4.912,4.912,4.912,4.912,4.912,4.912,4.912,4.912,4.912,4.891,4.891,4.912,4.891,4.891,4.891,4.871,4.851,4.83,4.83,4.83,4.81,4.81,4.81,4.81,4.81,4.81,4.81,4.81,4.83,4.83,4.83,4.83,4.83,4.83,4.83,4.83,4.83,4.83,4.83,4.83,4.83,4.83,4.83,4.83,4.83,4.83,4.83,0.0,0.0,0.0,0.0,0.0,0.0,0.0,0.0,0.0,0.0,0.0,9.464,9.542,9.865,9.95,10.036,10.036,10.036,10.036,10.036,10.123,10.212,10.212,10.123,10.123,10.036,9.95,9.865,9.783,9.701,9.783,9.783,9.701,9.542,9.542,9.464,9.313,9.239,9.024,8.497,8.198,8.028,7.761,0.0,0.0,0.0,0.0,5.316,5.151,0.0,0.0,0.0,0.0,0.0,0.0,0.0,0.0,0.0,0.0,0.0,0.0,0.0,0.0,0.0,0.0,0.0,0.0,0.0,0.0,0.0,0.0,0.0,0.0,0.0,0.0,0.0,0.0,0.0,0.0,6.652,6.69,6.729,6.729,6.614,6.54,6.467,6.396,6.259,6.259,6.259,0.0,6.4365000000000006,6.54,6.577,6.614,6.69,6.729,6.848,7.055,7.322,7.375249999999999,7.415,7.659,7.813,7.973,8.028,8.084,8.084,8.198,8.256,8.375,8.436,8.56,8.753,8.819,9.024,9.239,9.313,9.313,9.464,9.464,9.542,9.542,9.701,9.701,9.783,9.783,9.865,9.865,9.865,9.865,9.865,9.865,9.95,9.865,9.783,9.701,9.464,9.313,8.819,8.753,8.497,8.315,8.256,8.198
6.54,6.54,6.54,6.54,6.54,6.54,6.504,6.504,6.432,6.396,6.327,6.259,6.225,6.095,6.095,6.032,6.032,6.001,6.001,6.001,6.032,6.032,6.032,6.095,6.095,6.127,6.159,6.159,6.225,6.259,6.327,6.327,6.361,6.361,6.396,6.396,6.396,6.432,6.396,6.396,6.361,6.361,6.327,5.939,0.0,0.0,4.085,3.92,3.88,3.868,3.842,3.817,3.817,3.804,3.804,3.804,3.804,3.804,3.792,3.792,3.792,3.792,3.792,3.792,3.804,0.0,0.0,0.0,0.0,0.0,0.0,0.0,5.543,5.624,5.821,6.001,6.032,6.127,6.225,6.259,6.361,6.432,6.467,6.504,6.54,6.54,6.577,6.577,6.577,6.614,6.614,6.614,6.614,6.614,6.614,6.614,6.614,6.577,6.577,6.54,6.54,6.504,6.432,6.396,6.327,6.259,6.127,6.127,6.095,6.127,6.127,6.159,6.225,6.259,6.327,6.396,6.467,6.504,6.54,6.54,6.54,6.54,6.54,6.577,6.577,6.577,6.54,6.54,6.54,6.467,6.432,6.396,6.327,6.259,6.159,6.095,6.095,6.001,6.001,5.939,5.939,5.909,5.85,5.85,5.792,5.792,5.763,5.763,5.763,5.735,5.735,5.735,5.735,5.735,5.735,5.735,5.735,5.735,5.763,5.763,5.763,5.735,5.735,5.735,5.735,5.735,5.735,5.735,5.735,5.735,5.735,5.735,5.707,5.735,5.707,5.707,5.679,5.679,5.679,5.651,5.651,5.597,5.597,5.57,5.543,5.543,5.517,5.517,5.543,5.543,5.57,5.597,5.651,5.679,5.707,5.763,5.821,5.85,5.85,5.909,5.909,5.909,5.85,5.85,5.821,5.763,5.735,5.707,5.679,5.679,5.679,5.679,5.679,5.707,5.707,5.735,5.735,5.763,5.763,5.792,5.763,5.763,5.763,5.763,5.763,5.735,5.735,5.707,5.707,5.679,5.679,5.679,5.679,5.651,5.651,5.651,5.624,5.597,5.597,5.57,5.57,5.543,5.543,5.517,5.491,5.491,5.465,5.44,5.44,5.415,5.415,5.389,5.389,5.389,5.389,5.389,5.389,5.389,5.389,5.34,5.34,5.34,5.34,5.34,5.34,5.316,5.316,5.268,5.268,5.244,5.244,5.244,5.244,5.244,5.244,5.244,5.268,5.268,5.268,5.316,5.316,5.316,5.34,5.34,5.34,5.34,5.316,5.316,5.316,5.316,5.316,5.268,5.268,5.244,5.22,5.22,5.174,5.151,5.151,5.106,5.084,5.04,5.04,5.04,5.04,5.018,5.018,5.018,4.996,5.018,5.018,5.018,4.996,4.996,4.996,4.996,4.996,4.975,4.975,4.975,4.954,4.954,4.954,4.954,4.954,4.954,4.954,4.975,4.975,4.975,4.975,4.975,4.975,4.975,4.975,4.975,4.975,4.975,4.996,4.996,4.996,4.996,4.996,4.996,4.975,4.954,4.954,4.933,4.912,4.912,4.912,4.912,4.912,4.912,4.912,4.912,4.912,4.912,4.912,4.891,4.891,4.891,4.891,4.871,4.851,4.83,4.83,4.81,4.81,4.81,4.791,4.791,4.81,4.81,4.81,4.81,4.81,4.81,4.81,4.83,4.83,4.83,4.83,4.83,4.83,4.83,4.83,4.83,4.83,4.83,4.81,4.81,4.81,4.81,4.82,0.0,0.0,0.0,0.0,0.0,0.0,0.0,0.0,8.955,0.0,0.0,9.783,9.865,9.95,10.036,10.036,10.036,10.123,10.036,10.036,10.123,10.123,10.123,10.036,10.036,9.95,9.865,9.783,9.701,9.542,9.701,9.701,9.701,9.542,9.464,9.464,9.239,9.166,9.166,8.819,8.623,8.56,8.497,8.256,7.322,0.0,0.0,0.0,0.0,0.0,0.0,0.0,0.0,0.0,0.0,0.0,0.0,0.0,0.0,0.0,0.0,0.0,0.0,0.0,0.0,0.0,0.0,0.0,0.0,0.0,0.0,0.0,0.0,0.0,0.0,0.0,0.0,0.0,0.0,6.888,6.929,6.929,7.12,7.0145,0.0,0.0,6.504,6.467,0.0,0.0,0.0,6.614,0.0,6.8375,6.892624999999999,6.888,7.098,7.183999999999999,7.231,7.511,7.709,7.813,7.919,8.028,8.084,8.198,8.198,8.256,8.315,8.436,8.56,8.623,8.819,8.955,9.024,9.239,9.313,9.464,9.464,9.464,9.464,9.542,9.542,9.542,9.542,9.701,9.701,9.783,9.783,9.783,9.783,9.865,9.865,9.865,9.865,9.783,9.701,9.542,9.464,9.239,8.819,8.623,8.436,8.315,8.256
6.54,6.54,6.577,6.577,6.577,6.54,6.54,6.504,6.432,6.396,6.361,6.259,6.225,6.159,6.095,6.095,6.032,6.032,6.032,6.032,6.095,6.095,6.095,6.095,6.095,6.127,6.159,6.159,6.225,6.225,6.259,6.327,6.327,6.361,6.361,6.361,6.396,6.396,6.396,6.361,6.361,6.361,6.327,6.095,0.0,0.0,0.0,3.933,3.868,3.855,3.842,3.817,3.817,3.804,3.804,3.804,3.804,3.792,3.792,3.792,3.792,3.792,3.792,3.792,3.792,3.804,0.0,0.0,0.0,0.0,0.0,0.0,0.0,5.44,5.679,5.85,6.032,6.095,6.159,6.259,6.361,6.432,6.467,6.504,6.54,6.54,6.577,6.577,6.577,6.614,6.614,6.614,6.614,6.614,6.614,6.614,6.614,6.577,6.577,6.54,6.504,6.467,6.396,6.361,6.259,6.127,6.095,6.095,6.095,6.095,6.127,6.127,6.225,6.259,6.327,6.432,6.504,6.54,6.54,6.577,6.577,6.577,6.577,6.577,6.577,6.577,6.577,6.577,6.577,6.54,6.504,6.467,6.396,6.327,6.259,6.225,6.127,6.095,6.032,6.001,6.001,5.939,5.939,5.909,5.821,5.792,5.792,5.763,5.763,5.735,5.735,5.707,5.735,5.735,5.735,5.735,5.735,5.763,5.763,5.763,5.763,5.763,5.763,5.735,5.735,5.763,5.735,5.763,5.735,5.763,5.735,5.735,5.735,5.735,5.735,5.707,5.679,5.679,5.679,5.651,5.651,5.624,5.597,5.597,5.57,5.543,5.543,5.543,5.57,5.57,5.597,5.651,5.679,5.707,5.792,5.85,5.909,5.909,5.939,5.939,6.001,6.001,5.939,5.909,5.909,5.792,5.763,5.707,5.679,5.679,5.679,5.679,5.679,5.679,5.707,5.707,5.735,5.735,5.763,5.763,5.763,5.763,5.763,5.763,5.763,5.735,5.735,5.735,5.707,5.679,5.679,5.679,5.679,5.679,5.651,5.651,5.624,5.624,5.597,5.597,5.57,5.57,5.543,5.543,5.517,5.491,5.491,5.465,5.44,5.44,5.415,5.415,5.415,5.415,5.415,5.389,5.389,5.389,5.389,5.389,5.34,5.34,5.34,5.34,5.34,5.34,5.34,5.316,5.316,5.268,5.268,5.268,5.268,5.268,5.268,5.268,5.268,5.316,5.34,5.34,5.34,5.34,5.34,5.389,5.389,5.389,5.389,5.34,5.34,5.34,5.316,5.316,5.268,5.268,5.244,5.22,5.174,5.151,5.106,5.106,5.084,5.084,5.04,5.04,5.04,5.04,5.018,5.018,5.018,5.018,5.018,5.018,4.996,4.996,4.996,4.975,4.975,4.975,4.975,4.975,4.975,4.975,4.975,4.975,4.975,4.975,4.996,4.996,4.975,4.975,4.975,4.975,4.975,4.996,4.975,4.975,4.975,4.975,4.975,5.174,5.106,5.106,4.996,4.975,4.975,4.954,4.954,4.933,4.912,4.912,4.912,4.912,4.912,4.912,4.912,4.912,4.912,4.912,4.912,4.912,4.912,4.891,4.891,4.891,4.851,4.83,4.83,4.81,4.81,4.81,4.791,4.791,4.791,4.791,4.81,4.81,4.81,4.81,4.81,4.81,4.81,4.83,4.83,4.83,4.83,4.83,4.83,4.83,4.83,4.83,4.81,4.81,4.81,4.81,4.81,0.0,0.0,0.0,0.0,0.0,0.0,0.0,0.0,9.783,9.95,10.036,10.036,10.036,10.036,10.036,10.123,10.123,10.123,10.123,10.036,10.123,10.036,10.036,9.95,9.865,9.865,9.783,9.701,9.542,9.542,9.542,9.542,9.542,9.464,9.464,9.313,9.313,9.166,9.166,9.024,8.955,8.819,8.753,8.623,8.375,8.198,0.0,0.0,0.0,0.0,0.0,0.0,0.0,0.0,0.0,0.0,0.0,0.0,0.0,0.0,0.0,0.0,0.0,0.0,0.0,0.0,0.0,0.0,0.0,0.0,0.0,0.0,0.0,0.0,0.0,0.0,0.0,0.0,0.0,7.559,7.709,7.54425,7.511,7.415,0.0,0.0,0.0,0.0,0.0,0.0,0.0,6.929,7.0135000000000005,7.098,7.231,7.322,7.415,7.559,7.761,7.919,7.973,8.028,8.084,8.198,8.256,8.315,8.375,8.436,8.497,8.623,8.819,8.955,9.024,9.166,9.239,9.313,9.464,9.464,9.464,9.464,9.464,9.464,9.464,9.464,9.464,9.542,9.542,9.701,9.783,9.783,9.783,9.783,9.783,9.783,9.783,9.701,9.701,9.464,9.313,9.239,8.819,8.623,8.497,8.375,8.256
6.577,6.577,6.54,6.54,6.54,6.54,6.54,6.467,6.396,6.361,6.259,6.225,6.159,6.127,6.095,6.095,6.095,6.032,6.032,6.032,6.095,6.095,6.095,6.095,6.127,6.127,6.127,6.159,6.225,6.225,6.225,6.259,6.327,6.327,6.361,6.361,6.361,6.361,6.396,6.396,6.361,6.361,6.361,6.225,5.909,0.0,0.0,3.946,3.868,3.855,3.829,3.817,3.817,3.804,3.804,3.804,3.804,3.792,3.792,3.792,3.792,3.792,3.792,3.792,3.792,3.792,3.817,0.0,0.0,0.0,0.0,0.0,0.0,5.244,5.597,5.821,6.001,6.032,6.159,6.259,6.327,6.396,6.396,6.432,6.467,6.54,6.54,6.54,6.577,6.577,6.577,6.614,6.614,6.614,6.614,6.614,6.614,6.577,6.577,6.54,6.504,6.467,6.396,6.361,6.259,6.159,6.095,6.095,6.095,6.095,6.127,6.159,6.225,6.327,6.396,6.467,6.54,6.577,6.577,6.614,6.614,6.614,6.614,6.652,6.652,6.652,6.614,6.614,6.614,6.577,6.54,6.54,6.432,6.396,6.327,6.259,6.225,6.159,6.127,6.095,6.095,6.032,6.001,5.939,5.85,5.821,5.792,5.792,5.763,5.763,5.735,5.735,5.735,5.735,5.735,5.735,5.735,5.763,5.763,5.763,5.763,5.763,5.763,5.763,5.763,5.763,5.763,5.735,5.735,5.735,5.735,5.735,5.735,5.735,5.735,5.707,5.707,5.679,5.679,5.679,5.651,5.651,5.624,5.597,5.597,5.57,5.57,5.57,5.597,5.624,5.651,5.679,5.735,5.792,5.821,5.909,6.001,6.032,6.001,6.032,6.032,6.032,6.001,6.001,5.939,5.792,5.763,5.735,5.679,5.679,5.679,5.651,5.679,5.679,5.679,5.707,5.735,5.735,5.735,5.763,5.792,5.792,5.792,5.763,5.763,5.763,5.735,5.735,5.707,5.707,5.679,5.679,5.679,5.679,5.651,5.651,5.651,5.624,5.597,5.597,5.57,5.57,5.543,5.543,5.543,5.517,5.491,5.465,5.44,5.44,5.44,5.415,5.415,5.415,5.415,5.389,5.389,5.389,5.389,5.389,5.389,5.389,5.34,5.34,5.34,5.34,5.34,5.34,5.34,5.316,5.316,5.316,5.316,5.316,5.316,5.316,5.34,5.34,5.34,5.389,5.389,5.389,5.389,5.389,5.389,5.389,5.389,5.389,5.389,5.389,5.34,5.316,5.316,5.268,5.244,5.22,5.174,5.151,5.106,5.106,5.084,5.084,5.04,5.04,5.04,5.04,5.018,5.018,5.018,5.018,5.018,4.996,4.996,4.996,4.975,4.975,4.975,4.975,4.975,4.954,4.954,4.975,4.975,4.975,4.975,4.975,4.975,4.975,4.975,4.975,4.975,4.954,4.954,4.954,4.954,4.954,4.954,4.954,4.954,4.975,4.996,4.996,4.975,4.975,4.954,4.954,4.933,4.933,4.912,4.912,4.912,4.912,4.912,4.912,4.912,4.912,4.912,4.912,4.912,4.912,4.912,4.912,4.891,4.891,4.871,4.851,4.83,4.81,4.81,4.791,4.771,4.791,4.791,4.81,4.81,4.81,4.81,4.81,4.81,4.81,4.81,4.81,4.81,4.81,4.83,4.83,4.81,4.81,4.81,4.81,4.81,4.81,4.81,4.81,4.851,0.0,0.0,0.0,0.0,0.0,0.0,0.0,9.95,10.036,10.036,10.123,10.123,10.036,10.123,10.123,10.212,10.123,10.123,10.123,10.036,10.036,10.036,9.95,9.865,9.783,9.701,9.701,9.464,9.313,9.313,9.464,9.464,9.464,9.313,9.313,9.313,9.239,9.166,9.024,8.955,8.819,8.819,8.753,8.623,8.497,8.375,8.256,8.198,0.0,0.0,0.0,0.0,0.0,0.0,0.0,0.0,0.0,0.0,0.0,0.0,0.0,0.0,0.0,0.0,0.0,0.0,0.0,0.0,0.0,0.0,0.0,0.0,0.0,0.0,0.0,0.0,0.0,0.0,0.0,0.0,7.973,8.028,8.028,7.973,7.973,7.973,0.0,0.0,0.0,0.0,0.0,7.813,7.866,7.919,7.919,7.919,7.973,7.973,8.028,8.084,8.198,8.198,8.256,8.315,8.436,8.497,8.56,8.623,8.753,8.819,8.955,9.024,9.166,9.239,9.313,9.464,9.464,9.542,9.464,9.464,9.464,9.464,9.464,9.464,9.464,9.464,9.542,9.542,9.701,9.783,9.783,9.783,9.865,9.783,9.783,9.701,9.701,9.464,9.313,9.239,8.819,8.623,8.497,8.375,8.315
6.504,6.504,6.504,6.504,6.467,6.432,6.396,6.361,6.259,6.225,6.159,6.127,6.095,6.032,6.032,6.032,6.001,6.001,6.032,6.032,6.032,6.032,6.032,6.032,6.032,6.095,6.095,6.127,6.159,6.159,6.225,6.225,6.259,6.259,6.327,6.327,6.361,6.396,6.396,6.361,6.361,6.361,6.361,6.327,6.032,0.0,0.0,0.0,0.0,3.829,3.817,3.817,3.817,3.804,3.804,3.804,3.792,3.792,3.792,3.792,3.792,3.792,3.792,3.792,3.792,3.792,3.804,3.855,0.0,0.0,0.0,0.0,5.04,5.305,5.57,5.821,5.939,6.032,6.127,6.159,6.259,6.327,6.361,6.396,6.432,6.432,6.467,6.504,6.504,6.54,6.54,6.577,6.577,6.577,6.577,6.577,6.577,6.577,6.54,6.504,6.467,6.432,6.396,6.327,6.259,6.127,6.095,6.127,6.095,6.127,6.127,6.159,6.225,6.361,6.432,6.54,6.577,6.614,6.614,6.652,6.69,6.69,6.69,6.69,6.69,6.69,6.652,6.614,6.614,6.614,6.577,6.54,6.504,6.467,6.396,6.327,6.259,6.225,6.159,6.127,6.127,6.095,6.032,6.001,6.001,5.939,5.821,5.821,5.792,5.792,5.763,5.735,5.735,5.735,5.735,5.735,5.735,5.763,5.763,5.763,5.763,5.763,5.763,5.763,5.763,5.763,5.735,5.735,5.735,5.735,5.735,5.735,5.735,5.735,5.735,5.735,5.707,5.707,5.707,5.679,5.679,5.651,5.651,5.651,5.624,5.624,5.624,5.624,5.651,5.651,5.679,5.735,5.792,5.85,5.939,6.001,6.095,6.095,6.127,6.127,6.127,6.095,6.095,6.032,5.939,5.909,5.792,5.735,5.707,5.679,5.679,5.679,5.679,5.679,5.679,5.679,5.707,5.735,5.763,5.763,5.763,5.763,5.763,5.763,5.763,5.763,5.735,5.735,5.707,5.707,5.707,5.679,5.679,5.679,5.651,5.651,5.651,5.624,5.624,5.597,5.597,5.57,5.543,5.543,5.543,5.517,5.491,5.465,5.465,5.44,5.44,5.415,5.415,5.415,5.415,5.389,5.389,5.389,5.389,5.389,5.389,5.389,5.389,5.389,5.389,5.34,5.34,5.34,5.34,5.34,5.34,5.34,5.34,5.34,5.34,5.34,5.389,5.389,5.389,5.389,5.415,5.415,5.415,5.44,5.415,5.415,5.389,5.389,5.389,5.389,5.316,5.316,5.268,5.244,5.22,5.174,5.174,5.151,5.106,5.106,5.084,5.04,5.04,5.04,5.04,5.04,5.018,5.018,5.018,5.018,5.018,4.996,4.996,4.996,4.996,4.975,4.975,4.975,4.954,4.9697499999999994,4.975,4.975,4.996,4.996,4.996,4.996,5.04,5.04,5.106,5.1610000000000005,5.174,5.174,5.174,5.26275,5.244,5.389,5.517,5.679,5.821,6.225,6.504,6.577,0.0,0.0,0.0,0.0,0.0,8.466999999999999,8.648,8.648,8.648,8.648,8.715,8.715,6.8134999999999994,4.912,4.933,4.933,4.933,4.912,4.912,4.912,4.891,4.891,4.871,4.851,4.83,4.83,4.81,4.81,4.791,4.791,4.791,4.81,4.81,4.81,4.81,4.81,4.81,4.81,4.81,4.81,4.81,4.81,4.81,4.81,4.81,4.81,4.81,4.81,4.81,4.81,4.81,4.851,5.04,0.0,0.0,0.0,0.0,0.0,0.0,0.0,9.95,10.036,10.036,10.123,10.123,10.123,10.212,10.212,10.212,10.212,10.212,10.123,10.123,10.123,10.036,9.95,9.865,9.783,9.701,9.542,9.313,9.313,9.239,9.239,9.239,9.239,9.313,9.239,9.239,9.166,9.166,9.024,8.955,8.819,8.753,8.623,8.623,8.56,8.497,8.375,8.375,8.315,0.0,0.0,0.0,0.0,0.0,0.0,0.0,0.0,0.0,0.0,0.0,0.0,0.0,0.0,0.0,0.0,0.0,0.0,0.0,0.0,0.0,0.0,0.0,0.0,0.0,0.0,0.0,0.0,0.0,0.0,0.0,0.0,0.0,0.0,0.0,0.0,0.0,0.0,0.0,0.0,0.0,8.497,8.375,8.375,8.375,8.375,8.315,8.315,8.315,8.315,8.375,8.436,8.436,8.497,8.56,8.623,8.623,8.623,8.753,8.819,8.955,9.024,9.166,9.166,9.166,9.239,9.313,9.313,9.464,9.313,9.313,9.313,9.313,9.464,9.464,9.464,9.464,9.464,9.542,9.701,9.783,9.783,9.783,9.783,9.783,9.783,9.701,9.542,9.464,9.313,9.239,8.819,8.623,8.497,8.375,8.315
6.432,6.396,6.396,6.396,6.361,6.327,6.259,6.225,6.159,6.127,6.095,6.032,6.001,6.001,6.001,6.032,6.001,6.001,6.032,6.032,6.032,6.032,6.032,6.095,6.032,6.095,6.095,6.127,6.159,6.159,6.225,6.225,6.259,6.327,6.327,6.361,6.361,6.396,6.396,6.396,6.396,6.396,6.361,6.327,6.259,5.939,0.0,0.0,0.0,3.829,3.817,3.817,3.804,3.804,3.804,3.804,3.804,3.792,3.792,3.792,3.792,3.792,3.792,3.792,3.792,3.792,3.792,3.829,3.946,0.0,0.0,0.0,4.996,5.283,5.57,5.821,5.939,6.001,6.032,6.127,6.225,6.259,6.259,6.327,6.361,6.361,6.361,6.396,6.432,6.467,6.504,6.54,6.54,6.54,6.54,6.54,6.577,6.54,6.54,6.467,6.467,6.396,6.361,6.327,6.159,6.127,6.095,6.095,6.095,6.127,6.127,6.159,6.259,6.361,6.467,6.54,6.577,6.614,6.652,6.69,6.69,6.729,6.69,6.729,6.69,6.69,6.69,6.69,6.614,6.614,6.577,6.577,6.54,6.467,6.432,6.396,6.327,6.327,6.259,6.225,6.225,6.159,6.127,6.095,6.032,6.001,5.909,5.85,5.821,5.792,5.792,5.763,5.735,5.763,5.763,5.763,5.735,5.763,5.763,5.763,5.763,5.763,5.763,5.735,5.735,5.763,5.735,5.735,5.735,5.735,5.735,5.735,5.735,5.735,5.735,5.735,5.707,5.707,5.707,5.679,5.679,5.679,5.651,5.651,5.651,5.651,5.651,5.651,5.679,5.707,5.763,5.821,5.85,5.939,6.032,6.095,6.127,6.159,6.159,6.159,6.127,6.127,6.095,6.032,6.001,5.909,5.792,5.735,5.707,5.679,5.679,5.679,5.679,5.679,5.679,5.707,5.707,5.735,5.735,5.763,5.763,5.763,5.763,5.763,5.763,5.735,5.735,5.735,5.707,5.707,5.679,5.679,5.679,5.679,5.651,5.651,5.651,5.624,5.624,5.597,5.597,5.57,5.57,5.543,5.543,5.517,5.491,5.465,5.465,5.44,5.415,5.415,5.415,5.415,5.415,5.389,5.389,5.389,5.389,5.389,5.389,5.389,5.389,5.389,5.415,5.415,5.415,5.415,5.415,5.415,5.389,5.389,5.389,5.389,5.389,5.389,5.389,5.415,5.415,5.415,5.415,5.415,5.415,5.415,5.415,5.389,5.389,5.389,5.34,5.316,5.316,5.268,5.268,5.22,5.22,5.174,5.151,5.106,5.106,5.084,5.084,5.084,5.04,5.04,5.04,5.04,5.04,5.04,5.04,5.04,5.018,5.018,5.018,5.018,4.996,4.996,4.996,4.996,4.996,4.996,4.996,4.996,4.996,5.018,5.018,5.018,5.0565,5.084,5.268,5.389,5.389,5.44,5.57,5.679,5.85,6.225,0.0,0.0,0.0,7.732,8.1025,0.0,0.0,0.0,0.0,0.0,0.0,12.001,12.384,12.384,12.384,12.384,12.518,12.518,9.66575,0.0,0.0,4.954,4.912,4.912,4.912,4.912,4.891,4.891,4.871,4.851,4.83,4.83,4.81,4.81,4.81,4.81,4.81,4.81,4.81,4.81,4.81,4.81,4.81,4.81,4.81,4.81,4.81,4.81,4.81,4.81,4.81,4.81,4.81,4.83,4.851,4.891,4.954,5.244,0.0,0.0,0.0,0.0,0.0,0.0,0.0,9.783,9.865,10.036,10.123,10.123,10.212,10.212,10.212,10.212,10.212,10.212,10.212,10.212,10.123,10.123,10.123,10.036,9.865,9.783,9.701,9.542,9.464,9.313,9.239,9.239,9.239,9.239,9.313,9.239,9.239,9.239,9.166,9.024,8.955,8.753,8.753,8.623,8.56,8.436,8.375,8.375,8.256,8.344999999999999,0.0,0.0,0.0,0.0,0.0,0.0,0.0,0.0,0.0,0.0,0.0,0.0,0.0,0.0,0.0,0.0,0.0,0.0,0.0,0.0,0.0,0.0,0.0,0.0,0.0,0.0,0.0,0.0,0.0,0.0,0.0,0.0,0.0,0.0,0.0,0.0,0.0,0.0,0.0,0.0,0.0,9.464,9.239,9.239,9.239,9.166,9.166,8.955,8.819,8.819,8.753,8.753,8.819,8.753,8.753,8.753,8.819,8.819,8.819,9.024,9.024,9.166,9.166,9.239,9.239,9.313,9.313,9.464,9.313,9.239,9.313,9.313,9.313,9.464,9.464,9.464,9.464,9.464,9.701,9.701,9.783,9.783,9.701,9.783,9.783,9.783,9.701,9.542,9.464,9.313,9.166,8.819,8.753,8.497,8.375,8.315
6.327,6.259,6.259,6.259,6.225,6.159,6.127,6.095,6.032,6.001,6.001,6.001,5.939,6.001,6.001,6.001,6.032,6.001,6.001,6.001,6.001,6.001,6.032,6.032,6.032,6.032,6.032,6.127,6.127,6.159,6.225,6.225,6.259,6.259,6.327,6.361,6.361,6.396,6.396,6.396,6.361,6.361,6.361,6.327,6.225,6.127,5.821,0.0,0.0,3.855,3.829,3.817,3.817,3.804,3.804,3.804,3.804,3.804,3.792,3.792,3.792,3.792,3.792,3.792,3.792,3.792,3.792,3.829,3.946,4.0975,4.249,0.0,0.0,0.0,5.57,5.821,5.939,6.001,6.032,6.095,6.127,6.159,6.159,6.225,6.225,6.259,6.259,6.327,6.327,6.361,6.396,6.432,6.467,6.467,6.504,6.54,6.54,6.54,6.504,6.432,6.432,6.361,6.327,6.259,6.127,6.127,6.095,6.095,6.127,6.127,6.159,6.225,6.259,6.396,6.504,6.54,6.614,6.652,6.69,6.69,6.729,6.729,6.729,6.729,6.729,6.729,6.69,6.69,6.652,6.652,6.614,6.577,6.54,6.54,6.467,6.432,6.396,6.361,6.327,6.327,6.259,6.225,6.159,6.159,6.127,6.095,5.939,5.909,5.909,5.821,5.821,5.792,5.763,5.763,5.763,5.763,5.735,5.763,5.763,5.763,5.763,5.763,5.763,5.735,5.735,5.735,5.735,5.707,5.707,5.735,5.707,5.735,5.707,5.707,5.707,5.707,5.707,5.707,5.707,5.707,5.679,5.679,5.679,5.679,5.679,5.679,5.679,5.707,5.735,5.792,5.821,5.909,6.001,6.001,6.095,6.127,6.159,6.159,6.159,6.159,6.127,6.127,6.095,6.032,5.939,5.909,5.763,5.735,5.707,5.679,5.679,5.679,5.679,5.679,5.679,5.679,5.707,5.707,5.735,5.735,5.735,5.763,5.735,5.735,5.735,5.735,5.707,5.707,5.707,5.707,5.679,5.679,5.679,5.679,5.679,5.651,5.651,5.624,5.624,5.597,5.597,5.57,5.57,5.543,5.543,5.517,5.491,5.465,5.465,5.44,5.44,5.415,5.415,5.415,5.415,5.415,5.389,5.389,5.415,5.415,5.415,5.415,5.415,5.415,5.415,5.415,5.415,5.415,5.415,5.389,5.389,5.389,5.389,5.415,5.415,5.415,5.389,5.389,5.389,5.389,5.389,5.34,5.34,5.34,5.34,5.316,5.268,5.268,5.268,5.268,5.268,5.244,5.244,5.174,5.174,5.151,5.151,5.106,5.106,5.084,5.084,5.084,5.084,5.084,5.084,5.04,5.04,5.084,5.04,5.04,5.04,5.04,5.04,5.018,5.018,5.018,5.018,5.018,5.018,5.018,5.018,5.018,5.04,5.04,5.084,5.084,5.084,5.151,5.34,5.543,5.651,0.0,0.0,6.997,0.0,9.052,0.0,0.0,0.0,9.239,9.701,9.9565,10.212,10.583,10.779,11.087,11.641,12.001,12.384,12.384,12.384,12.518,12.518,12.518,12.518,0.0,0.0,0.0,4.891,4.891,4.891,4.891,4.891,4.871,4.871,4.851,4.851,4.83,4.83,4.83,4.83,4.81,4.81,4.81,4.81,4.81,4.81,4.81,4.81,4.81,4.81,4.81,4.81,4.81,4.81,4.81,4.81,4.81,4.81,4.851,4.912,5.04,5.1935,5.34,0.0,0.0,0.0,0.0,0.0,0.0,0.0,9.783,9.865,9.95,10.123,10.123,10.212,10.212,10.212,10.302,10.302,10.302,10.212,10.212,10.212,10.212,10.123,10.123,9.95,9.865,9.865,9.783,9.701,9.701,9.464,9.542,9.542,9.542,9.542,9.464,9.464,9.313,9.313,9.166,8.955,8.819,8.753,8.623,8.623,8.497,8.436,8.436,8.375,8.375,0.0,0.0,0.0,0.0,0.0,0.0,0.0,0.0,0.0,0.0,0.0,0.0,0.0,0.0,0.0,0.0,0.0,0.0,0.0,0.0,0.0,0.0,0.0,0.0,0.0,0.0,0.0,0.0,0.0,0.0,0.0,0.0,0.0,0.0,0.0,9.239,9.3905,9.542,9.621500000000001,9.701,9.701,9.542,9.542,9.542,9.464,9.313,9.313,9.239,9.166,9.166,9.024,9.024,9.024,8.955,8.955,8.955,8.955,9.024,9.024,9.166,9.239,9.239,9.239,9.313,9.313,9.464,9.464,9.464,9.464,9.313,9.313,9.313,9.464,9.464,9.313,9.464,9.464,9.542,9.542,9.701,9.701,9.701,9.701,9.783,9.783,9.701,9.701,9.542,9.464,9.313,9.239,8.955,8.753,8.56,8.375,8.315
6.159,6.127,6.127,6.127,6.095,6.032,6.001,5.939,5.939,5.939,5.939,5.909,5.939,5.939,5.939,5.939,6.001,6.001,6.032,6.032,6.032,6.032,6.032,6.032,6.032,6.095,6.095,6.127,6.159,6.225,6.225,6.259,6.259,6.259,6.327,6.327,6.361,6.361,6.396,6.361,6.361,6.327,6.327,6.259,6.225,6.095,5.821,0.0,0.0,3.88,3.868,3.829,3.817,3.817,3.804,3.804,3.804,3.804,3.792,3.792,3.792,3.792,3.792,3.792,3.792,3.792,3.792,3.817,3.933,0.0,0.0,0.0,0.0,0.0,5.57,5.821,5.939,5.909,6.001,6.032,6.032,6.095,6.127,6.127,6.127,6.159,6.159,6.159,6.225,6.259,6.327,6.361,6.396,6.432,6.467,6.467,6.504,6.504,6.467,6.432,6.396,6.361,6.259,6.159,6.127,6.095,6.095,6.127,6.127,6.127,6.159,6.259,6.361,6.432,6.54,6.577,6.614,6.652,6.69,6.729,6.729,6.729,6.729,6.729,6.729,6.69,6.69,6.69,6.652,6.652,6.614,6.577,6.577,6.54,6.504,6.467,6.432,6.396,6.396,6.361,6.361,6.327,6.259,6.225,6.159,6.127,6.032,5.939,5.909,5.85,5.821,5.792,5.792,5.763,5.763,5.763,5.763,5.763,5.763,5.763,5.763,5.763,5.763,5.735,5.735,5.735,5.735,5.707,5.707,5.707,5.707,5.707,5.707,5.707,5.707,5.707,5.707,5.707,5.679,5.707,5.679,5.679,5.679,5.679,5.679,5.707,5.735,5.763,5.792,5.85,5.909,5.939,6.032,6.095,6.095,6.127,6.159,6.159,6.159,6.127,6.127,6.095,6.032,6.001,5.939,5.792,5.763,5.735,5.707,5.679,5.679,5.679,5.679,5.679,5.679,5.679,5.707,5.707,5.707,5.707,5.735,5.735,5.735,5.735,5.707,5.707,5.707,5.707,5.707,5.679,5.679,5.679,5.679,5.679,5.679,5.651,5.651,5.624,5.624,5.597,5.597,5.57,5.57,5.543,5.543,5.517,5.491,5.465,5.44,5.44,5.44,5.415,5.415,5.389,5.389,5.389,5.389,5.389,5.415,5.415,5.415,5.415,5.415,5.415,5.415,5.415,5.415,5.415,5.415,5.389,5.389,5.389,5.389,5.389,5.389,5.389,5.389,5.389,5.34,5.34,5.316,5.316,5.316,5.268,5.268,5.244,5.244,5.22,5.22,5.22,5.22,5.174,5.174,5.151,5.151,5.151,5.151,5.151,5.084,5.084,5.084,5.084,5.084,5.084,5.084,5.084,5.084,5.084,5.084,5.084,5.084,5.084,5.04,5.04,5.04,5.04,5.084,5.084,5.084,5.084,5.084,5.084,5.106,5.106,5.151,5.151,5.151,5.268,5.44,5.597,0.0,0.0,0.0,8.315,10.097,11.879,12.384,11.194,10.68,10.488,10.302,10.394,10.488,10.68,10.88,11.194,11.879,12.254,12.384,12.384,12.518,12.518,12.518,12.518,12.384,12.384,0.0,0.0,0.0,4.912,4.891,4.891,4.891,4.891,4.871,4.851,4.851,4.851,4.851,4.83,4.83,4.83,4.83,4.83,4.83,4.83,4.83,4.81,4.81,4.81,4.83,4.81,4.81,4.81,4.81,4.81,4.81,4.81,4.83,4.912,5.084,5.22,5.44,0.0,0.0,0.0,0.0,0.0,0.0,0.0,9.239,9.701,9.783,9.95,10.036,10.123,10.123,10.212,10.212,10.302,10.302,10.302,10.302,10.302,10.212,10.212,10.212,10.212,10.212,10.123,10.036,9.95,9.95,9.865,9.783,9.783,9.783,9.783,9.783,9.701,9.542,9.542,9.464,9.313,9.166,9.024,8.819,8.623,8.623,8.56,8.497,8.497,8.497,8.497,8.497,8.497,8.56,8.256,0.0,0.0,0.0,0.0,0.0,0.0,0.0,0.0,0.0,0.0,0.0,0.0,0.0,0.0,0.0,0.0,0.0,0.0,0.0,0.0,0.0,0.0,0.0,0.0,0.0,0.0,0.0,0.0,0.0,0.0,8.955,9.166,9.313,9.464,9.542,9.701,9.542,9.542,9.701,9.542,9.542,9.464,9.542,9.464,9.464,9.313,9.239,9.239,9.239,9.166,9.166,9.166,9.166,9.166,9.166,9.239,9.313,9.313,9.464,9.464,9.464,9.464,9.542,9.542,9.464,9.313,9.313,9.313,9.464,9.464,9.464,9.464,9.464,9.542,9.701,9.701,9.701,9.701,9.783,9.783,9.783,9.701,9.701,9.542,9.464,9.313,9.239,8.955,8.623,8.497,8.375,8.256
6.032,6.001,6.001,5.939,6.001,5.939,5.85,5.85,5.85,5.85,5.909,5.85,5.909,5.939,5.939,5.939,6.001,6.032,6.032,6.095,6.095,6.095,6.095,6.095,6.095,6.127,6.159,6.225,6.225,6.259,6.327,6.327,6.327,6.327,6.327,6.361,6.361,6.396,6.361,6.361,6.361,6.361,6.327,6.327,6.225,6.095,5.792,4.393,4.1495,3.906,3.88,3.842,3.817,3.817,3.817,3.804,3.804,3.804,3.804,3.792,3.792,3.792,3.792,3.792,3.792,3.792,3.792,3.817,3.973,0.0,0.0,0.0,0.0,0.0,5.597,5.85,5.939,5.939,6.001,6.001,6.001,6.032,6.032,6.032,6.032,6.032,6.032,6.095,6.095,6.127,6.225,6.259,6.327,6.327,6.396,6.396,6.432,6.432,6.396,6.361,6.361,6.259,6.225,6.159,6.095,6.095,6.095,6.127,6.127,6.127,6.225,6.259,6.361,6.467,6.54,6.577,6.614,6.69,6.69,6.69,6.729,6.729,6.69,6.69,6.69,6.69,6.69,6.69,6.652,6.614,6.614,6.614,6.577,6.54,6.54,6.54,6.504,6.467,6.467,6.432,6.396,6.361,6.327,6.259,6.159,6.127,6.032,5.939,5.909,5.85,5.821,5.792,5.792,5.792,5.792,5.763,5.763,5.735,5.735,5.763,5.763,5.763,5.735,5.735,5.735,5.735,5.735,5.707,5.707,5.707,5.707,5.707,5.707,5.707,5.707,5.707,5.707,5.679,5.679,5.707,5.679,5.679,5.679,5.707,5.707,5.735,5.792,5.821,5.85,5.909,5.939,6.001,6.095,6.095,6.127,6.127,6.159,6.159,6.127,6.095,6.095,6.032,6.001,5.939,5.909,5.792,5.763,5.735,5.707,5.707,5.679,5.679,5.679,5.679,5.679,5.679,5.679,5.707,5.707,5.707,5.707,5.707,5.707,5.707,5.707,5.707,5.679,5.679,5.679,5.679,5.679,5.679,5.679,5.679,5.679,5.651,5.651,5.624,5.624,5.597,5.597,5.57,5.57,5.543,5.543,5.517,5.491,5.465,5.44,5.44,5.44,5.415,5.415,5.389,5.389,5.389,5.389,5.389,5.389,5.389,5.389,5.389,5.415,5.415,5.415,5.415,5.389,5.389,5.389,5.389,5.389,5.389,5.389,5.389,5.389,5.34,5.34,5.316,5.316,5.316,5.268,5.268,5.244,5.244,5.22,5.22,5.174,5.174,5.174,5.174,5.174,5.174,5.174,5.174,5.174,5.174,5.174,5.151,5.151,5.151,5.106,5.106,5.151,5.106,5.106,5.084,5.084,5.106,5.106,5.106,5.106,5.106,5.084,5.106,5.106,5.106,5.151,5.151,5.174,5.174,5.174,5.174,5.22,5.22,5.22,5.22,5.244,5.465,5.679,5.821,0.0,0.0,7.186,8.315,10.4165,12.518,12.793,12.384,11.194,10.88,10.583,10.488,10.583,10.779,10.982,11.302,11.879,12.254,12.384,12.384,12.518,12.518,12.518,12.518,12.518,12.384,12.384,0.0,0.0,0.0,4.912,4.912,4.891,4.891,4.871,4.871,4.851,4.851,4.851,4.851,4.851,4.83,4.851,4.83,4.83,4.83,4.83,4.83,4.83,4.83,4.81,4.81,4.81,4.81,4.81,4.81,4.81,4.81,4.83,4.954,5.135,5.316,0.0,0.0,0.0,0.0,0.0,0.0,0.0,8.955,9.313,9.542,9.701,9.865,9.95,10.036,10.123,10.212,10.212,10.212,10.302,10.302,10.302,10.302,10.302,10.302,10.302,10.302,10.212,10.212,10.212,10.212,10.212,10.123,10.036,10.036,9.95,9.95,9.95,9.865,9.783,9.701,9.701,9.542,9.239,9.166,8.955,8.819,8.753,8.753,8.753,8.623,8.753,8.819,8.819,8.955,9.024,8.753,8.198,6.8315,5.465,0.0,0.0,0.0,0.0,0.0,0.0,0.0,0.0,0.0,0.0,0.0,0.0,0.0,0.0,0.0,0.0,0.0,0.0,0.0,0.0,0.0,0.0,0.0,9.239,8.955,8.955,8.819,8.819,9.024,9.166,9.239,9.313,9.464,9.464,9.464,9.542,9.701,9.701,9.701,9.701,9.542,9.542,9.542,9.313,9.313,9.239,9.239,9.239,9.239,9.239,9.239,9.313,9.313,9.464,9.464,9.464,9.464,9.542,9.542,9.542,9.542,9.464,9.464,9.464,9.464,9.464,9.464,9.464,9.542,9.542,9.701,9.701,9.701,9.783,9.783,9.783,9.783,9.783,9.783,9.701,9.701,9.464,9.313,9.239,8.955,8.753,8.56,8.375,8.315
5.909,5.909,5.909,5.821,5.821,5.821,5.763,5.763,5.763,5.792,5.792,5.821,5.85,5.909,5.909,5.939,6.001,6.095,6.095,6.095,6.095,6.159,6.159,6.159,6.159,6.159,6.225,6.225,6.327,6.327,6.327,6.327,6.327,6.327,6.361,6.396,6.467,6.467,6.467,6.467,6.432,6.432,6.396,6.361,6.327,6.095,5.735,4.834,4.233,4.083,3.933,3.855,3.817,3.817,3.817,3.817,3.804,3.804,3.804,3.804,3.792,3.792,3.792,3.792,3.792,3.792,3.792,3.804,0.0,0.0,0.0,0.0,0.0,0.0,5.517,5.735,5.939,5.939,5.939,5.939,6.001,6.001,6.001,6.001,5.939,5.939,5.939,6.001,6.032,6.095,6.127,6.159,6.225,6.259,6.327,6.361,6.361,6.361,6.327,6.259,6.259,6.225,6.225,6.159,6.095,6.095,6.095,6.127,6.127,6.159,6.225,6.259,6.361,6.432,6.54,6.577,6.614,6.614,6.652,6.69,6.69,6.69,6.69,6.69,6.652,6.652,6.652,6.652,6.614,6.614,6.614,6.577,6.577,6.54,6.54,6.54,6.54,6.504,6.504,6.504,6.467,6.396,6.361,6.327,6.225,6.127,6.095,5.939,5.909,5.85,5.821,5.821,5.792,5.792,5.792,5.792,5.792,5.792,5.792,5.792,5.763,5.763,5.763,5.735,5.735,5.735,5.735,5.735,5.735,5.735,5.735,5.707,5.707,5.707,5.707,5.679,5.707,5.707,5.707,5.707,5.707,5.707,5.707,5.735,5.763,5.792,5.85,5.85,5.909,5.939,6.001,6.032,6.095,6.095,6.127,6.127,6.127,6.127,6.127,6.095,6.001,5.939,5.909,5.85,5.821,5.763,5.763,5.735,5.735,5.707,5.679,5.679,5.679,5.679,5.679,5.679,5.679,5.679,5.679,5.679,5.679,5.679,5.679,5.679,5.679,5.679,5.679,5.679,5.679,5.679,5.679,5.679,5.679,5.679,5.651,5.651,5.651,5.624,5.597,5.597,5.597,5.57,5.57,5.543,5.543,5.517,5.491,5.465,5.44,5.44,5.415,5.415,5.389,5.389,5.389,5.34,5.34,5.34,5.34,5.34,5.34,5.34,5.389,5.389,5.389,5.389,5.389,5.389,5.389,5.389,5.389,5.389,5.34,5.34,5.34,5.34,5.316,5.316,5.268,5.268,5.244,5.244,5.244,5.22,5.22,5.22,5.174,5.174,5.174,5.174,5.174,5.174,5.174,5.174,5.174,5.22,5.22,5.22,5.174,5.174,5.151,5.174,5.174,5.151,5.151,5.151,5.151,5.174,5.174,5.174,5.174,5.151,5.151,5.151,5.174,5.22,5.244,5.244,5.268,5.268,5.316,5.316,5.316,5.268,5.316,5.316,5.316,5.57,6.001,6.54,0.0,0.0,0.0,9.239,9.7705,10.302,12.518,12.518,11.641,11.879,11.879,11.879,11.879,11.641,11.641,11.879,12.001,12.254,12.384,12.254,12.384,12.384,12.384,12.384,12.254,12.254,12.001,11.879,0.0,0.0,0.0,4.912,4.912,4.891,4.891,4.871,4.851,4.851,4.851,4.851,4.851,4.851,4.851,4.851,4.851,4.851,4.83,4.83,4.83,4.83,4.81,4.81,4.81,4.81,4.81,4.81,4.81,4.81,4.851,5.106,5.319,5.57,0.0,0.0,0.0,7.322,8.084,8.436,8.955,9.239,9.464,9.542,9.701,9.865,9.95,10.036,10.123,10.212,10.212,10.302,10.302,10.302,10.302,10.302,10.302,10.394,10.394,10.394,10.302,10.302,10.302,10.302,10.302,10.302,10.302,10.302,10.212,10.212,10.212,10.123,10.036,9.95,9.865,9.783,9.542,9.239,9.166,9.024,9.024,9.024,9.166,9.166,9.239,9.313,9.542,9.701,9.783,9.542,8.870000000000001,7.780000000000001,6.69,5.597,5.465,5.316,5.151,5.018,5.04,0.0,0.0,0.0,0.0,0.0,0.0,0.0,0.0,0.0,0.0,0.0,0.0,10.036,9.95,9.865,9.783,9.542,9.464,9.239,8.955,8.819,8.819,8.819,8.955,9.024,9.166,9.239,9.313,9.464,9.542,9.542,9.542,9.701,9.701,9.542,9.542,9.542,9.464,9.464,9.313,9.239,9.313,9.239,9.239,9.239,9.239,9.313,9.464,9.464,9.542,9.542,9.464,9.542,9.542,9.542,9.542,9.464,9.464,9.464,9.464,9.542,9.542,9.542,9.542,9.701,9.783,9.783,9.865,9.865,9.865,9.865,9.783,9.783,9.701,9.701,9.542,9.464,9.313,8.955,8.753,8.56,8.436,8.315
5.909,5.85,5.85,5.821,5.821,5.792,5.763,5.763,5.763,5.792,5.821,5.821,5.85,5.85,5.939,6.001,6.032,6.095,6.095,6.127,6.127,6.159,6.225,6.225,6.225,6.225,6.259,6.259,6.361,6.361,6.361,6.361,6.396,6.432,6.432,6.504,6.54,6.54,6.54,6.54,6.54,6.54,6.467,6.432,6.361,6.095,5.735,4.975,4.28,4.1355,4.02775,3.92,3.829,3.817,3.817,3.817,3.804,3.804,3.804,3.804,3.804,3.792,3.792,3.792,3.792,3.792,3.792,3.792,0.0,0.0,0.0,0.0,0.0,0.0,5.316,5.651,5.85,5.939,5.939,5.939,6.001,6.001,5.939,5.939,5.939,5.939,5.909,5.939,5.939,6.032,6.095,6.127,6.127,6.159,6.225,6.259,6.259,6.259,6.259,6.225,6.225,6.159,6.127,6.127,6.095,6.095,6.001,6.032,6.127,6.225,6.225,6.327,6.396,6.467,6.54,6.577,6.614,6.614,6.614,6.614,6.652,6.652,6.652,6.652,6.614,6.614,6.614,6.614,6.614,6.614,6.577,6.577,6.577,6.577,6.54,6.54,6.54,6.54,6.504,6.504,6.467,6.432,6.361,6.327,6.225,6.159,6.095,5.939,5.939,5.909,5.85,5.821,5.821,5.821,5.792,5.792,5.792,5.792,5.792,5.792,5.792,5.792,5.792,5.792,5.763,5.763,5.763,5.763,5.763,5.735,5.735,5.707,5.707,5.707,5.707,5.707,5.707,5.707,5.707,5.707,5.707,5.735,5.763,5.763,5.821,5.85,5.909,5.909,5.939,6.001,6.032,6.095,6.095,6.095,6.095,6.032,6.032,6.032,6.001,5.939,5.939,5.909,5.85,5.792,5.763,5.763,5.763,5.735,5.735,5.707,5.707,5.679,5.679,5.679,5.679,5.679,5.679,5.679,5.679,5.679,5.679,5.679,5.679,5.679,5.679,5.679,5.679,5.679,5.679,5.679,5.679,5.679,5.679,5.679,5.651,5.651,5.651,5.624,5.597,5.597,5.597,5.57,5.57,5.543,5.543,5.517,5.491,5.465,5.465,5.44,5.415,5.389,5.34,5.34,5.34,5.316,5.316,5.316,5.316,5.34,5.34,5.34,5.34,5.34,5.34,5.34,5.34,5.34,5.34,5.34,5.34,5.34,5.34,5.34,5.34,5.316,5.316,5.268,5.268,5.268,5.244,5.22,5.22,5.22,5.22,5.22,5.174,5.174,5.151,5.151,5.174,5.174,5.174,5.174,5.22,5.22,5.22,5.22,5.22,5.22,5.22,5.174,5.174,5.174,5.22,5.22,5.22,5.22,5.244,5.244,5.244,5.244,5.244,5.316,5.316,5.316,5.34,5.34,5.34,5.34,5.34,5.389,5.389,5.389,5.415,5.415,5.44,5.679,6.504,6.801,7.098,0.0,0.0,9.681000000000001,10.439125,11.526,12.518,12.518,12.384,12.254,12.001,11.879,11.879,11.641,11.641,12.001,12.001,12.254,12.254,12.254,12.254,12.254,12.254,12.001,12.001,11.879,11.879,11.641,0.0,0.0,0.0,4.912,4.912,4.891,4.891,4.891,4.891,4.871,4.871,4.851,4.851,4.871,4.851,4.871,4.871,4.851,4.851,4.83,4.83,4.83,4.83,4.83,4.81,4.81,4.81,4.83,4.83,4.851,4.975,5.1975,5.465,0.0,0.0,0.0,0.0,7.973,8.315,8.955,9.239,9.313,9.464,9.464,9.701,9.865,9.95,10.036,10.123,10.212,10.212,10.302,10.302,10.302,10.302,10.394,10.394,10.394,10.394,10.394,10.394,10.394,10.394,10.394,10.394,10.394,10.394,10.394,10.394,10.394,10.394,10.302,10.302,10.212,10.123,10.036,9.865,9.701,9.464,9.464,9.43375,9.464,9.464,9.701,9.542,9.701,9.865,9.95,10.036,9.95,9.542,0.0,0.0,0.0,5.597,5.465,5.316,5.174,0.0,0.0,0.0,0.0,0.0,0.0,0.0,0.0,0.0,8.955,9.701,10.123,10.036,10.036,9.95,9.865,9.783,9.701,9.542,9.313,9.024,8.955,8.753,8.753,8.753,8.753,8.819,8.955,9.024,9.166,9.239,9.313,9.464,9.464,9.542,9.701,9.701,9.542,9.542,9.464,9.464,9.313,9.313,9.239,9.313,9.313,9.313,9.313,9.464,9.464,9.464,9.464,9.464,9.464,9.464,9.542,9.464,9.464,9.542,9.464,9.464,9.542,9.542,9.542,9.701,9.783,9.783,9.865,9.865,9.865,9.865,9.865,9.865,9.865,9.783,9.701,9.701,9.542,9.313,9.024,8.819,8.623,8.497,8.375
5.85,5.85,5.85,5.821,5.821,5.821,5.821,5.792,5.792,5.792,5.821,5.821,5.909,5.909,6.001,6.001,6.095,6.127,6.127,6.159,6.159,6.159,6.225,6.259,6.259,6.327,6.327,6.327,6.396,6.396,6.467,6.432,6.467,6.504,6.54,6.54,6.577,6.577,6.614,6.577,6.577,6.577,6.54,6.504,6.467,6.159,5.763,5.0455000000000005,4.328,4.188,4.0756875,3.973,3.829,3.829,3.817,3.817,3.817,3.804,3.804,3.804,3.804,3.804,3.804,3.804,3.792,3.792,3.804,0.0,0.0,0.0,0.0,0.0,0.0,5.151,5.3605,5.57,5.735,5.909,5.909,5.909,5.909,5.909,5.939,5.909,5.909,5.85,5.85,5.85,5.909,5.939,6.001,6.032,6.095,6.127,6.159,6.225,6.225,6.225,6.159,5.909,5.821,5.735,5.651,5.679,5.679,5.679,5.57,5.679,5.939,6.127,6.259,6.361,6.396,6.467,6.54,6.54,6.577,6.577,6.614,6.614,6.614,6.614,6.614,6.614,6.614,6.614,6.614,6.614,6.614,6.577,6.577,6.577,6.577,6.577,6.54,6.54,6.54,6.54,6.54,6.504,6.467,6.432,6.396,6.327,6.225,6.159,6.001,5.939,5.939,5.909,5.909,5.85,5.85,5.85,5.821,5.821,5.821,5.821,5.821,5.821,5.821,5.821,5.792,5.792,5.792,5.792,5.763,5.763,5.763,5.763,5.735,5.735,5.735,5.735,5.707,5.707,5.735,5.707,5.707,5.735,5.763,5.763,5.792,5.821,5.85,5.909,5.939,5.939,6.001,6.001,6.001,6.001,6.032,6.001,6.001,6.001,5.939,5.939,5.939,5.85,5.85,5.821,5.763,5.763,5.735,5.735,5.735,5.707,5.707,5.707,5.679,5.679,5.679,5.679,5.679,5.679,5.679,5.679,5.679,5.679,5.679,5.679,5.679,5.651,5.651,5.651,5.651,5.651,5.651,5.651,5.651,5.651,5.679,5.651,5.651,5.651,5.651,5.624,5.597,5.597,5.597,5.57,5.57,5.543,5.543,5.517,5.491,5.465,5.44,5.415,5.415,5.389,5.34,5.316,5.316,5.316,5.316,5.316,5.316,5.316,5.316,5.316,5.34,5.34,5.389,5.34,5.34,5.34,5.34,5.34,5.34,5.34,5.34,5.316,5.316,5.316,5.316,5.268,5.268,5.244,5.22,5.22,5.22,5.174,5.174,5.174,5.151,5.151,5.151,5.151,5.22,5.22,5.22,5.22,5.244,5.244,5.268,5.268,5.268,5.268,5.244,5.244,5.268,5.268,5.268,5.268,5.268,5.268,5.316,5.34,5.316,5.34,5.34,5.415,5.415,5.415,5.465,5.491,5.491,5.543,5.543,5.57,5.465,5.465,5.465,5.517,5.543,5.909,6.5405,7.0615000000000006,7.648,0.0,0.0,10.123,10.779,11.49775,12.384,12.384,12.254,12.254,12.001,11.879,11.879,11.641,11.641,11.879,11.879,12.001,12.001,12.001,12.001,11.879,11.641,11.641,11.641,11.526,11.526,11.302,0.0,0.0,0.0,4.912,4.912,4.891,4.891,4.891,4.891,4.871,4.891,4.871,4.871,4.871,4.871,4.871,4.871,4.871,4.851,4.851,4.83,4.83,4.83,4.83,4.83,4.83,4.83,4.83,4.851,4.912,5.05375,5.244,0.0,0.0,0.0,0.0,7.919,8.315,8.955,9.239,9.464,9.464,9.464,9.542,9.701,9.865,10.036,10.123,10.212,10.212,10.302,10.302,10.394,10.394,10.394,10.394,10.488,10.488,10.583,10.583,10.583,10.583,10.583,10.583,10.583,10.583,10.583,10.583,10.583,10.583,10.583,10.488,10.394,10.302,10.302,10.212,10.123,10.036,9.865,9.95,9.783,9.824,9.865,9.865,9.95,10.036,10.123,10.212,10.212,10.123,9.8325,0.0,0.0,0.0,6.432,6.001,5.651,5.597,0.0,0.0,0.0,0.0,0.0,0.0,0.0,0.0,9.024,9.783,10.036,10.123,10.036,10.036,10.036,9.95,9.865,9.783,9.542,9.464,9.024,8.819,8.753,8.623,8.623,8.623,8.623,8.623,8.753,8.955,9.024,9.166,9.313,9.313,9.464,9.464,9.542,9.542,9.464,9.464,9.313,9.313,9.313,9.313,9.239,9.239,9.239,9.239,9.313,9.313,9.313,9.464,9.313,9.464,9.542,9.542,9.542,9.542,9.542,9.542,9.542,9.701,9.701,9.701,9.783,9.783,9.865,9.865,9.865,9.865,9.865,9.865,9.865,9.865,9.783,9.783,9.701,9.542,9.464,9.239,8.819,8.623,8.497,8.436
5.909,5.939,5.909,5.939,5.85,5.85,5.85,5.85,5.85,5.85,5.909,5.909,5.939,6.001,6.032,6.095,6.127,6.159,6.225,6.225,6.259,6.259,6.327,6.361,6.396,6.432,6.432,6.467,6.54,6.54,6.54,6.577,6.577,6.577,6.614,6.614,6.614,6.652,6.614,6.652,6.614,6.614,6.577,6.54,6.467,6.225,0.0,0.0,4.426,4.264,4.114,3.987,3.829,3.829,3.817,3.817,3.817,3.804,3.804,3.804,3.804,3.804,3.804,3.804,3.804,3.804,3.804,0.0,0.0,0.0,0.0,0.0,0.0,4.933,5.161,5.389,5.651,5.909,5.85,5.85,5.85,5.85,5.909,5.85,5.85,5.821,5.821,5.821,5.85,5.909,5.939,6.001,6.032,6.095,6.095,6.127,6.127,6.001,5.763,5.651,5.543,5.44,5.268,5.151,5.084,4.871,4.954,5.0525,5.151,5.491,5.792,6.327,6.396,6.467,6.504,6.54,6.54,6.577,6.577,6.577,6.577,6.577,6.577,6.577,6.577,6.577,6.577,6.577,6.577,6.577,6.577,6.54,6.54,6.54,6.54,6.54,6.54,6.54,6.54,6.504,6.467,6.432,6.361,6.259,6.225,6.127,6.001,5.939,5.939,5.909,5.909,5.85,5.85,5.85,5.85,5.85,5.85,5.85,5.821,5.85,5.85,5.85,5.85,5.821,5.821,5.821,5.821,5.792,5.792,5.792,5.792,5.763,5.763,5.735,5.735,5.735,5.735,5.735,5.735,5.763,5.763,5.792,5.821,5.85,5.909,5.909,5.939,5.939,5.939,5.909,5.939,5.939,5.939,5.939,5.939,5.939,5.909,5.85,5.85,5.821,5.763,5.763,5.735,5.707,5.707,5.707,5.707,5.679,5.679,5.679,5.679,5.679,5.679,5.679,5.679,5.679,5.679,5.651,5.651,5.651,5.651,5.651,5.651,5.651,5.651,5.651,5.651,5.651,5.651,5.651,5.651,5.651,5.651,5.651,5.651,5.651,5.624,5.624,5.597,5.597,5.57,5.57,5.543,5.543,5.517,5.517,5.491,5.465,5.44,5.415,5.389,5.34,5.34,5.316,5.316,5.316,5.268,5.268,5.268,5.292,5.316,5.316,5.34,5.34,5.34,5.34,5.34,5.34,5.34,5.34,5.34,5.34,5.316,5.316,5.316,5.34,5.389,5.415,5.465,5.491,5.517,5.543,5.543,5.543,5.517,5.465,5.415,5.389,5.34,5.268,5.268,5.316,5.316,5.316,5.316,5.34,5.34,5.34,5.34,5.34,5.34,5.34,5.34,5.389,5.389,5.34,5.389,5.389,5.415,5.415,5.415,5.44,5.44,5.465,5.517,5.517,5.543,5.543,5.597,5.651,5.707,5.792,5.909,6.127,6.361,5.707,6.54,6.652,6.577,7.322,8.198,0.0,0.0,10.302,10.88,11.302,12.001,12.001,12.001,11.879,11.879,11.641,11.526,11.641,11.641,11.641,11.641,11.879,11.879,11.641,11.641,11.526,11.302,11.194,11.194,11.087,10.982,0.0,0.0,4.975,4.975,4.954,4.933,4.912,4.912,4.912,4.891,4.891,4.891,4.891,4.891,4.871,4.891,4.891,4.891,4.871,4.871,4.851,4.851,4.851,4.83,4.83,4.83,4.83,4.83,4.851,4.912,4.997999999999999,5.084,5.517,0.0,0.0,0.0,0.0,8.336,8.819,9.239,9.542,9.542,9.542,9.542,9.701,9.783,9.95,10.123,10.212,10.212,10.302,10.302,10.394,10.394,10.394,10.488,10.583,10.583,10.583,10.583,10.68,10.68,10.68,10.68,10.68,10.68,10.68,10.68,10.68,10.68,10.68,10.68,10.68,10.583,10.583,10.394,10.394,10.302,10.212,10.212,10.123,10.036,0.0,10.0835,10.212,10.212,10.302,10.212,10.302,10.302,10.302,10.123,9.542,0.0,0.0,7.709,6.907,0.0,0.0,6.396,0.0,0.0,0.0,0.0,0.0,8.819,9.313,9.783,9.95,10.036,10.123,10.123,10.036,10.036,10.036,9.865,9.865,9.701,9.542,9.313,8.955,8.753,8.623,8.56,8.497,8.56,8.56,8.56,8.623,8.819,8.955,9.166,9.166,9.239,9.239,9.313,9.313,9.313,9.313,9.313,9.239,9.239,9.239,9.239,9.166,9.166,9.166,9.239,9.239,9.239,9.313,9.313,9.464,9.464,9.542,9.542,9.542,9.701,9.701,9.542,9.783,9.783,9.783,9.865,9.865,9.865,9.865,9.95,9.95,9.95,9.95,9.865,9.865,9.865,9.783,9.701,9.542,9.464,9.313,8.955,8.753,8.56,8.436
5.939,5.939,5.939,5.939,5.939,5.909,5.909,5.909,5.909,5.909,5.939,5.939,6.001,6.032,6.095,6.095,6.159,6.225,6.259,6.327,6.361,6.361,6.432,6.467,6.54,6.54,6.54,6.577,6.577,6.614,6.614,6.652,6.652,6.652,6.69,6.69,6.69,6.69,6.69,6.69,6.69,6.652,6.577,6.577,6.54,6.361,0.0,0.0,4.601,4.312,4.163,4.014,3.842,3.829,3.829,3.817,3.817,3.817,3.804,3.804,3.804,3.804,3.804,3.804,3.804,3.804,3.804,3.792,3.855,3.987,0.0,0.0,0.0,0.0,0.0,0.0,0.0,0.0,0.0,0.0,0.0,0.0,0.0,0.0,0.0,0.0,0.0,0.0,0.0,0.0,5.939,6.001,6.032,6.032,6.095,6.095,6.095,5.792,5.597,5.465,5.106,4.83,0.0,0.0,0.0,4.477,4.367,4.46025,4.717625,4.975,5.0975,5.22,5.543,5.707,6.127,6.432,6.54,6.54,6.54,6.54,6.54,6.54,6.577,6.577,6.577,6.577,6.577,6.577,6.577,6.577,6.54,6.54,6.54,6.54,6.54,6.54,6.54,6.54,6.504,6.467,6.432,6.396,6.361,6.259,6.159,6.095,6.001,5.939,5.939,5.909,5.909,5.85,5.85,5.85,5.85,5.85,5.85,5.85,5.909,5.909,5.85,5.909,5.909,5.85,5.85,5.85,5.85,5.821,5.821,5.821,5.792,5.792,5.763,5.763,5.763,5.735,5.763,5.735,5.735,5.792,5.821,5.821,5.85,5.909,5.909,5.939,5.939,5.939,5.909,5.909,5.909,5.909,5.909,5.909,5.85,5.85,5.85,5.821,5.792,5.763,5.735,5.707,5.707,5.679,5.679,5.679,5.679,5.679,5.679,5.679,5.679,5.679,5.679,5.651,5.651,5.651,5.651,5.651,5.651,5.651,5.651,5.651,5.624,5.624,5.624,5.651,5.651,5.651,5.651,5.651,5.651,5.651,5.651,5.651,5.651,5.624,5.624,5.597,5.597,5.597,5.57,5.57,5.543,5.543,5.517,5.517,5.491,5.465,5.44,5.415,5.415,5.34,5.316,5.316,5.268,5.268,5.268,5.268,5.268,5.268,5.292,5.316,5.334,5.34,5.34,5.34,5.34,5.34,5.34,5.34,5.316,5.316,5.316,5.389,5.415,5.491,5.5325,5.543,5.597,5.651,5.651,5.763,5.821,5.939,5.909,5.821,5.651,5.597,5.543,5.465,5.415,5.34,5.34,5.389,5.34,5.389,5.415,5.415,5.415,5.415,5.415,5.415,5.415,5.44,5.44,5.44,5.44,5.465,5.465,5.465,5.465,5.517,5.517,5.517,5.543,5.543,5.57,5.597,5.679,5.939,6.159,6.222999999999999,6.327,6.577,6.69,6.848,7.322,7.866,8.198,0.0,0.0,0.0,10.212,10.394,10.982,11.302,11.879,11.879,11.879,11.641,11.641,11.526,11.302,11.302,11.526,11.526,11.526,11.641,11.526,11.302,11.194,11.087,10.982,10.88,10.779,10.68,0.0,0.0,0.0,0.0,0.0,4.975,4.954,4.933,4.912,4.912,4.912,4.891,4.891,4.891,4.891,4.891,4.891,4.891,4.891,4.891,4.891,4.871,4.851,4.851,4.851,4.851,4.851,4.851,4.851,4.891,4.933,5.0885,5.244,0.0,0.0,0.0,0.0,0.0,8.753,9.313,9.542,9.701,9.701,9.701,9.701,9.783,9.865,10.123,10.212,10.212,10.302,10.394,10.394,10.488,10.583,10.583,10.583,10.583,10.583,10.68,10.68,10.68,10.68,10.68,10.779,10.779,10.779,10.779,10.88,10.88,10.88,10.88,10.779,10.779,10.68,10.68,10.583,10.583,10.394,10.302,10.302,10.302,10.212,10.257,10.302,10.302,10.302,10.394,10.394,10.488,10.488,10.394,10.302,10.212,9.701,8.819,8.256,7.813,0.0,0.0,0.0,0.0,0.0,0.0,0.0,8.623,9.701,9.865,9.95,9.95,10.036,10.036,10.123,10.123,10.036,9.95,9.95,9.865,9.783,9.542,9.313,8.955,8.753,8.623,8.56,8.497,8.436,8.497,8.497,8.56,8.623,8.819,8.955,8.955,9.024,9.166,9.239,9.239,9.239,9.239,9.239,9.166,9.166,9.166,9.166,9.024,9.024,9.024,9.166,9.024,9.166,9.239,9.166,9.239,9.313,9.313,9.464,9.464,9.542,9.542,9.542,9.783,9.783,9.783,9.865,9.95,9.95,9.95,9.95,9.95,9.95,9.95,9.95,9.95,9.865,9.865,9.783,9.701,9.542,9.464,9.024,8.819,8.623,8.497
5.909,6.001,6.001,6.001,6.001,5.939,5.939,5.909,5.939,5.939,6.001,6.001,6.032,6.095,6.095,6.127,6.159,6.259,6.327,6.361,6.387499999999999,6.432,6.467,6.54,6.577,6.614,6.614,6.652,6.69,6.69,6.69,6.69,6.729,6.729,6.729,6.729,6.729,6.729,6.729,6.729,6.729,6.69,6.652,6.614,6.54,6.432,6.001,5.735,5.04,4.36,4.194,4.028,3.842,3.829,3.829,3.817,3.817,3.817,3.804,3.804,3.804,3.804,3.804,3.804,3.804,3.804,3.792,3.792,3.829,3.92,4.085,0.0,0.0,0.0,0.0,0.0,0.0,0.0,0.0,0.0,0.0,0.0,0.0,0.0,0.0,0.0,0.0,0.0,0.0,0.0,0.0,0.0,0.0,6.032,6.032,6.032,5.85,5.597,5.268,4.954,4.81,4.509,0.0,0.0,0.0,3.88,3.78,3.868,4.3118125,0.0,0.0,5.084,6.225,6.432,6.467,6.467,6.504,6.504,6.504,6.54,6.54,6.54,6.54,6.54,6.54,6.54,6.54,6.54,6.54,6.54,6.54,6.54,6.54,6.54,6.54,6.54,6.504,6.504,6.467,6.432,6.396,6.361,6.327,6.225,6.127,6.095,5.939,5.939,5.939,5.909,5.909,5.909,5.909,5.939,5.909,5.909,5.939,5.909,5.909,5.909,5.939,5.939,5.939,5.939,5.909,5.909,5.909,5.909,5.85,5.85,5.85,5.821,5.821,5.792,5.792,5.792,5.792,5.792,5.792,5.821,5.821,5.85,5.909,5.909,5.909,5.939,5.939,5.909,5.909,5.909,5.909,5.909,5.909,5.85,5.821,5.821,5.792,5.763,5.735,5.707,5.679,5.679,5.679,5.679,5.651,5.651,5.651,5.651,5.651,5.651,5.651,5.651,5.651,5.651,5.651,5.651,5.651,5.651,5.651,5.624,5.624,5.624,5.624,5.624,5.624,5.624,5.624,5.624,5.624,5.624,5.624,5.651,5.651,5.651,5.624,5.624,5.597,5.597,5.597,5.57,5.57,5.57,5.543,5.543,5.517,5.517,5.491,5.465,5.44,5.415,5.389,5.34,5.316,5.268,5.268,5.244,5.244,5.244,5.244,5.268,5.286,5.316,5.34,5.34,5.34,5.34,5.34,5.389,5.428,5.44,5.465,5.465,5.465,5.517,5.57,5.624,5.707,5.821,6.001,6.159,6.396,6.54,6.577,6.614,6.614,6.54,6.396,6.159,6.001,5.679,5.597,5.543,5.517,5.517,5.517,5.543,5.491,5.517,5.491,5.465,5.465,5.491,5.491,5.465,5.465,5.491,5.491,5.491,5.517,5.517,5.517,5.517,5.517,5.517,5.57,5.597,5.651,5.763,6.032,6.19975,6.361,6.614,6.729,7.055,7.415,7.6655,8.084,0.0,8.755500000000001,0.0,0.0,10.212,10.42175,10.68,11.194,11.302,11.526,11.641,11.526,11.526,11.526,11.302,11.194,11.194,11.194,11.194,11.194,11.302,11.087,11.087,10.88,10.779,10.583,10.58625,10.488,10.394,0.0,0.0,0.0,0.0,0.0,4.9855,4.975,4.933,4.933,4.912,4.912,4.912,4.891,4.891,4.891,4.891,4.891,4.891,4.891,4.891,4.891,4.891,4.871,4.851,4.871,4.851,4.871,4.871,4.891,4.912,4.975,5.110875,5.34,0.0,0.0,6.614,7.813,8.375,9.239,9.701,9.783,9.865,9.865,9.783,9.783,9.865,10.036,10.212,10.302,10.302,10.394,10.394,10.488,10.583,10.583,10.583,10.583,10.68,10.68,10.68,10.779,10.779,10.779,10.88,10.88,10.88,10.88,10.982,10.982,10.982,11.087,10.982,10.88,10.88,10.779,10.68,10.68,10.583,10.488,10.488,10.394,10.394,10.394,10.394,10.394,10.394,10.488,10.583,10.583,10.583,10.68,10.68,10.583,10.394,10.302,9.95,9.239,8.4895,0.0,0.0,0.0,0.0,0.0,0.0,8.56,9.166,9.865,9.865,9.865,9.95,10.036,10.123,10.123,10.123,10.123,10.036,10.036,9.95,9.865,9.701,9.464,9.024,8.819,8.623,8.56,8.497,8.436,8.436,8.436,8.497,8.56,8.623,8.753,8.819,8.955,9.024,9.024,9.166,9.166,9.166,9.166,9.024,9.024,9.024,9.024,8.955,8.819,8.955,8.819,8.819,8.955,9.024,9.024,9.024,9.166,9.239,9.313,9.464,9.542,9.542,9.542,9.701,9.783,9.865,9.865,9.95,9.95,9.95,10.036,10.036,10.036,10.036,10.036,10.036,9.95,9.95,9.95,9.865,9.701,9.542,9.313,8.955,8.753,8.56
5.939,6.001,6.001,6.032,6.001,6.001,6.001,5.939,5.939,6.001,6.001,6.001,6.032,6.095,6.095,6.127,6.225,6.225,6.327,6.37,6.396,6.467,6.4944999999999995,6.54,6.577,6.614,6.6425,6.69,6.69,6.729,6.729,6.729,6.729,6.729,6.729,6.729,6.768,6.729,6.729,6.729,6.729,6.69,6.652,6.614,6.577,6.504,6.225,5.909,5.244,4.83,4.429,4.028,3.842,3.829,3.829,3.829,3.817,3.817,3.817,3.804,3.804,3.804,3.804,3.804,3.804,3.804,3.804,3.792,3.817,3.855,3.933,0.0,0.0,0.0,0.0,0.0,0.0,0.0,0.0,0.0,0.0,0.0,0.0,0.0,0.0,0.0,0.0,0.0,0.0,0.0,0.0,0.0,0.0,0.0,0.0,5.821,5.597,5.244,0.0,4.4635,4.3386249999999995,4.188,4.085,3.946,3.88,3.755,3.804,3.855,3.906,0.0,0.0,0.0,6.225,6.432,6.432,6.467,6.467,6.467,6.467,6.504,6.54,6.504,6.54,6.54,6.54,6.54,6.54,6.54,6.54,6.54,6.54,6.54,6.54,6.504,6.504,6.504,6.467,6.432,6.432,6.396,6.361,6.327,6.259,6.159,6.127,6.032,6.001,6.001,5.939,5.939,5.939,5.939,5.939,5.939,5.939,5.939,5.939,5.939,5.939,5.939,6.001,6.001,5.939,5.939,5.939,5.939,5.939,5.909,5.909,5.909,5.85,5.85,5.85,5.85,5.821,5.821,5.821,5.821,5.821,5.85,5.85,5.909,5.939,5.939,5.939,5.939,5.939,5.939,5.909,5.909,5.909,5.909,5.85,5.821,5.821,5.792,5.763,5.735,5.707,5.679,5.679,5.679,5.651,5.651,5.651,5.651,5.651,5.651,5.651,5.651,5.651,5.651,5.651,5.651,5.651,5.651,5.651,5.624,5.624,5.624,5.624,5.624,5.624,5.624,5.624,5.597,5.597,5.624,5.624,5.624,5.624,5.624,5.624,5.624,5.624,5.597,5.597,5.597,5.57,5.57,5.57,5.543,5.543,5.543,5.517,5.517,5.465,5.465,5.44,5.415,5.389,5.389,5.316,5.316,5.244,5.244,5.244,5.244,5.244,5.268,5.268,5.316,5.358499999999999,5.389,5.44,5.465,5.465,5.465,5.543,5.597,5.651,5.679,5.679,5.707,5.821,6.032,6.361,6.504,6.614,6.652,0.0,7.202999999999999,7.3025,7.349,7.348000000000001,7.231,7.055,6.848,6.729,6.577,6.504,6.327,6.032,5.85,5.707,5.679,5.597,5.624,5.57,5.543,5.517,5.543,5.517,5.543,5.543,5.517,5.517,5.517,5.517,5.517,5.517,5.543,5.543,5.543,5.597,5.651,5.707,6.001,6.2692499999999995,6.467,6.652,6.971,0.0,7.8075,8.084,8.315,8.955,9.134,9.313,9.865,10.212,10.394,10.583,10.88,11.087,11.087,11.302,11.194,11.194,11.087,11.087,11.194,11.087,11.087,11.087,11.087,10.982,10.982,10.88,10.779,10.68,10.488,10.394,10.394,10.302,10.212,0.0,0.0,0.0,0.0,0.0,4.996,4.964499999999999,4.933,4.933,4.912,4.912,4.912,4.912,4.891,4.891,4.891,4.891,4.891,4.891,4.891,4.891,4.891,4.891,4.891,4.891,4.891,4.891,4.912,4.912,4.933,4.997,5.04,5.517,0.0,0.0,6.848,8.084,8.753,9.227,9.701,9.95,9.95,10.036,9.95,10.036,10.036,10.212,10.302,10.394,10.394,10.488,10.583,10.68,10.68,10.68,10.68,10.68,10.68,10.779,10.779,10.88,10.88,10.982,10.982,10.982,10.982,11.087,11.087,11.194,11.194,11.194,11.194,11.087,10.982,10.982,10.779,10.68,10.68,10.583,10.583,10.583,10.488,10.488,10.488,10.488,10.488,10.583,10.583,10.583,10.583,10.68,10.68,10.583,10.394,10.302,10.123,9.783,9.166,8.955,0.0,0.0,0.0,0.0,8.955,9.166,9.464,9.865,9.865,9.95,9.95,10.036,10.123,10.123,10.123,10.123,10.036,10.036,9.95,9.865,9.701,9.464,9.024,8.955,8.753,8.56,8.497,8.497,8.436,8.497,8.497,8.56,8.623,8.623,8.753,8.819,8.955,9.024,9.024,9.166,9.024,9.024,9.024,8.955,8.955,8.955,8.819,8.753,8.753,8.753,8.753,8.753,8.819,8.819,8.955,9.024,9.166,9.239,9.313,9.464,9.542,9.542,9.701,9.783,9.865,9.865,9.95,9.95,10.036,10.036,10.036,10.036,10.036,10.036,10.036,10.036,10.036,9.95,9.865,9.783,9.701,9.464,9.024,8.819,8.623
5.939,6.001,6.001,6.032,6.001,6.001,5.939,5.939,5.909,5.939,5.939,6.001,6.001,6.032,6.095,6.127,6.225,6.259,6.327,6.396,6.42275,6.467,6.504,6.54,6.577,6.614,6.652,6.69,6.729,6.729,6.729,6.729,6.729,6.729,6.729,6.768,6.729,6.729,6.729,6.729,6.729,6.69,6.69,6.614,6.577,6.504,6.259,6.032,5.85,4.601,4.343,4.085,3.829,3.829,3.829,3.829,3.829,3.817,3.817,3.817,3.804,3.804,3.804,3.804,3.804,3.804,3.804,3.792,3.804,3.817,3.855,0.0,0.0,0.0,0.0,0.0,0.0,0.0,0.0,0.0,0.0,0.0,0.0,0.0,0.0,0.0,0.0,0.0,0.0,0.0,0.0,0.0,0.0,0.0,0.0,0.0,0.0,0.0,0.0,3.973,3.893,3.855,3.829,3.817,3.804,3.804,3.804,3.817,3.842,0.0,0.0,0.0,5.621499999999999,6.225,6.432,6.259,6.432,6.467,6.504,6.504,6.54,6.54,6.54,6.54,6.577,6.577,6.577,6.577,6.54,6.54,6.54,6.54,6.54,6.504,6.467,6.432,6.432,6.396,6.396,6.361,6.327,6.259,6.225,6.159,6.127,6.032,6.001,6.001,6.001,6.001,6.001,6.001,6.001,6.001,5.939,6.001,6.001,6.001,5.939,5.939,6.001,6.001,6.001,6.001,6.001,5.939,5.939,5.939,5.939,5.939,5.909,5.909,5.909,5.85,5.85,5.85,5.85,5.85,5.85,5.909,5.909,5.909,5.939,5.939,5.939,5.939,5.939,5.939,5.939,5.909,5.909,5.85,5.821,5.821,5.792,5.792,5.763,5.707,5.707,5.679,5.679,5.679,5.651,5.651,5.651,5.651,5.651,5.651,5.651,5.651,5.651,5.651,5.651,5.651,5.651,5.651,5.651,5.624,5.624,5.624,5.624,5.624,5.597,5.597,5.597,5.597,5.597,5.597,5.597,5.597,5.624,5.624,5.624,5.624,5.624,5.597,5.597,5.597,5.57,5.57,5.543,5.543,5.543,5.543,5.543,5.517,5.491,5.465,5.465,5.44,5.415,5.389,5.316,5.316,5.244,5.268,5.244,5.244,5.268,5.268,5.268,5.32825,5.389,5.491,5.57,5.597,5.651,5.679,5.792,6.032,6.225,6.259,6.327,6.396,0.0,0.0,0.0,0.0,0.0,7.3965,7.63125,7.866,8.028,8.084,8.198,8.256,8.198,8.084,7.984,7.6075,7.231,6.971,6.729,6.614,6.54,6.504,6.259,5.939,5.763,5.651,5.624,5.597,5.57,5.543,5.543,5.543,5.517,5.543,5.543,5.543,5.543,5.543,5.543,5.57,5.679,5.85,6.159,6.368,6.577,6.848,7.368,0.0,0.0,8.56,8.983250000000002,9.166,9.783,9.97475,10.302,10.488,10.68,10.68,10.88,11.087,11.194,11.194,11.194,11.087,11.087,10.982,10.88,10.982,10.88,10.779,10.779,10.88,10.779,10.88,10.779,10.68,10.68,10.394,10.302,10.302,10.212,10.123,0.0,0.0,0.0,0.0,0.0,0.0,4.954,4.933,4.933,4.912,4.912,4.912,4.912,4.891,4.891,4.891,4.912,4.912,4.912,4.912,4.891,4.891,4.891,4.912,4.891,4.912,4.912,4.933,4.954,4.98075,5.04,5.22,5.624,0.0,0.0,0.0,8.256,9.166,9.47125,9.95,10.036,10.123,10.212,10.212,10.123,10.212,10.212,10.302,10.394,10.583,10.68,10.68,10.779,10.88,10.88,10.88,10.779,10.88,10.88,10.88,10.982,11.087,11.087,11.087,11.194,11.194,11.194,11.302,11.302,11.302,11.302,11.302,11.302,11.194,11.087,10.982,10.88,10.68,10.68,10.68,10.583,10.583,10.583,10.583,10.583,10.583,10.583,10.583,10.68,10.68,10.68,10.583,10.583,10.394,10.280000000000001,10.212,10.036,9.63175,9.542,9.313,9.239,9.276,9.313,9.313,9.542,9.701,9.783,9.865,9.95,10.036,10.036,10.123,10.123,10.123,10.123,10.036,10.036,9.95,9.865,9.701,9.542,9.313,8.955,8.819,8.623,8.56,8.56,8.497,8.497,8.497,8.56,8.56,8.623,8.753,8.753,8.819,8.955,9.024,9.024,9.024,9.024,8.955,8.955,8.819,8.819,8.753,8.623,8.623,8.623,8.56,8.623,8.753,8.753,8.819,8.955,9.024,9.166,9.239,9.464,9.464,9.542,9.783,9.783,9.865,9.865,9.95,10.036,10.036,10.036,10.123,10.123,10.123,10.123,10.123,10.123,10.123,10.036,9.95,9.865,9.783,9.542,9.313,8.955,8.623
5.909,5.939,6.001,6.032,6.001,5.939,5.909,5.909,5.909,5.909,5.909,5.939,5.939,6.032,6.095,6.127,6.159,6.259,6.361,6.3965,6.432,6.504,6.54,6.577,6.614,6.652,6.652,6.69,6.729,6.729,6.729,6.729,6.729,6.768,6.729,6.729,6.729,6.729,6.729,6.729,6.729,6.69,6.652,6.614,6.577,6.504,6.361,6.127,6.032,5.151,4.677,4.203,3.855,3.829,3.829,3.829,3.829,3.817,3.817,3.817,3.817,3.804,3.804,3.804,3.804,3.804,3.804,3.792,3.792,3.792,3.792,3.792,0.0,0.0,0.0,0.0,0.0,0.0,0.0,0.0,0.0,0.0,0.0,0.0,0.0,0.0,0.0,0.0,0.0,0.0,0.0,0.0,0.0,0.0,0.0,0.0,0.0,0.0,0.0,3.817,3.792,3.755,3.707,3.672,3.672,3.672,3.672,3.696,3.767,3.855,0.0,0.0,5.018,5.621499999999999,6.225,6.361,6.432,6.467,6.504,6.54,6.54,6.54,6.577,6.577,6.577,6.577,6.577,6.577,6.577,6.577,6.54,6.54,6.504,6.467,6.432,6.396,6.361,6.361,6.327,6.259,6.225,6.225,6.159,6.159,6.127,6.095,6.095,6.032,6.032,6.032,6.032,6.032,6.032,6.032,6.001,6.001,6.001,6.001,6.001,5.939,5.939,6.001,5.939,5.939,5.939,5.939,5.939,5.909,5.939,5.939,5.939,5.909,5.909,5.909,5.909,5.909,5.909,5.85,5.909,5.909,5.909,5.909,5.939,5.939,6.001,6.001,5.939,5.939,5.939,5.909,5.909,5.85,5.85,5.821,5.792,5.792,5.763,5.707,5.679,5.679,5.679,5.679,5.651,5.651,5.651,5.651,5.651,5.651,5.651,5.651,5.651,5.651,5.651,5.651,5.651,5.651,5.651,5.624,5.624,5.624,5.624,5.624,5.597,5.597,5.597,5.597,5.597,5.597,5.597,5.597,5.597,5.597,5.597,5.597,5.597,5.597,5.597,5.57,5.57,5.57,5.543,5.543,5.543,5.543,5.517,5.517,5.517,5.491,5.465,5.44,5.415,5.389,5.34,5.316,5.316,5.316,5.268,5.268,5.268,5.31025,5.316,5.34,5.415,5.543,5.651,5.707,5.85,6.032,6.396,6.577,6.672499999999999,6.768,0.0,7.0525,0.0,0.0,0.0,0.0,0.0,8.141,8.315,8.56,8.955,9.239,9.865,9.865,9.95,9.701,9.239,8.95475,0.0,0.0,0.0,7.6835,0.0,7.38,0.0,0.0,6.54,6.259,5.763,5.707,5.624,5.543,5.543,5.543,5.543,5.543,5.543,5.543,5.543,5.543,5.57,5.651,6.095,6.3175,6.54,6.954000000000001,7.368,0.0,8.3405,0.0,0.0,9.542,10.123,10.302,10.583,10.68,10.779,10.982,11.194,11.194,11.194,11.194,11.302,11.194,11.087,10.982,10.982,10.982,10.88,10.88,10.88,10.88,10.88,10.88,10.88,10.779,10.779,10.68,10.583,10.394,10.302,10.212,10.212,10.123,10.036,0.0,0.0,0.0,0.0,0.0,4.933,4.912,4.917249999999999,4.912,4.912,4.912,4.891,4.891,4.891,4.891,4.891,4.912,4.912,4.912,4.912,4.912,4.912,4.912,4.912,4.912,4.933,4.954,4.996,4.996,5.174,5.465,5.821,0.0,0.0,0.0,0.0,0.0,9.542,10.123,10.123,10.212,10.212,10.212,10.212,10.302,10.302,10.488,10.68,10.68,10.779,10.88,10.982,10.982,11.087,11.087,10.982,10.982,11.087,11.087,11.194,11.194,11.194,11.302,11.302,11.302,11.526,11.526,11.526,11.526,11.526,11.526,11.302,11.302,11.194,11.194,10.982,10.88,10.779,10.779,10.68,10.68,10.68,10.68,10.68,10.68,10.583,10.68,10.68,10.68,10.68,10.583,10.394,10.302,10.212,10.212,9.95,9.783,9.542,9.464,9.464,9.313,9.464,9.464,9.542,9.701,9.783,9.865,9.95,9.95,10.036,10.036,10.123,10.123,10.036,10.036,10.036,9.95,9.865,9.783,9.701,9.464,9.024,8.819,8.753,8.623,8.56,8.56,8.56,8.56,8.623,8.623,8.753,8.753,8.819,8.955,8.955,9.024,9.024,9.024,9.024,9.024,8.955,8.955,8.819,8.819,8.753,8.623,8.623,8.623,8.623,8.753,8.753,8.753,8.819,9.024,9.166,9.239,9.313,9.464,9.542,9.701,9.783,9.865,9.95,9.95,10.036,10.036,10.123,10.123,10.212,10.212,10.212,10.212,10.212,10.123,10.123,10.036,9.95,9.865,9.701,9.464,9.024,8.819
5.85,5.909,5.939,6.001,5.909,5.909,5.909,5.85,5.85,5.85,5.85,5.909,5.939,6.032,6.095,6.127,6.159,6.259,6.361,6.3965,6.432,6.504,6.54,6.577,6.614,6.652,6.69,6.69,6.729,6.729,6.729,6.729,6.729,6.729,6.729,6.729,6.729,6.729,6.69,6.69,6.69,6.652,6.614,6.577,6.54,6.504,6.361,6.225,6.095,5.268,4.743,4.218,3.868,3.842,3.829,3.829,3.829,3.829,3.817,3.817,3.817,3.817,3.804,3.804,3.804,3.804,3.804,3.804,3.804,3.792,3.792,3.792,0.0,0.0,0.0,0.0,0.0,0.0,0.0,0.0,0.0,0.0,0.0,0.0,0.0,0.0,0.0,0.0,0.0,0.0,0.0,0.0,0.0,0.0,0.0,0.0,0.0,0.0,3.767,3.731,3.672,3.661,3.649,3.615,3.615,3.627,3.615,3.593,3.649,3.672,0.0,0.0,0.0,0.0,0.0,5.679,6.432,6.504,6.54,6.54,6.577,6.577,6.577,6.614,6.614,6.614,6.614,6.614,6.577,6.577,6.54,6.54,6.504,6.467,6.396,6.327,6.327,6.259,6.225,6.159,6.159,6.159,6.159,6.127,6.127,6.127,6.095,6.095,6.095,6.095,6.095,6.032,6.032,6.032,6.001,6.001,6.001,6.001,5.939,5.909,5.909,5.909,5.909,5.909,5.909,5.909,5.909,5.909,5.909,5.939,5.939,5.939,5.939,5.939,5.939,5.909,5.909,5.909,5.909,5.939,5.939,5.939,5.939,6.001,6.001,6.001,6.001,5.939,6.001,5.939,5.909,5.909,5.85,5.821,5.821,5.792,5.735,5.735,5.707,5.679,5.679,5.679,5.651,5.651,5.651,5.651,5.651,5.651,5.651,5.651,5.651,5.651,5.651,5.651,5.651,5.651,5.651,5.651,5.624,5.651,5.651,5.624,5.624,5.597,5.597,5.597,5.597,5.597,5.597,5.597,5.597,5.597,5.624,5.597,5.597,5.597,5.57,5.57,5.57,5.57,5.543,5.543,5.543,5.543,5.517,5.517,5.517,5.517,5.491,5.465,5.44,5.415,5.415,5.389,5.389,5.34,5.34,5.34,5.389,5.389,5.415,5.44,5.491,5.597,5.679,0.0,0.0,6.3805,0.0,6.9495000000000005,7.29575,0.0,0.0,7.709,7.866,8.028,0.0,0.0,8.753,9.239,9.701,10.123,10.302,10.394,10.583,10.68,10.583,10.488,10.394,10.302,0.0,0.0,0.0,8.753,8.5045,8.256,0.0,0.0,0.0,0.0,0.0,0.0,5.763,5.597,5.57,5.543,5.543,5.543,5.543,5.543,5.543,5.597,5.792,0.0,0.0,0.0,0.0,0.0,0.0,0.0,9.313,9.865,10.302,10.583,10.88,11.194,11.526,11.641,12.001,11.879,12.001,11.879,11.641,11.641,11.526,11.302,11.194,11.087,11.087,10.982,10.982,10.88,10.88,10.88,10.88,10.88,10.88,10.88,10.88,10.779,10.68,10.68,10.583,10.302,10.302,10.212,10.212,10.123999999999999,10.036,0.0,0.0,5.268,4.933,4.912,4.912,4.912,4.912,4.891,4.891,4.891,4.891,4.891,4.891,4.891,4.912,4.912,4.912,4.912,4.912,4.933,4.933,4.954,4.996,5.018,5.04,5.106,5.34,5.57,6.159,0.0,0.0,0.0,0.0,0.0,9.789,10.212,10.212,10.212,10.302,10.302,10.302,10.302,10.394,10.583,10.779,10.982,11.194,11.302,11.302,11.302,11.526,11.526,11.302,11.194,11.194,11.302,11.302,11.302,11.526,11.526,11.526,11.526,11.526,11.641,11.641,11.641,11.641,11.526,11.526,11.302,11.302,11.194,11.087,10.982,10.982,10.88,10.88,10.88,10.88,10.68,10.68,10.68,10.68,10.68,10.583,10.583,10.583,10.488,10.302,10.302,10.212,9.95,9.865,9.701,9.464,9.313,9.313,9.313,9.313,9.464,9.542,9.701,9.783,9.865,9.865,9.95,10.036,10.036,10.123,10.123,10.123,10.036,10.036,9.95,9.95,9.783,9.701,9.464,9.239,9.024,8.819,8.819,8.753,8.623,8.623,8.623,8.753,8.753,8.753,8.753,8.819,8.819,8.955,9.024,9.024,9.024,9.024,9.024,9.024,9.024,8.955,8.955,8.819,8.819,8.819,8.819,8.819,8.955,8.819,8.955,9.024,9.024,9.166,9.239,9.313,9.464,9.464,9.701,9.783,9.783,9.95,10.036,10.036,10.123,10.123,10.212,10.212,10.212,10.212,10.212,10.212,10.212,10.212,10.123,10.036,9.95,9.783,9.542,9.313,8.955
5.909,5.939,5.939,6.001,5.909,5.909,5.85,5.85,5.85,5.85,5.85,5.85,5.939,6.001,6.032,6.127,6.159,6.327,6.361,6.3965,6.432,6.504,6.54,6.577,6.614,6.652,6.69,6.69,6.729,6.729,6.729,6.729,6.729,6.729,6.729,6.729,6.729,6.69,6.69,6.69,6.652,6.614,6.577,6.577,6.54,6.504,6.396,6.259,5.735,5.4190000000000005,0.0,0.0,3.88,3.855,3.855,3.842,3.829,3.829,3.829,3.817,3.817,3.817,3.804,3.804,3.804,3.804,3.804,3.804,3.804,3.804,3.804,0.0,0.0,0.0,0.0,0.0,0.0,0.0,0.0,0.0,0.0,0.0,0.0,0.0,0.0,0.0,0.0,0.0,0.0,0.0,0.0,0.0,0.0,0.0,0.0,0.0,0.0,3.672,3.661,3.649,3.615,3.615,3.627,3.627,3.615,3.615,3.593,3.593,3.615,3.593,3.649,0.0,0.0,0.0,0.0,6.225,6.432,6.54,6.54,6.577,6.577,6.577,6.614,6.614,6.652,6.652,6.614,6.614,6.577,6.577,6.54,6.54,6.467,6.396,6.361,6.259,6.225,6.225,6.159,6.127,6.095,6.095,6.095,6.095,6.095,6.095,6.095,6.095,6.095,6.095,6.095,6.032,6.032,6.001,6.001,5.939,5.939,5.909,5.909,5.85,5.821,5.821,5.821,5.85,5.85,5.821,5.85,5.85,5.85,5.909,5.909,5.909,5.939,5.939,5.939,5.939,5.939,5.939,5.939,5.939,6.001,6.001,6.001,6.001,6.032,6.032,6.032,6.032,6.032,6.001,6.001,5.939,5.909,5.85,5.821,5.821,5.792,5.735,5.707,5.679,5.679,5.679,5.679,5.651,5.651,5.651,5.651,5.651,5.651,5.651,5.651,5.651,5.651,5.651,5.651,5.651,5.651,5.651,5.651,5.651,5.651,5.651,5.624,5.624,5.624,5.624,5.597,5.597,5.597,5.597,5.597,5.597,5.597,5.597,5.597,5.597,5.57,5.57,5.57,5.543,5.543,5.543,5.543,5.543,5.543,5.543,5.517,5.517,5.517,5.491,5.491,5.465,5.44,5.44,5.44,5.415,5.44,5.44,5.44,5.44,5.465,5.491,5.543,5.651,5.821,0.0,0.0,6.729,7.0255,7.322,7.919,0.0,0.0,8.315,8.497,8.819,9.239,9.701,10.036,10.302,10.488,10.68,10.88,10.888750000000002,11.087,11.302,11.526,11.302,11.087,10.88,10.68,10.488,10.302,10.123,9.681000000000001,9.239,8.819,0.0,0.0,0.0,0.0,0.0,0.0,5.763,5.624,5.543,5.543,5.543,5.543,0.0,0.0,0.0,0.0,0.0,0.0,0.0,0.0,0.0,0.0,0.0,10.583,10.779,11.194,11.526,11.879,12.254,12.384,12.384,12.254,12.384,12.384,12.254,12.254,12.001,12.001,11.641,11.641,11.302,11.302,11.194,11.194,11.194,11.087,11.087,11.087,10.982,10.982,11.087,10.982,10.88,10.779,10.68,10.583,10.488,10.394,10.394,10.212,10.259,10.215,0.0,0.0,0.0,5.04,4.912,4.912,4.912,4.891,4.871,4.871,4.891,4.891,4.891,4.891,4.891,4.891,4.912,4.912,4.912,4.933,4.933,4.954,4.975,5.018,5.084,5.106,5.174,5.389,5.597,0.0,0.0,0.0,0.0,0.0,0.0,10.036,10.212,10.302,10.302,10.394,10.394,10.394,10.394,10.583,10.779,10.982,11.302,11.526,11.641,11.641,11.879,11.879,11.879,11.641,11.526,11.526,11.526,11.526,11.526,11.526,11.526,11.641,11.641,11.641,11.641,11.879,11.879,11.641,11.641,11.526,11.526,11.526,11.302,11.194,11.194,11.087,11.087,10.982,10.982,10.982,10.88,10.68,10.68,10.68,10.68,10.583,10.583,10.583,10.394,10.302,10.212,10.036,9.865,9.701,9.464,9.313,9.313,9.313,9.313,9.313,9.464,9.542,9.701,9.783,9.865,9.95,9.95,10.036,10.036,10.123,10.123,10.123,10.036,10.036,10.036,9.95,9.865,9.701,9.542,9.313,9.239,9.024,8.819,8.819,8.753,8.753,8.819,8.819,8.819,8.819,8.955,8.955,8.955,9.024,9.166,9.166,9.166,9.166,9.166,9.166,9.166,9.024,9.024,8.955,8.955,8.955,8.955,8.819,8.955,8.955,8.955,8.955,9.024,9.024,9.166,9.239,9.313,9.464,9.542,9.783,9.783,9.865,10.036,10.123,10.123,10.212,10.212,10.212,10.212,10.212,10.212,10.212,10.212,10.212,10.212,10.123,10.036,9.865,9.701,9.464,9.024
5.85,5.939,5.939,6.001,5.939,5.939,5.909,5.909,5.909,5.85,5.85,5.909,5.939,6.001,6.095,6.127,6.159,6.327,6.361,6.3965,6.432,6.504,6.54,6.577,6.614,6.652,6.69,6.69,6.729,6.729,6.729,6.729,6.729,6.69,6.69,6.69,6.69,6.652,6.614,6.614,6.614,6.577,6.577,6.54,6.54,6.504,6.396,6.327,5.85,5.57,0.0,0.0,3.92,3.868,3.855,3.855,3.855,3.842,3.829,3.829,3.829,3.817,3.817,3.804,3.804,3.804,3.804,3.804,3.804,3.804,3.804,0.0,0.0,0.0,0.0,0.0,0.0,0.0,0.0,0.0,0.0,0.0,0.0,0.0,0.0,0.0,0.0,0.0,0.0,0.0,0.0,0.0,0.0,0.0,0.0,0.0,3.615,3.627,3.627,3.627,3.627,3.627,3.615,3.615,3.615,3.615,3.593,3.593,3.593,3.593,3.649,0.0,0.0,0.0,0.0,0.0,0.0,6.54,6.577,6.577,6.614,6.614,6.614,6.652,6.69,6.652,6.614,6.614,6.577,6.577,6.54,6.504,6.432,6.361,6.259,6.225,6.127,6.127,6.095,6.032,6.032,6.032,6.032,6.032,6.032,6.032,6.032,6.032,6.032,6.032,6.032,6.001,5.939,5.939,5.939,5.909,5.909,5.85,5.821,5.792,5.792,5.792,5.792,5.792,5.792,5.792,5.792,5.821,5.85,5.85,5.909,5.909,5.939,5.939,6.001,6.001,6.001,6.001,6.001,6.001,6.001,6.001,6.032,6.095,6.095,6.095,6.127,6.127,6.127,6.095,6.095,6.032,6.001,5.939,5.909,5.85,5.821,5.763,5.763,5.735,5.707,5.707,5.679,5.679,5.679,5.679,5.679,5.679,5.651,5.651,5.651,5.679,5.679,5.651,5.651,5.651,5.651,5.651,5.651,5.651,5.651,5.651,5.651,5.651,5.651,5.624,5.624,5.624,5.624,5.624,5.597,5.597,5.597,5.597,5.597,5.57,5.57,5.57,5.57,5.57,5.543,5.543,5.543,5.543,5.543,5.543,5.543,5.57,5.57,5.57,5.543,5.543,5.543,5.517,5.517,5.543,5.517,5.491,5.491,5.543,5.543,5.543,5.597,5.85,6.259,6.5735,6.888,7.2235,7.559,8.084,8.623,9.166,9.464,9.701,9.95,10.212,10.302,10.394,10.583,10.68,10.88,10.9835,11.087,11.194,11.526,11.879,12.001,12.254,12.254,12.254,12.001,11.302,10.982,10.68,10.4375,10.169875,10.123,9.865,9.309000000000001,8.753,8.315,0.0,0.0,0.0,5.821,0.0,0.0,0.0,0.0,0.0,0.0,0.0,0.0,0.0,0.0,0.0,0.0,0.0,0.0,11.087,11.526,12.001,12.384,12.384,12.793,12.793,12.935,12.793,12.793,12.518,12.793,12.518,12.518,12.384,12.384,12.254,12.001,11.879,11.641,11.641,11.526,11.302,11.302,11.194,11.302,11.194,11.194,11.194,11.194,11.087,10.982,10.88,10.68,10.68,10.583,10.488,10.394,10.394,10.394,0.0,0.0,0.0,5.415,4.975,4.891,4.891,4.871,4.851,4.851,4.851,4.851,4.871,4.871,4.891,4.891,4.912,4.912,4.912,4.933,4.954,4.975,4.996,5.04,5.106,5.151,5.22,5.415,5.597,0.0,0.0,0.0,7.973,0.0,0.0,10.036,10.302,10.302,10.302,10.302,10.302,10.394,10.394,10.583,10.779,11.194,11.526,11.879,12.001,12.001,12.001,12.254,12.001,11.879,11.879,11.641,11.641,11.641,11.641,11.641,11.641,11.641,11.879,11.879,11.879,11.879,12.001,11.879,11.879,11.879,11.641,11.641,11.641,11.526,11.302,11.302,11.194,11.194,11.194,11.087,10.982,10.88,10.779,10.68,10.68,10.583,10.583,10.488,10.394,10.212,10.123,9.95,9.783,9.542,9.464,9.239,9.313,9.313,9.313,9.464,9.542,9.701,9.783,9.865,9.95,9.95,10.036,10.036,10.123,10.123,10.123,10.123,10.123,10.123,10.036,10.036,9.865,9.783,9.701,9.464,9.313,9.166,9.024,8.955,8.955,8.955,8.955,8.955,8.955,8.955,8.955,9.024,9.024,9.024,9.166,9.239,9.239,9.239,9.239,9.239,9.239,9.239,9.239,9.166,9.166,9.166,9.166,9.166,9.166,9.166,9.166,9.166,9.166,9.166,9.166,9.239,9.313,9.313,9.464,9.542,9.701,9.865,9.95,10.036,10.123,10.212,10.212,10.212,10.302,10.302,10.302,10.302,10.212,10.212,10.212,10.212,10.036,9.865,9.783,9.542,9.166
6.001,6.032,6.095,6.095,6.095,6.032,6.001,5.939,5.939,5.909,5.939,5.939,6.001,6.032,6.095,6.127,6.225,6.327,6.396,6.4315,6.467,6.504,6.54,6.577,6.614,6.652,6.69,6.69,6.729,6.69,6.69,6.69,6.69,6.69,6.652,6.652,6.614,6.614,6.614,6.614,6.577,6.577,6.54,6.54,6.54,6.504,6.396,6.361,6.327,5.679,5.268,0.0,0.0,3.868,3.868,3.868,3.868,3.855,3.855,3.829,3.829,3.829,3.817,3.817,3.817,3.804,3.804,3.804,3.804,3.804,3.804,0.0,0.0,0.0,0.0,0.0,0.0,0.0,0.0,0.0,0.0,0.0,0.0,0.0,0.0,0.0,0.0,0.0,0.0,0.0,0.0,0.0,0.0,0.0,0.0,0.0,3.627,3.627,3.627,3.627,3.627,3.627,3.627,3.615,3.615,3.615,3.615,3.615,3.615,3.615,3.661,0.0,0.0,0.0,0.0,0.0,0.0,6.396,6.577,6.577,6.614,6.614,6.614,6.652,6.69,6.652,6.614,6.614,6.577,6.54,6.504,6.467,6.361,6.327,6.225,6.127,6.095,6.095,6.032,6.001,5.939,6.001,6.001,6.001,6.032,6.032,6.001,5.939,5.939,5.939,5.939,5.939,5.909,5.909,5.85,5.85,5.821,5.821,5.792,5.763,5.735,5.735,5.735,5.763,5.763,5.763,5.763,5.792,5.821,5.85,5.909,5.909,5.939,6.001,6.001,6.001,6.032,6.032,6.032,6.032,6.095,6.095,6.095,6.127,6.159,6.159,6.159,6.159,6.159,6.127,6.095,6.032,6.001,5.939,5.909,5.85,5.821,5.821,5.792,5.763,5.735,5.735,5.707,5.707,5.707,5.679,5.679,5.679,5.679,5.679,5.679,5.679,5.679,5.679,5.679,5.679,5.679,5.679,5.679,5.679,5.679,5.679,5.679,5.651,5.651,5.651,5.651,5.651,5.651,5.624,5.624,5.597,5.597,5.597,5.597,5.597,5.57,5.57,5.57,5.57,5.543,5.543,5.543,5.57,5.57,5.597,5.597,5.624,5.651,5.651,5.624,5.624,5.597,5.624,5.597,5.597,5.597,5.57,5.57,5.57,5.597,5.597,5.707,6.259,6.614,0.0,0.0,0.0,8.198,9.024,10.036,10.212,10.212,10.212,10.302,10.394,10.394,10.488,10.583,10.68,10.779,10.880875,10.982,11.087,11.302,11.641,12.001,12.254,12.254,12.384,12.384,12.384,12.254,11.526,11.194,10.88,10.583,10.488,10.302,10.123,9.701,0.0,0.0,0.0,0.0,0.0,0.0,0.0,0.0,0.0,0.0,0.0,0.0,0.0,0.0,0.0,0.0,0.0,12.384,12.935,13.229,13.381,13.381,13.229,13.229,12.935,12.935,12.793,12.793,12.518,12.518,12.518,12.518,12.384,12.518,12.384,12.384,12.001,12.001,12.001,11.879,11.879,11.641,11.641,11.526,11.526,11.526,11.526,11.302,11.302,11.194,11.087,10.982,10.88,10.779,10.68,10.583,10.583,10.488,10.394,0.0,0.0,0.0,5.244,4.933,4.851,4.851,4.851,4.851,4.851,4.851,4.851,4.851,4.871,4.891,4.891,4.912,4.912,4.933,4.954,4.975,5.018,5.084,5.151,5.174,5.268,5.465,5.597,0.0,0.0,0.0,7.866,8.819,9.3845,9.95,10.212,10.212,10.302,10.302,10.302,10.302,10.394,10.68,10.982,11.302,11.879,12.001,12.001,12.254,12.384,12.254,12.254,12.001,11.879,11.641,11.641,11.641,11.641,11.641,11.879,11.879,11.879,11.879,12.001,12.001,12.001,12.001,12.001,11.879,11.879,11.879,11.879,11.879,11.641,11.641,11.526,11.526,11.302,11.302,11.087,10.982,10.779,10.779,10.68,10.583,10.583,10.394,10.394,10.212,10.036,9.865,9.701,9.542,9.313,9.313,9.313,9.313,9.464,9.464,9.542,9.701,9.865,9.95,9.95,10.036,10.036,10.123,10.123,10.212,10.212,10.212,10.123,10.123,10.123,10.036,9.95,9.865,9.783,9.542,9.464,9.313,9.166,9.024,9.024,9.024,9.166,9.024,9.024,9.024,9.024,9.166,9.166,9.239,9.313,9.313,9.464,9.464,9.464,9.464,9.464,9.464,9.464,9.313,9.313,9.313,9.313,9.313,9.313,9.313,9.313,9.313,9.313,9.239,9.239,9.239,9.239,9.239,9.464,9.542,9.542,9.783,9.95,10.123,10.212,10.212,10.212,10.302,10.302,10.302,10.302,10.302,10.302,10.212,10.212,10.212,10.036,9.95,9.783,9.542,9.166
6.159,6.159,6.159,6.225,6.159,6.159,6.095,6.095,6.001,6.001,6.001,6.001,6.032,6.095,6.127,6.159,6.259,6.327,6.396,6.4316249999999995,6.467,6.54,6.54,6.577,6.614,6.652,6.652,6.69,6.69,6.69,6.69,6.69,6.652,6.652,6.614,6.614,6.614,6.614,6.577,6.577,6.54,6.577,6.54,6.54,6.54,6.54,6.467,6.467,6.467,6.361,5.597,0.0,0.0,3.933,3.893,3.88,3.868,3.868,3.855,3.855,3.829,3.829,3.829,3.817,3.817,3.817,3.817,3.804,3.804,3.804,3.804,0.0,0.0,0.0,0.0,0.0,0.0,0.0,0.0,0.0,0.0,0.0,0.0,0.0,0.0,0.0,0.0,0.0,0.0,0.0,0.0,0.0,0.0,0.0,0.0,0.0,3.649,3.627,3.649,3.649,3.649,3.627,3.627,3.627,3.615,3.615,3.615,3.627,3.615,3.615,3.615,3.661,0.0,0.0,0.0,0.0,0.0,5.651,6.504,6.614,6.614,6.614,6.652,6.652,6.652,6.652,6.614,6.577,6.54,6.54,6.467,6.396,6.327,6.225,6.127,6.095,6.032,6.001,5.909,5.909,5.939,5.939,5.939,5.939,5.939,5.939,5.939,5.939,5.939,5.939,5.939,5.939,5.909,5.85,5.85,5.821,5.821,5.763,5.735,5.735,5.707,5.707,5.707,5.707,5.735,5.735,5.763,5.792,5.821,5.85,5.909,5.939,6.001,6.032,6.032,6.095,6.095,6.095,6.095,6.127,6.127,6.159,6.159,6.225,6.225,6.225,6.259,6.259,6.225,6.159,6.127,6.095,6.032,5.939,5.909,5.909,5.85,5.821,5.792,5.792,5.763,5.763,5.763,5.763,5.735,5.735,5.735,5.735,5.735,5.707,5.707,5.707,5.707,5.679,5.679,5.679,5.679,5.679,5.679,5.679,5.679,5.679,5.679,5.679,5.679,5.679,5.651,5.651,5.651,5.651,5.651,5.624,5.624,5.597,5.597,5.597,5.597,5.597,5.597,5.597,5.57,5.57,5.597,5.597,5.597,5.651,5.679,5.735,5.792,5.821,5.821,5.821,5.821,5.792,5.763,5.735,5.679,5.679,5.679,5.679,5.679,5.735,6.032,6.577,6.929,0.0,0.0,0.0,8.5765,9.43925,10.302,10.302,10.302,10.302,10.302,10.302,10.394,10.394,10.488,10.583,10.68,10.779,10.982,11.009,11.087,11.526,11.641,12.001,12.254,12.384,12.384,12.384,12.254,12.001,11.302,11.087,10.88,10.68,10.68,10.488,10.302,10.212,0.0,0.0,0.0,0.0,0.0,0.0,0.0,0.0,0.0,0.0,0.0,0.0,0.0,0.0,0.0,13.381,13.33,13.696,13.696,13.536,13.536,13.381,12.935,12.935,12.793,12.518,12.518,12.384,12.518,12.518,12.518,12.518,12.518,12.518,12.384,12.384,12.384,12.254,12.001,12.001,11.879,11.879,11.879,11.879,11.879,11.879,11.879,11.641,11.641,11.526,11.302,11.194,11.087,10.982,10.88,10.68,10.68,10.68,10.488,0.0,0.0,0.0,0.0,4.851,4.83,4.83,4.83,4.83,4.83,4.851,4.851,4.851,4.891,4.891,4.912,4.912,4.933,4.954,4.996,5.018,5.084,5.151,5.22,5.316,5.491,5.651,0.0,0.0,6.729,7.5825,8.436,9.059875,9.464,9.95,10.036,10.123,10.212,10.212,10.212,10.302,10.68,10.982,11.302,11.641,12.001,12.254,12.254,12.254,12.254,12.001,11.879,11.879,11.641,11.641,11.641,11.641,11.641,11.641,11.641,11.641,11.879,12.001,12.001,12.001,12.001,12.001,12.001,12.001,12.001,12.001,12.001,11.879,11.879,11.879,11.879,11.879,11.526,11.302,11.194,10.982,10.88,10.68,10.583,10.488,10.394,10.302,10.123,9.95,9.783,9.542,9.313,9.313,9.239,9.239,9.313,9.464,9.464,9.701,9.783,9.865,10.036,10.036,10.123,10.123,10.212,10.212,10.212,10.212,10.212,10.212,10.212,10.212,10.123,10.123,10.036,9.865,9.701,9.701,9.464,9.464,9.239,9.166,9.166,9.166,9.166,9.166,9.239,9.239,9.313,9.313,9.464,9.542,9.701,9.701,9.701,9.783,9.701,9.783,9.783,9.701,9.701,9.701,9.701,9.701,9.701,9.701,9.701,9.542,9.542,9.542,9.313,9.313,9.313,9.313,9.313,9.464,9.542,9.701,9.865,10.036,10.123,10.212,10.212,10.302,10.302,10.302,10.302,10.302,10.302,10.302,10.302,10.212,10.212,10.123,9.95,9.783,9.542,9.464
