5.707,5.735,5.735,5.735,5.735,5.763,5.792,5.821,5.821,5.85,5.909,5.939,5.939,6.001,6.032,6.032,6.095,6.095,6.127,6.127,6.159,6.159,6.225,6.159,6.225,6.159,6.159,6.159,6.127,6.127,0.0,0.0,0.0,0.0,3.88,3.855,3.829,3.829,3.817,3.817,3.804,3.804,3.792,3.78,3.767,3.767,3.755,3.743,3.743,3.743,3.743,3.743,3.755,3.743,3.755,3.755,3.767,3.767,3.767,3.767,0.0,0.0,0.0,0.0,0.0,0.0,0.0,0.0,0.0,0.0,0.0,0.0,0.0,0.0,0.0,0.0,0.0,0.0,3.444,3.444,3.454,3.454,3.454,3.454,3.465,3.465,3.475,3.485,3.485,3.485,3.496,3.496,3.506,3.506,3.517,0.0,0.0,0.0,0.0,0.0,0.0,0.0,6.127,6.032,6.032,5.939,5.909,5.909,5.85,5.792,5.763,5.735,5.735,5.679,5.679,5.679,5.679,5.679,5.679,5.679,5.679,5.735,5.792,5.821,5.939,6.032,6.127,6.159,6.225,6.259,6.327,6.327,6.259,6.259,6.259,6.225,6.259,6.225,6.225,6.225,6.225,6.225,6.225,6.225,6.225,6.225,6.259,6.259,6.327,6.327,6.361,6.396,6.396,6.432,6.467,6.467,6.467,6.504,6.504,6.54,6.54,6.54,6.504,6.504,6.432,6.361,6.327,6.259,6.159,6.127,6.095,6.032,5.939,5.909,5.85,5.821,5.792,5.763,5.735,5.707,5.707,5.679,5.679,5.679,5.679,5.679,5.679,5.679,5.679,5.651,5.651,5.651,5.651,5.624,5.624,5.597,5.597,5.57,5.57,5.57,5.57,5.57,5.57,5.57,5.57,5.57,5.57,5.57,5.597,5.597,5.597,5.597,5.597,5.597,5.597,5.597,5.597,5.597,5.597,5.597,5.597,5.57,5.57,5.57,5.57,5.543,5.543,5.543,5.517,5.517,5.491,5.465,5.465,5.465,5.465,5.465,5.465,5.44,5.465,5.491,5.517,5.543,5.543,5.57,5.597,5.624,5.651,5.679,5.707,5.763,5.939,6.361,6.577,6.7375,0.0,0.0,7.866,8.141,8.497,9.024,9.313,9.464,9.542,9.701,9.783,10.036,10.123,10.038,10.302,10.394,10.583,10.68,10.88,11.087,11.302,11.526,11.526,11.641,11.526,10.88,10.583,9.378499999999999,8.766,0.0,0.0,0.0,5.624,5.491,5.389,5.34,5.316,5.34,5.57,5.597,0.0,0.0,0.0,6.729,6.971,6.729,6.848,6.888,6.808,6.808,6.848,6.808,6.848,6.888,6.929,6.888,7.055,0.0,0.0,0.0,7.761,7.919,0.0,0.0,0.0,0.0,0.0,0.0,12.001,12.518,12.518,12.793,13.229,13.229,13.229,13.381,13.381,13.229,13.229,13.229,12.793,12.793,12.793,12.793,12.793,12.518,12.384,12.384,0.0,0.0,0.0,0.0,0.0,0.0,5.106,5.084,5.04,5.018,4.975,4.933,4.912,4.912,4.912,4.912,4.891,4.891,4.891,4.891,4.891,4.891,4.891,4.891,4.891,4.891,4.891,4.891,4.891,4.891,4.891,4.891,4.891,4.891,4.891,4.996,5.491,0.0,0.0,0.0,0.0,0.0,9.239,10.302,10.302,10.302,10.302,10.302,10.302,10.302,10.394,10.488,10.583,10.583,10.68,10.779,10.88,11.087,11.194,11.526,11.641,11.879,12.001,12.254,12.254,12.384,12.384,12.384,12.384,12.518,12.518,12.518,12.384,12.001,11.641,11.194,10.88,10.68,10.583,10.394,10.394,10.394,10.488,10.583,10.68,10.779,10.88,10.982,10.982,11.087,11.087,11.194,11.194,11.087,11.087,10.982,10.982,10.88,10.779,10.68,10.68,10.68,10.68,10.68,10.68,10.583,10.583,10.583,10.488,10.394,10.394,10.394,10.302,10.302,10.302,10.302,10.302,10.302,10.302,10.302,10.394,10.394,10.394,10.583,10.583,10.68,10.68,10.583,10.583,10.583,10.583,10.488,10.488,10.394,10.394,10.302,10.302,10.302,10.302,10.302,10.394,10.488,10.583,10.68,10.88,11.087,11.302,11.526,11.879,12.001,12.001,12.254,12.001,12.001,11.879,11.641,11.526,11.194,10.982,10.88,10.779,10.68,10.583,10.583,10.488,10.488,10.394,10.394,10.394,10.394,10.302,10.302,10.302,10.302,10.302,10.212,10.212,10.212,10.123,10.036,9.865,9.701,9.542,9.313,9.024,8.497,8.315,8.198,8.141,8.084,8.028,7.973,7.866,7.709,7.709,7.559,7.415,7.415,7.322
5.679,5.679,5.707,5.707,5.735,5.735,5.763,5.792,5.821,5.909,5.939,5.939,6.001,6.032,6.095,6.127,6.127,6.159,6.159,6.159,6.225,6.225,6.225,6.225,6.159,6.159,6.159,6.127,6.127,6.095,0.0,0.0,0.0,0.0,3.933,3.973,3.868,3.842,3.842,3.829,3.817,3.804,3.792,3.792,3.78,3.767,3.755,3.755,3.743,3.743,3.743,3.755,3.755,3.755,3.755,3.755,3.767,3.767,0.0,0.0,0.0,0.0,0.0,0.0,0.0,0.0,0.0,0.0,0.0,0.0,0.0,0.0,0.0,0.0,0.0,0.0,0.0,0.0,3.444,3.444,3.454,3.454,3.454,3.465,3.465,3.465,3.475,3.485,3.485,3.485,3.496,3.496,3.496,3.517,3.517,3.528,0.0,0.0,0.0,0.0,0.0,0.0,5.651,6.001,6.001,5.85,5.821,5.792,5.735,5.707,5.679,5.679,5.651,5.651,5.624,5.624,5.624,5.624,5.651,5.679,5.679,5.735,5.763,5.85,5.939,6.032,6.095,6.159,6.225,6.225,6.259,6.259,6.259,6.159,6.225,6.159,6.159,6.159,6.159,6.159,6.225,6.225,6.225,6.225,6.225,6.259,6.259,6.327,6.327,6.361,6.361,6.396,6.396,6.432,6.432,6.467,6.467,6.504,6.504,6.54,6.54,6.54,6.54,6.504,6.432,6.396,6.361,6.327,6.225,6.225,6.159,6.127,6.032,5.939,5.909,5.85,5.821,5.792,5.763,5.735,5.735,5.707,5.679,5.679,5.679,5.679,5.679,5.679,5.679,5.679,5.651,5.651,5.651,5.651,5.651,5.624,5.597,5.597,5.597,5.597,5.597,5.597,5.597,5.597,5.597,5.597,5.597,5.597,5.597,5.624,5.624,5.624,5.624,5.624,5.624,5.624,5.624,5.624,5.597,5.624,5.597,5.597,5.597,5.597,5.57,5.57,5.57,5.543,5.543,5.543,5.517,5.517,5.517,5.543,5.543,5.543,5.57,5.597,5.597,5.651,5.679,5.679,5.735,5.792,5.85,6.001,6.032,6.095,6.127,6.225,6.467,6.69,6.86725,6.971,7.709,8.042,8.375,9.024,9.3995,9.865,10.212,10.394,10.394,10.394,10.394,10.394,10.394,10.488,10.583,10.583,10.68,10.779,10.88,11.087,11.302,11.302,11.641,12.001,12.001,12.001,11.879,11.526,10.88,0.0,0.0,0.0,0.0,5.679,5.543,5.415,5.415,5.491,5.679,0.0,0.0,0.0,0.0,7.055,7.368,7.659,7.659,7.659,7.659,7.709,7.761,7.866,7.511,7.559,7.709,7.761,7.813,0.0,0.0,0.0,8.375,8.56,0.0,0.0,0.0,0.0,0.0,0.0,13.381,13.696,13.696,13.696,13.859,13.859,13.859,13.696,13.696,13.859,13.696,13.696,13.381,13.381,13.229,13.229,12.935,12.793,12.518,12.518,12.518,12.384,12.384,12.254,0.0,0.0,5.244,5.106,4.996,4.996,4.996,4.954,4.933,4.933,4.92775,4.912,4.912,4.912,4.912,4.912,4.912,4.912,4.912,4.891,4.912,4.912,4.912,4.912,4.912,4.912,4.912,4.912,4.912,4.933,4.933,5.174,5.624,0.0,0.0,0.0,0.0,0.0,9.701,10.394,10.394,10.394,10.302,10.394,10.394,10.394,10.488,10.488,10.583,10.68,10.68,10.779,10.982,11.087,11.302,11.526,11.641,11.879,12.001,12.001,12.254,12.254,12.384,12.384,12.384,12.384,12.254,12.384,11.879,11.641,11.526,11.194,10.982,10.779,10.68,10.583,10.583,10.583,10.583,10.583,10.583,10.68,10.68,10.779,10.88,10.982,10.982,11.087,11.087,11.087,11.087,10.982,10.88,10.779,10.68,10.68,10.68,10.583,10.583,10.583,10.583,10.488,10.394,10.394,10.394,10.302,10.302,10.302,10.302,10.302,10.212,10.212,10.302,10.302,10.302,10.394,10.394,10.488,10.488,10.583,10.68,10.68,10.68,10.68,10.68,10.583,10.583,10.394,10.302,10.302,10.302,10.212,10.212,10.212,10.212,10.212,10.302,10.394,10.488,10.583,10.779,10.982,11.194,11.526,11.879,12.001,12.001,12.001,12.001,11.879,11.879,11.641,11.526,11.302,11.087,10.88,10.779,10.68,10.68,10.583,10.583,10.488,10.488,10.394,10.394,10.394,10.302,10.302,10.302,10.302,10.302,10.302,10.212,10.212,10.212,10.123,10.036,9.865,9.701,9.313,9.166,8.497,8.375,8.256,8.141,8.084,8.028,7.973,7.866,7.761,7.709,0.0,0.0,0.0,0.0
5.679,5.679,5.707,5.735,5.763,5.792,5.821,5.85,5.909,5.939,6.001,6.032,6.127,6.159,6.259,6.259,6.327,6.327,6.327,6.327,6.327,6.327,6.327,6.259,6.225,6.159,6.127,6.127,6.127,6.095,0.0,0.0,0.0,0.0,4.249,4.07,3.906,3.855,3.842,3.829,3.817,3.804,3.804,3.792,3.78,3.767,3.755,3.755,3.755,3.755,3.755,3.755,3.755,3.767,3.767,3.767,3.767,3.767,0.0,0.0,0.0,0.0,0.0,0.0,0.0,0.0,0.0,0.0,0.0,0.0,0.0,0.0,0.0,0.0,0.0,0.0,0.0,0.0,3.444,3.444,3.454,3.454,3.465,3.465,3.465,3.485,3.485,3.485,3.485,3.496,3.496,3.496,3.517,3.517,3.517,3.528,0.0,0.0,0.0,0.0,0.0,0.0,0.0,5.651,5.735,5.679,5.707,5.679,5.679,5.651,5.624,5.597,5.597,5.57,5.597,5.597,5.597,5.597,5.624,5.651,5.679,5.707,5.792,5.85,5.939,6.001,6.095,6.127,6.159,6.159,6.225,6.225,6.225,6.159,6.127,6.127,6.127,6.127,6.159,6.159,6.159,6.159,6.159,6.225,6.225,6.225,6.259,6.259,6.327,6.327,6.361,6.361,6.396,6.396,6.396,6.432,6.432,6.467,6.504,6.504,6.504,6.54,6.54,6.54,6.467,6.432,6.396,6.396,6.327,6.327,6.259,6.159,6.127,6.095,6.001,5.939,5.85,5.85,5.792,5.763,5.735,5.735,5.707,5.679,5.707,5.679,5.679,5.679,5.679,5.679,5.651,5.651,5.651,5.651,5.651,5.624,5.624,5.597,5.597,5.597,5.597,5.597,5.597,5.597,5.597,5.597,5.624,5.624,5.624,5.651,5.651,5.651,5.651,5.651,5.651,5.651,5.651,5.651,5.651,5.624,5.624,5.624,5.597,5.597,5.597,5.57,5.57,5.57,5.57,5.57,5.543,5.57,5.57,5.597,5.624,5.679,5.707,5.763,5.821,5.939,6.032,6.159,6.225,6.327,6.432,6.467,6.504,6.54,6.54,6.614,6.68475,6.729,7.231,7.866,8.198,8.753,9.542,9.703499999999998,10.212,10.488,10.68,10.68,10.583,10.583,10.488,10.394,10.488,10.394,10.488,10.488,10.583,10.68,10.88,10.982,11.194,11.302,11.641,12.001,12.384,12.384,12.518,12.518,12.518,12.384,0.0,0.0,0.0,0.0,0.0,0.0,5.821,5.735,0.0,0.0,0.0,0.0,0.0,7.511,7.761,7.866,7.919,7.919,7.973,8.028,8.028,8.11675,8.198,8.256,8.497,8.819,9.024,9.313,9.464,8.623,9.024,9.464,9.783,10.212,10.488,0.0,0.0,0.0,13.859,14.026,14.197,14.197,14.197,14.197,14.026,14.026,14.026,13.859,13.859,13.859,13.696,13.536,13.536,13.381,13.229,12.935,12.793,12.518,12.518,12.384,12.254,12.0665,11.879,0.0,0.0,5.316,5.106,5.018,4.996,4.975,4.954,4.954,4.954,4.954,4.933,4.933,4.912,4.912,4.912,4.912,4.912,4.912,4.912,4.912,4.912,4.912,4.933,4.933,4.933,4.975,4.975,4.975,4.996,5.389,0.0,0.0,0.0,0.0,0.0,0.0,10.123,10.583,10.488,10.394,10.394,10.394,10.394,10.488,10.488,10.583,10.583,10.68,10.68,10.779,10.88,11.087,11.194,11.302,11.526,11.641,11.879,12.001,12.001,12.254,12.254,12.254,12.254,12.001,12.001,11.879,11.641,11.302,11.194,10.982,10.88,10.68,10.68,10.583,10.583,10.488,10.583,10.583,10.583,10.583,10.68,10.68,10.68,10.779,10.88,10.88,10.982,10.982,10.88,10.88,10.779,10.68,10.68,10.583,10.583,10.583,10.488,10.394,10.394,10.394,10.302,10.302,10.212,10.212,10.212,10.212,10.212,10.212,10.212,10.212,10.212,10.302,10.302,10.394,10.394,10.488,10.583,10.68,10.68,10.779,10.68,10.779,10.68,10.583,10.488,10.394,10.302,10.212,10.212,10.212,10.123,10.212,10.212,10.212,10.212,10.394,10.488,10.583,10.68,10.982,11.087,11.302,11.526,11.879,11.879,11.879,11.879,11.879,11.879,11.641,11.526,11.302,11.087,10.982,10.88,10.68,10.68,10.68,10.583,10.583,10.488,10.394,10.394,10.394,10.394,10.302,10.302,10.302,10.302,10.302,10.302,10.212,10.212,10.212,10.123,9.95,9.783,9.542,9.239,8.623,8.436,8.256,8.198,8.084,8.028,7.973,0.0,0.0,0.0,0.0,0.0,0.0,0.0
5.679,5.707,5.707,5.735,5.763,5.792,5.85,5.939,5.9625,6.001,6.032,6.127,6.159,6.259,6.327,6.361,6.361,6.396,6.396,6.396,6.396,6.361,6.327,6.259,6.259,6.225,6.159,6.159,6.127,6.127,6.095,6.095,5.821,5.491,4.832,4.173,3.92,3.855,3.842,3.842,3.817,3.817,3.804,3.792,3.78,3.78,3.767,3.755,3.755,3.755,3.755,3.755,3.755,3.767,3.767,3.78,3.78,3.78,0.0,0.0,0.0,0.0,0.0,0.0,0.0,0.0,0.0,0.0,0.0,0.0,0.0,0.0,0.0,0.0,0.0,0.0,0.0,0.0,3.444,3.454,3.454,3.465,3.465,3.465,3.475,3.485,3.485,3.496,3.496,3.496,3.506,3.506,3.517,3.517,3.528,3.528,3.549,0.0,0.0,0.0,0.0,0.0,0.0,0.0,0.0,5.624,5.651,5.624,5.597,5.597,5.597,5.57,5.57,5.57,5.57,5.597,5.597,5.597,5.624,5.651,5.679,5.735,5.792,5.85,6.001,6.032,6.095,6.127,6.159,6.159,6.159,6.159,6.159,6.127,6.095,6.032,6.095,6.095,6.127,6.127,6.127,6.159,6.159,6.225,6.225,6.225,6.259,6.259,6.259,6.327,6.327,6.361,6.361,6.361,6.396,6.396,6.396,6.432,6.432,6.467,6.504,6.504,6.504,6.504,6.504,6.467,6.432,6.432,6.432,6.396,6.361,6.327,6.259,6.159,6.127,6.095,6.001,5.939,5.85,5.821,5.792,5.763,5.735,5.735,5.707,5.707,5.679,5.679,5.651,5.651,5.651,5.651,5.651,5.651,5.651,5.624,5.651,5.624,5.651,5.624,5.624,5.624,5.624,5.624,5.624,5.624,5.624,5.651,5.651,5.651,5.651,5.651,5.651,5.651,5.651,5.651,5.651,5.651,5.651,5.651,5.651,5.651,5.624,5.624,5.597,5.597,5.597,5.57,5.57,5.57,5.597,5.597,5.651,5.679,5.792,5.909,6.032,6.225,6.361,6.467,6.441999999999999,6.54,6.577,6.614,6.765000000000001,6.826499999999999,6.913,6.9775,6.955125000000001,6.888,6.929,7.511,7.973,8.256,8.753,9.464,9.726750000000001,10.036,10.302,10.583,10.68,10.583,10.583,10.488,10.394,10.394,10.394,10.394,10.394,10.394,10.488,10.68,10.68,10.88,11.087,11.194,11.526,12.001,12.384,12.518,12.935,13.229,13.381,13.696,13.696,13.536,0.0,0.0,0.0,0.0,0.0,0.0,0.0,0.0,0.0,0.0,0.0,7.866,7.920999999999999,7.973,8.028,8.028,8.084,8.141,8.256,8.375,8.56,8.955,9.464,9.783,10.123,10.212,10.212,10.302,10.171999999999999,10.583,10.68,10.779,10.982,11.526,12.384,13.536,13.859,14.026,14.197,14.197,14.197,14.197,14.197,14.026,14.026,14.026,14.026,13.859,13.696,13.696,13.536,13.381,13.229,12.935,12.793,12.518,12.384,12.254,12.001,11.879,11.641,0.0,0.0,0.0,5.174,5.084,4.996,4.975,4.954,4.975,4.975,4.975,4.954,4.954,4.933,4.933,4.933,4.933,4.912,4.912,4.933,4.933,4.933,4.954,4.954,4.954,4.996,4.996,5.018,5.04,5.04,5.491,0.0,0.0,0.0,0.0,0.0,9.313,10.302,10.68,10.583,10.583,10.488,10.488,10.488,10.583,10.583,10.583,10.583,10.68,10.68,10.779,10.88,10.982,11.194,11.302,11.526,11.526,11.641,11.879,12.001,12.001,12.001,12.001,11.879,11.879,11.641,11.526,11.302,11.194,10.982,10.88,10.779,10.68,10.68,10.583,10.488,10.488,10.488,10.583,10.488,10.583,10.583,10.68,10.68,10.68,10.779,10.88,10.88,10.779,10.779,10.68,10.68,10.68,10.583,10.583,10.488,10.394,10.394,10.394,10.302,10.212,10.212,10.212,10.212,10.123,10.123,10.123,10.123,10.123,10.123,10.212,10.212,10.212,10.302,10.394,10.394,10.583,10.583,10.68,10.68,10.779,10.779,10.68,10.68,10.583,10.394,10.394,10.302,10.212,10.212,10.123,10.123,10.123,10.123,10.212,10.212,10.302,10.394,10.394,10.583,10.68,10.779,10.982,11.087,11.194,11.302,11.879,11.641,11.641,11.641,11.526,11.302,11.302,10.982,10.982,10.779,10.68,10.68,10.583,10.583,10.583,10.488,10.394,10.394,10.394,10.394,10.302,10.302,10.302,10.302,10.302,10.302,10.302,10.212,10.212,10.123,9.95,9.783,9.701,9.313,9.024,8.497,8.315,8.198,8.198,8.084,8.028,0.0,0.0,0.0,0.0,0.0,0.0,0.0
5.735,5.735,5.763,5.792,5.821,5.85,5.91,5.939,6.001,6.032,6.127,6.159,6.225,6.327,6.361,6.396,6.396,6.432,6.432,6.432,6.432,6.396,6.361,6.361,6.327,6.259,6.225,6.159,6.159,6.159,6.127,6.16,5.944,5.57,5.0315,4.233,3.946,3.855,3.842,3.829,3.817,3.804,3.804,3.792,3.78,3.78,3.767,3.767,3.767,3.767,3.767,3.767,3.767,3.767,3.78,3.78,3.78,3.792,0.0,0.0,0.0,0.0,0.0,0.0,0.0,0.0,0.0,0.0,0.0,0.0,0.0,0.0,0.0,0.0,0.0,0.0,0.0,3.444,3.454,3.465,3.465,3.465,3.475,3.485,3.485,3.496,3.496,3.496,3.506,3.506,3.517,3.517,3.528,3.528,3.528,3.528,3.549,0.0,0.0,0.0,0.0,0.0,0.0,0.0,0.0,5.543,5.597,5.57,5.57,5.57,5.57,5.57,5.57,5.57,5.57,5.597,5.597,5.624,5.651,5.679,5.707,5.792,5.85,5.939,6.001,6.095,6.127,6.127,6.159,6.127,6.159,6.159,6.159,6.095,6.095,6.032,6.095,6.095,6.127,6.127,6.127,6.159,6.159,6.159,6.225,6.225,6.259,6.259,6.259,6.327,6.327,6.327,6.327,6.361,6.361,6.361,6.361,6.396,6.396,6.432,6.432,6.432,6.467,6.467,6.467,6.467,6.467,6.467,6.432,6.432,6.432,6.396,6.361,6.259,6.259,6.159,6.127,6.095,6.001,5.939,5.909,5.85,5.821,5.792,5.763,5.735,5.679,5.679,5.679,5.651,5.651,5.651,5.651,5.651,5.624,5.651,5.651,5.651,5.651,5.651,5.651,5.651,5.624,5.651,5.651,5.651,5.651,5.651,5.651,5.651,5.651,5.651,5.651,5.651,5.679,5.679,5.679,5.679,5.679,5.679,5.679,5.651,5.651,5.651,5.651,5.624,5.597,5.597,5.597,5.624,5.651,5.707,5.821,5.939,6.159,6.361,6.377750000000001,6.504,6.614,6.69,6.729,6.808,6.888,7.055,7.098,7.186,7.322,7.415,7.415,7.511,7.559,7.973,8.256,8.56,9.166,9.5155,9.865,10.212,10.394,10.583,10.583,10.583,10.488,10.394,10.394,10.302,10.302,10.302,10.302,10.347999999999999,10.394,10.583,10.583,10.68,10.982,11.087,11.526,12.001,12.384,12.793,13.229,13.381,13.536,13.859,14.026,14.026,13.536,0.0,0.0,0.0,0.0,0.0,0.0,0.0,0.0,0.0,0.0,8.028,8.084,8.141,8.141,8.141,8.256,8.375,8.56,8.819,9.239,9.701,10.036,10.302,10.394,10.488,10.583,10.68,10.779,10.942499999999999,11.058875,11.087,11.302,11.641,12.254,12.935,13.381,13.696,14.026,14.197,14.197,14.197,14.197,14.197,14.026,14.026,14.026,13.859,13.696,13.696,13.536,13.381,13.229,12.935,12.793,12.518,12.384,12.254,12.001,11.879,11.641,0.0,0.0,0.0,5.174,5.084,5.018,4.996,4.996,4.996,4.996,4.996,4.975,4.954,4.954,4.954,4.933,4.933,4.933,4.933,4.933,4.954,4.954,4.954,4.975,4.996,5.018,5.04,5.084,5.084,5.106,5.543,0.0,0.0,0.0,0.0,0.0,9.701,10.394,10.68,10.68,10.583,10.583,10.583,10.583,10.583,10.583,10.583,10.583,10.68,10.68,10.779,10.88,10.982,11.087,11.194,11.302,11.526,11.526,11.641,11.641,11.641,11.641,11.641,11.641,11.526,11.302,11.194,11.194,11.087,10.982,10.779,10.68,10.68,10.68,10.583,10.583,10.488,10.583,10.583,10.488,10.488,10.583,10.583,10.68,10.68,10.68,10.68,10.68,10.68,10.68,10.68,10.583,10.583,10.488,10.394,10.394,10.302,10.302,10.212,10.123,10.123,10.036,10.036,10.036,9.95,9.95,9.95,9.95,10.036,10.036,10.123,10.212,10.212,10.302,10.302,10.394,10.583,10.583,10.68,10.68,10.779,10.68,10.68,10.68,10.583,10.394,10.302,10.302,10.212,10.123,10.123,10.036,10.123,10.123,10.212,10.212,10.302,10.394,10.394,10.583,10.583,10.68,10.779,10.88,11.087,11.087,11.194,11.194,11.302,11.194,11.194,11.087,10.982,10.88,10.88,10.779,10.68,10.68,10.68,10.583,10.488,10.488,10.394,10.394,10.394,10.394,10.302,10.302,10.302,10.302,10.302,10.212,10.212,10.212,10.212,10.123,10.036,9.865,9.701,9.313,9.166,8.497,8.375,8.256,8.198,8.141,0.0,0.0,0.0,0.0,0.0,0.0,0.0,0.0
5.763,5.792,5.821,5.85,5.85,5.939,6.001,6.032,6.095,6.127,6.225,6.259,6.361,6.396,6.432,6.432,6.467,6.504,6.467,6.467,6.467,6.467,6.432,6.396,6.361,6.361,6.327,6.327,6.259,6.259,6.225,6.225,6.225,5.735,5.491,4.296,4.014,3.868,3.842,3.829,3.817,3.804,3.804,3.792,3.792,3.78,3.78,3.767,3.767,3.767,3.78,3.78,3.78,3.78,3.78,3.78,3.792,3.792,0.0,0.0,0.0,0.0,0.0,0.0,0.0,0.0,0.0,0.0,0.0,0.0,0.0,0.0,0.0,0.0,0.0,0.0,0.0,0.0,3.465,3.485,3.485,3.485,3.496,3.496,3.496,3.506,3.517,3.528,3.528,3.528,3.528,3.528,3.538,3.538,3.549,3.549,3.56,0.0,0.0,0.0,0.0,0.0,0.0,0.0,0.0,5.268,5.465,5.543,5.543,5.543,5.543,5.543,5.57,5.57,5.597,5.597,5.597,5.651,5.679,5.707,5.763,5.821,5.909,6.001,6.095,6.095,6.159,6.159,6.159,6.159,6.159,6.159,6.159,6.095,6.095,6.032,6.095,6.095,6.032,6.095,6.127,6.127,6.159,6.159,6.159,6.225,6.225,6.259,6.259,6.225,6.259,6.259,6.259,6.259,6.259,6.259,6.292999999999999,6.327,6.327,6.327,6.361,6.361,6.396,6.396,6.396,6.432,6.432,6.432,6.432,6.467,6.467,6.432,6.432,6.361,6.327,6.259,6.225,6.159,6.095,6.001,6.001,5.909,5.85,5.821,5.792,5.792,5.735,5.679,5.651,5.651,5.651,5.624,5.624,5.624,5.624,5.651,5.651,5.651,5.651,5.651,5.651,5.651,5.651,5.651,5.651,5.651,5.651,5.651,5.651,5.679,5.679,5.679,5.679,5.679,5.679,5.679,5.679,5.707,5.707,5.707,5.707,5.679,5.679,5.651,5.651,5.651,5.651,5.651,5.679,5.735,5.85,6.032,6.259,6.2925,6.432,6.577,6.614,6.69,6.808,6.888,7.055,7.098,7.322,7.368,7.511,7.709,7.761,7.813,7.866,7.919,7.973,8.198,8.497,8.955,9.313,9.598625,9.865,10.212,10.302,10.394,10.583,10.488,10.394,10.394,10.394,10.302,10.302,10.302,10.302,10.3365,10.394,10.4885,10.583,10.68,10.779,11.087,11.526,12.001,12.384,12.793,13.229,13.536,13.696,13.859,14.026,14.197,14.026,13.859,14.197,0.0,0.0,0.0,0.0,0.0,0.0,0.0,8.256,8.256,8.256,8.375,8.315,8.436,8.623,8.819,9.313,9.701,9.95,10.212,10.394,10.583,10.68,10.88,10.982,11.087,11.194,11.302,11.526,11.526,11.641,12.254,12.518,12.935,13.229,13.536,13.859,14.026,14.026,14.026,14.026,14.197,14.026,14.026,13.859,13.859,13.696,13.536,13.536,13.381,13.229,12.935,12.793,12.518,12.384,12.254,12.001,11.879,11.641,11.194,10.68,0.0,0.0,5.084,5.018,5.018,4.996,4.996,5.018,5.018,4.996,4.975,4.975,4.954,4.954,4.954,4.954,4.954,4.954,4.975,4.975,4.975,4.975,5.018,5.04,5.084,5.106,5.106,5.151,5.57,5.9655000000000005,6.361,0.0,0.0,0.0,9.95,10.583,10.779,10.68,10.68,10.68,10.68,10.583,10.583,10.583,10.583,10.68,10.68,10.68,10.779,10.779,10.88,10.982,11.087,11.194,11.302,11.302,11.302,11.526,11.526,11.526,11.302,11.302,11.302,11.194,11.087,10.982,10.982,10.88,10.779,10.68,10.68,10.68,10.583,10.583,10.488,10.583,10.583,10.488,10.488,10.488,10.488,10.583,10.583,10.583,10.583,10.583,10.68,10.583,10.583,10.583,10.394,10.394,10.302,10.302,10.212,10.212,10.036,10.036,10.036,9.95,10.036,9.865,9.865,9.865,9.865,9.95,10.036,10.036,10.123,10.212,10.212,10.302,10.394,10.394,10.583,10.583,10.68,10.68,10.68,10.68,10.68,10.583,10.488,10.394,10.302,10.302,10.212,10.123,10.123,10.123,10.123,10.123,10.212,10.212,10.302,10.302,10.394,10.394,10.583,10.583,10.68,10.68,10.88,10.88,10.982,11.087,11.087,11.087,11.087,10.982,10.982,10.88,10.88,10.779,10.68,10.68,10.68,10.583,10.583,10.488,10.394,10.394,10.394,10.302,10.302,10.302,10.302,10.302,10.302,10.212,10.212,10.212,10.212,10.123,10.036,9.865,9.701,9.464,9.166,8.56,8.436,8.315,8.256,8.198,0.0,0.0,0.0,0.0,0.0,0.0,0.0,0.0
5.85,5.909,5.939,5.939,6.001,6.032,6.095,6.127,6.159,6.259,6.327,6.361,6.396,6.432,6.467,6.504,6.504,6.504,6.504,6.504,6.504,6.467,6.432,6.432,6.396,6.396,6.396,6.396,6.396,6.361,6.361,6.361,6.327,5.909,5.651,4.868,4.085,3.868,3.855,3.829,3.817,3.804,3.804,3.792,3.792,3.78,3.78,3.78,3.78,3.78,3.78,3.78,3.78,3.792,3.792,3.792,3.792,3.804,0.0,0.0,0.0,0.0,0.0,0.0,0.0,0.0,0.0,0.0,0.0,0.0,0.0,0.0,0.0,0.0,0.0,0.0,0.0,0.0,0.0,3.496,3.506,3.506,3.506,3.517,3.528,3.538,3.538,3.549,3.549,3.549,3.549,3.549,3.549,3.56,3.549,3.56,3.56,3.582,3.6929999999999996,3.804,0.0,0.0,0.0,0.0,0.0,0.0,5.389,5.517,5.543,5.517,5.543,5.543,5.57,5.57,5.597,5.624,5.624,5.651,5.679,5.735,5.792,5.85,5.939,6.001,6.032,6.127,6.127,6.159,6.159,6.159,6.159,6.127,6.159,6.095,6.095,6.032,6.095,6.095,6.095,6.095,6.127,6.127,6.127,6.159,6.225,6.225,6.225,6.225,6.225,6.225,6.259,6.259,6.225,6.225,6.225,6.259,6.225,6.225,6.225,6.225,6.259,6.259,6.327,6.327,6.327,6.361,6.361,6.396,6.396,6.432,6.432,6.432,6.467,6.396,6.396,6.361,6.327,6.259,6.127,6.095,6.127,6.032,6.001,5.909,5.85,5.821,5.735,5.679,5.651,5.624,5.624,5.624,5.597,5.597,5.624,5.624,5.624,5.624,5.651,5.651,5.651,5.651,5.651,5.651,5.651,5.679,5.679,5.679,5.679,5.679,5.679,5.679,5.679,5.707,5.707,5.735,5.735,5.763,5.763,5.763,5.763,5.735,5.707,5.679,5.679,5.707,5.735,5.763,5.85,6.001,6.259,6.3157499999999995,6.432,6.54,6.614,6.729,6.848,7.055,7.186,7.322,7.415,7.559,7.659,7.761,7.866,7.973,8.028,8.028,8.084,8.141,8.198,8.436,8.819,9.239,9.47,9.701,9.95,10.212,10.302,10.394,10.488,10.394,10.394,10.302,10.302,10.302,10.302,10.302,10.302,10.302,10.394,10.4885,10.583,10.68,10.779,11.087,11.526,12.001,12.384,12.793,13.229,13.536,13.859,14.026,14.197,14.197,14.197,14.197,14.026,13.696,13.381,0.0,0.0,0.0,0.0,10.036,9.542,9.239,9.239,9.166,9.166,9.239,9.542,9.865,10.123,10.302,10.394,10.68,10.88,11.194,11.526,11.879,12.254,12.518,12.793,12.935,12.935,12.793,12.793,12.935,12.935,12.935,13.229,13.229,13.381,13.536,13.696,13.696,13.536,13.536,13.536,13.381,13.381,13.381,13.536,13.381,13.381,13.381,13.229,12.935,12.793,12.518,12.384,12.384,12.254,12.001,11.879,11.641,11.194,10.394,0.0,0.0,5.018,5.106,5.04,5.018,5.018,5.018,5.018,4.996,4.975,4.954,4.954,4.954,4.954,4.954,4.975,4.975,4.975,4.996,4.996,5.018,5.04,5.106,5.106,5.151,5.174,5.597,5.9965,6.396,0.0,0.0,0.0,9.95,10.68,10.779,10.68,10.68,10.583,10.68,10.583,10.583,10.583,10.583,10.68,10.68,10.68,10.779,10.779,10.88,10.982,10.982,11.087,11.087,11.194,11.194,11.194,11.194,11.194,11.194,11.087,11.087,10.982,10.982,10.88,10.779,10.779,10.68,10.68,10.68,10.583,10.583,10.583,10.488,10.488,10.488,10.394,10.394,10.394,10.394,10.394,10.394,10.394,10.394,10.394,10.394,10.394,10.394,10.302,10.302,10.212,10.212,10.212,10.123,9.95,9.865,9.865,9.865,9.95,9.865,9.865,9.865,9.865,9.865,9.95,9.95,10.036,10.036,10.123,10.212,10.302,10.394,10.394,10.488,10.583,10.583,10.68,10.68,10.68,10.583,10.583,10.488,10.394,10.302,10.212,10.212,10.123,10.036,10.123,10.123,10.123,10.212,10.212,10.302,10.302,10.394,10.394,10.488,10.583,10.583,10.68,10.68,10.779,10.88,10.88,10.88,10.88,10.88,10.88,10.88,10.88,10.88,10.779,10.68,10.68,10.68,10.583,10.583,10.488,10.394,10.394,10.394,10.302,10.302,10.302,10.302,10.302,10.212,10.212,10.212,10.212,10.123,10.123,10.036,9.865,9.701,9.464,9.166,8.623,8.56,8.375,8.256,8.198,0.0,0.0,0.0,0.0,0.0,0.0,0.0,0.0
6.001,6.032,6.032,6.095,6.095,6.127,6.159,6.225,6.259,6.327,6.396,6.396,6.432,6.467,6.467,6.504,6.54,6.54,6.54,6.54,6.504,6.504,6.504,6.467,6.467,6.432,6.432,6.432,6.432,6.432,6.396,6.432,6.432,6.159,5.821,5.0045,4.188,3.906,3.855,3.829,3.817,3.804,3.804,3.792,3.792,3.792,3.78,3.78,3.78,3.78,3.78,3.78,3.792,3.792,3.792,3.792,3.804,3.804,0.0,0.0,0.0,0.0,0.0,0.0,0.0,0.0,0.0,0.0,0.0,0.0,0.0,0.0,0.0,0.0,0.0,0.0,0.0,0.0,0.0,3.528,3.528,3.528,3.538,3.538,3.549,3.56,3.582,3.582,3.582,3.582,3.56,3.582,3.56,3.582,3.56,3.56,3.582,3.56,0.0,0.0,0.0,0.0,0.0,0.0,0.0,0.0,5.268,5.517,5.543,5.543,5.543,5.57,5.57,5.597,5.597,5.651,5.651,5.679,5.707,5.763,5.821,5.909,6.001,6.032,6.095,6.127,6.159,6.159,6.159,6.159,6.127,6.159,6.127,6.095,6.095,6.095,6.095,6.095,6.095,6.095,6.127,6.127,6.127,6.159,6.225,6.225,6.225,6.225,6.225,6.225,6.225,6.225,6.225,6.225,6.159,6.225,6.225,6.159,6.159,6.159,6.159,6.159,6.159,6.225,6.225,6.225,6.327,6.327,6.361,6.396,6.432,6.432,6.467,6.467,6.432,6.396,6.396,6.361,6.327,6.259,6.159,6.095,6.032,5.939,5.909,5.821,5.735,5.679,5.651,5.624,5.624,5.597,5.597,5.597,5.597,5.624,5.624,5.651,5.651,5.651,5.651,5.651,5.651,5.651,5.679,5.679,5.679,5.679,5.679,5.679,5.679,5.679,5.679,5.707,5.763,5.763,5.792,5.821,5.821,5.85,5.821,5.821,5.763,5.763,5.792,5.821,5.909,6.032,6.159,6.265,6.396,6.54,6.652,6.729,6.848,7.055,7.186,7.368,7.511,7.659,7.761,7.866,7.919,8.028,8.028,8.084,8.141,8.198,8.256,8.256,8.375,8.623,9.024,9.464,9.5825,9.701,9.95,10.123,10.212,10.302,10.394,10.302,10.302,10.302,10.212,10.212,10.212,10.212,10.302,10.302,10.394,10.440999999999999,10.488,10.583,10.779,11.087,11.526,12.001,12.518,12.935,13.381,13.696,13.859,14.026,14.197,14.197,14.197,14.197,14.197,14.197,14.197,13.859,13.536,11.641,10.88,10.583,10.212,9.95,9.865,9.865,9.95,10.036,10.212,10.394,10.583,10.68,10.88,11.194,11.641,12.254,12.254,12.518,12.793,12.793,12.935,12.935,12.793,12.518,12.518,12.518,12.793,12.793,12.793,12.793,12.935,13.229,13.229,13.229,13.229,13.229,13.229,12.935,12.935,12.935,12.935,12.935,12.935,12.935,12.935,12.793,12.793,12.518,12.518,12.384,12.254,12.001,12.001,11.879,11.641,10.212,0.0,0.0,5.389,5.34,5.151,5.04,5.04,5.04,5.018,4.996,4.996,4.996,4.975,4.975,4.954,4.954,4.975,4.975,4.996,4.996,4.996,5.04,5.084,5.106,5.106,5.151,5.174,5.624,0.0,0.0,0.0,0.0,0.0,9.95,10.583,10.68,10.68,10.68,10.68,10.68,10.68,10.583,10.583,10.68,10.68,10.68,10.779,10.779,10.779,10.779,10.88,10.982,10.982,11.087,11.087,11.087,11.087,10.982,11.087,10.982,10.982,10.982,10.982,10.88,10.88,10.779,10.68,10.68,10.68,10.68,10.583,10.583,10.488,10.488,10.488,10.394,10.394,10.394,10.394,10.302,10.394,10.302,10.302,10.394,10.394,10.394,10.394,10.394,10.302,10.212,10.212,10.212,10.123,10.036,9.95,9.865,9.865,9.865,9.865,9.865,9.865,9.865,9.865,9.865,9.95,10.036,10.036,10.123,10.212,10.212,10.302,10.394,10.488,10.583,10.583,10.583,10.68,10.68,10.583,10.583,10.583,10.394,10.302,10.302,10.212,10.123,10.123,10.123,10.123,10.123,10.123,10.212,10.212,10.302,10.302,10.394,10.394,10.394,10.488,10.583,10.583,10.583,10.68,10.68,10.779,10.779,10.779,10.88,10.779,10.88,10.88,10.88,10.88,10.779,10.779,10.68,10.68,10.583,10.488,10.394,10.394,10.394,10.302,10.302,10.302,10.302,10.212,10.212,10.212,10.212,10.123,10.123,10.036,9.95,9.865,9.701,9.464,9.166,8.623,8.497,8.436,8.315,8.198,0.0,0.0,0.0,0.0,0.0,0.0,0.0,0.0
6.095,6.095,6.127,6.159,6.225,6.259,6.327,6.361,6.396,6.396,6.432,6.467,6.432,6.504,6.504,6.504,6.54,6.54,6.54,6.54,6.504,6.54,6.504,6.467,6.467,6.467,6.467,6.467,6.467,6.504,6.467,6.467,6.504,6.327,6.032,5.466875,4.83,4.056,3.893,3.842,3.804,3.804,3.804,3.792,3.792,3.792,3.792,3.78,3.78,3.78,3.78,3.792,3.792,3.792,3.792,3.804,3.804,3.804,0.0,0.0,0.0,0.0,0.0,0.0,0.0,0.0,0.0,0.0,0.0,0.0,0.0,0.0,0.0,0.0,0.0,0.0,0.0,0.0,0.0,3.5715000000000003,3.56,3.56,3.56,3.582,3.582,3.593,3.615,3.593,3.593,3.593,3.593,3.582,3.582,3.582,3.582,3.582,3.582,3.582,0.0,0.0,0.0,0.0,0.0,0.0,4.891,5.0555,5.22,5.491,5.543,5.543,5.57,5.597,5.597,5.624,5.651,5.679,5.679,5.707,5.763,5.821,5.85,5.939,6.032,6.095,6.127,6.159,6.159,6.159,6.159,6.159,6.159,6.159,6.127,6.127,6.127,6.127,6.095,6.095,6.127,6.127,6.127,6.127,6.159,6.225,6.225,6.225,6.225,6.225,6.225,6.225,6.225,6.225,6.225,6.225,6.225,6.225,6.159,6.159,6.127,6.127,6.127,6.095,6.127,6.127,6.159,6.159,6.225,6.259,6.361,6.361,6.432,6.396,6.432,6.432,6.432,6.396,6.396,6.396,6.327,6.259,6.225,6.127,6.032,6.001,5.939,5.821,5.735,5.679,5.651,5.624,5.624,5.597,5.597,5.597,5.624,5.624,5.651,5.651,5.651,5.651,5.651,5.651,5.651,5.679,5.679,5.679,5.679,5.679,5.679,5.679,5.679,5.707,5.707,5.735,5.792,5.821,5.821,5.85,5.909,5.909,5.909,5.909,5.85,5.85,5.939,6.032,6.159,6.2285,6.327,6.504,6.614,6.729,6.888,6.971,7.231,7.415,7.559,7.709,7.813,7.866,7.973,7.973,8.028,8.028,8.084,8.141,8.198,8.256,8.256,8.315,8.436,8.753,9.024,9.313,9.534625,9.701,9.783,10.036,10.212,10.212,10.302,10.302,10.212,10.212,10.212,10.212,10.212,10.212,10.212,10.302,10.302,10.395,10.488,10.583,10.779,11.087,11.526,12.001,12.518,12.935,13.381,13.696,13.859,14.026,14.197,14.197,14.197,14.197,14.197,14.197,14.026,13.859,13.381,12.793,11.302,10.779,10.583,10.394,10.302,10.302,10.302,10.394,10.488,10.68,10.779,10.982,11.194,11.526,11.879,12.001,12.384,12.518,12.384,12.518,12.518,12.518,12.384,12.384,12.384,12.384,12.384,12.384,12.384,12.518,12.518,12.793,12.935,12.935,12.793,12.793,12.793,12.793,12.793,12.793,12.793,12.793,12.793,12.793,12.793,12.793,12.518,12.518,12.518,12.384,12.254,12.254,12.001,12.001,11.879,11.641,11.526,0.0,0.0,5.909,5.389,5.22,5.106,5.106,5.084,5.04,5.018,4.996,4.975,4.954,4.954,4.975,4.975,4.975,4.996,4.996,5.018,5.018,5.084,5.106,5.106,5.151,5.151,5.597,0.0,0.0,0.0,0.0,0.0,9.865,10.583,10.68,10.68,10.583,10.583,10.68,10.68,10.583,10.68,10.68,10.68,10.68,10.779,10.779,10.779,10.779,10.88,10.88,10.982,10.982,10.982,10.982,10.982,10.982,10.982,10.88,10.88,10.88,10.88,10.88,10.779,10.779,10.68,10.68,10.68,10.68,10.583,10.583,10.583,10.488,10.583,10.488,10.394,10.394,10.394,10.302,10.302,10.302,10.302,10.302,10.302,10.302,10.302,10.302,10.302,10.302,10.212,10.212,10.123,10.036,10.036,9.95,9.95,9.95,9.95,9.95,9.95,9.95,9.95,10.036,10.036,10.123,10.212,10.212,10.212,10.302,10.394,10.394,10.583,10.583,10.583,10.583,10.583,10.583,10.583,10.583,10.394,10.394,10.302,10.212,10.123,10.123,10.123,10.036,10.036,10.123,10.123,10.212,10.212,10.302,10.302,10.302,10.394,10.394,10.394,10.488,10.488,10.583,10.583,10.68,10.68,10.68,10.68,10.779,10.779,10.88,10.982,10.982,10.88,10.88,10.779,10.779,10.68,10.68,10.583,10.394,10.394,10.394,10.302,10.302,10.302,10.302,10.212,10.212,10.212,10.123,10.123,10.036,9.95,9.865,9.783,9.701,9.313,9.166,8.623,8.56,8.436,8.315,8.256,0.0,0.0,0.0,0.0,0.0,0.0,0.0,0.0
6.159,6.159,6.225,6.225,6.259,6.327,6.361,6.396,6.432,6.432,6.467,6.467,6.467,6.504,6.54,6.54,6.54,6.54,6.504,6.54,6.54,6.54,6.504,6.504,6.504,6.504,6.54,6.54,6.54,6.54,6.54,6.54,6.54,6.432,6.327,6.001,5.34,4.683999999999999,4.028,3.868,3.817,3.804,3.804,3.792,3.792,3.792,3.792,3.78,3.78,3.78,3.78,3.792,3.792,3.792,3.792,3.804,3.804,3.804,3.804,0.0,0.0,0.0,0.0,0.0,0.0,0.0,0.0,0.0,0.0,0.0,0.0,0.0,0.0,0.0,0.0,0.0,0.0,0.0,0.0,3.615,3.615,3.615,3.615,3.615,3.627,3.627,3.627,3.627,3.627,3.615,3.615,3.593,3.593,3.582,3.593,3.582,3.582,3.582,3.593,3.743,3.92,0.0,0.0,0.0,4.871,5.022500000000001,5.174,5.517,5.57,5.57,5.597,5.597,5.624,5.651,5.651,5.679,5.707,5.763,5.792,5.85,5.939,6.001,6.095,6.095,6.127,6.159,6.159,6.159,6.225,6.159,6.159,6.159,6.159,6.159,6.127,6.127,6.159,6.159,6.159,6.159,6.159,6.159,6.225,6.225,6.225,6.259,6.259,6.259,6.259,6.225,6.259,6.259,6.225,6.259,6.225,6.225,6.225,6.159,6.159,6.127,6.127,6.095,6.095,6.095,6.095,6.127,6.159,6.159,6.225,6.327,6.361,6.396,6.396,6.432,6.432,6.396,6.396,6.361,6.361,6.259,6.225,6.159,6.095,6.032,5.939,5.85,5.792,5.679,5.651,5.651,5.651,5.624,5.624,5.624,5.624,5.651,5.651,5.651,5.651,5.651,5.679,5.679,5.679,5.679,5.679,5.679,5.679,5.707,5.707,5.707,5.707,5.707,5.735,5.763,5.792,5.821,5.85,5.909,5.909,5.939,5.939,5.939,5.939,5.939,6.095,6.16125,6.259,6.396,6.54,6.652,6.768,7.055,7.231,7.415,7.659,7.709,7.813,7.919,7.973,8.028,8.028,8.028,8.084,8.084,8.141,8.198,8.256,8.256,8.315,8.375,8.497,8.753,9.166,9.313,9.542,9.642000000000001,9.783,9.865,10.036,10.123,10.212,10.212,10.212,10.212,10.123,10.123,10.212,10.212,10.212,10.302,10.302,10.395,10.488,10.68,10.779,11.087,11.526,12.001,12.518,12.935,13.381,13.696,14.026,14.026,14.197,14.197,14.197,14.197,14.026,14.026,13.859,13.696,13.381,12.935,11.641,11.087,10.779,10.68,10.583,10.583,10.583,10.68,10.88,10.982,11.194,11.526,11.641,12.001,12.001,12.254,12.254,12.384,12.518,12.518,12.518,12.384,12.384,12.254,12.254,12.254,12.254,12.254,12.254,12.254,12.384,12.518,12.518,12.518,12.518,12.518,12.518,12.518,12.518,12.518,12.518,12.518,12.518,12.518,12.518,12.518,12.518,12.518,12.518,12.518,12.518,12.384,12.254,12.001,11.879,11.879,11.526,10.982,0.0,7.0825,5.939,5.415,5.244,5.151,5.106,5.084,5.04,4.996,4.975,4.975,4.954,4.975,4.975,4.975,4.996,4.996,4.996,5.04,5.04,5.084,5.106,5.151,5.151,5.57,0.0,0.0,0.0,0.0,0.0,9.464,10.583,10.68,10.583,10.583,10.583,10.583,10.583,10.583,10.68,10.68,10.68,10.779,10.88,10.88,10.88,10.88,10.982,10.982,10.982,10.982,10.982,10.982,10.982,11.087,10.982,10.88,10.88,10.88,10.88,10.88,10.88,10.779,10.779,10.779,10.779,10.779,10.68,10.68,10.68,10.583,10.583,10.583,10.488,10.394,10.394,10.394,10.302,10.394,10.302,10.302,10.302,10.302,10.325,10.302,10.302,10.302,10.212,10.212,10.212,10.123,10.123,10.123,10.123,10.123,10.123,10.123,10.123,10.123,10.123,10.212,10.212,10.212,10.212,10.212,10.302,10.302,10.394,10.394,10.488,10.583,10.583,10.583,10.583,10.583,10.583,10.488,10.394,10.302,10.302,10.212,10.123,10.123,10.036,10.036,10.036,10.123,10.123,10.212,10.302,10.302,10.302,10.302,10.394,10.394,10.394,10.394,10.394,10.488,10.583,10.583,10.583,10.68,10.68,10.68,10.779,10.88,10.982,11.087,11.087,10.982,10.982,10.88,10.779,10.68,10.583,10.488,10.394,10.394,10.302,10.302,10.302,10.302,10.212,10.212,10.123,10.036,10.036,9.95,9.865,9.783,9.701,9.542,9.313,9.166,8.819,8.56,8.497,8.315,8.256,0.0,0.0,0.0,0.0,0.0,0.0,0.0,0.0
6.159,6.159,6.225,6.259,6.259,6.361,6.361,6.396,6.432,6.467,6.467,6.467,6.504,6.504,6.504,6.504,6.504,6.54,6.504,6.54,6.54,6.54,6.54,6.54,6.54,6.54,6.577,6.577,6.577,6.614,6.614,6.614,6.614,6.577,6.467,6.361,5.85,0.0,0.0,3.933,3.829,3.804,3.804,3.792,3.792,3.792,3.792,3.78,3.78,3.78,3.78,3.78,3.792,3.792,3.792,3.792,3.804,3.804,3.804,0.0,0.0,0.0,0.0,0.0,0.0,0.0,0.0,0.0,0.0,0.0,0.0,0.0,0.0,0.0,0.0,0.0,0.0,0.0,0.0,3.661,3.661,3.661,3.649,3.649,3.661,3.661,3.661,3.661,3.649,3.627,3.627,3.615,3.615,3.593,3.593,3.593,3.582,3.593,3.593,3.743,3.906,0.0,0.0,0.0,4.83,4.9905,5.151,5.543,5.597,5.597,5.651,5.651,5.679,5.679,5.707,5.763,5.792,5.821,5.85,5.909,6.001,6.032,6.095,6.127,6.127,6.127,6.159,6.159,6.127,6.127,6.159,6.159,6.159,6.127,6.127,6.159,6.159,6.159,6.159,6.159,6.159,6.159,6.225,6.225,6.259,6.259,6.259,6.259,6.327,6.327,6.327,6.327,6.327,6.361,6.327,6.259,6.259,6.225,6.225,6.159,6.127,6.095,6.095,6.127,6.127,6.127,6.159,6.159,6.225,6.259,6.361,6.396,6.432,6.432,6.432,6.396,6.396,6.396,6.361,6.259,6.225,6.127,6.095,6.001,5.939,5.85,5.792,5.679,5.651,5.651,5.651,5.651,5.624,5.651,5.651,5.651,5.651,5.679,5.679,5.679,5.679,5.679,5.679,5.707,5.707,5.735,5.735,5.735,5.735,5.735,5.735,5.735,5.735,5.792,5.821,5.85,5.909,5.909,5.939,6.001,6.001,6.001,6.032,6.095,6.1685,6.259,6.432,6.54,6.652,6.768,7.055,7.368,7.659,7.709,7.866,7.919,7.973,8.028,8.028,8.084,8.084,8.084,8.084,8.141,8.198,8.198,8.256,8.256,8.315,8.436,8.56,8.753,9.024,9.239,9.313,9.542,9.643,9.783,9.865,9.95,10.123,10.036,10.036,10.036,10.036,10.123,10.123,10.212,10.212,10.302,10.302,10.39475,10.488,10.68,10.88,11.087,11.526,12.001,12.518,13.229,13.536,13.696,13.859,14.026,14.197,14.197,14.197,14.026,14.026,14.026,13.859,13.696,13.381,12.935,12.384,11.526,11.194,10.982,10.982,10.982,10.982,11.087,11.302,11.302,11.641,11.879,12.001,12.001,12.254,12.384,12.384,12.518,12.518,12.384,12.518,12.384,12.254,12.254,12.001,12.254,12.001,12.001,12.001,12.254,12.254,12.384,12.384,12.384,12.384,12.384,12.384,12.384,12.384,12.384,12.384,12.518,12.518,12.518,12.518,12.518,12.518,12.793,12.793,12.518,12.793,12.518,12.518,12.384,12.384,12.254,11.641,11.302,10.488,8.256,7.0385,5.821,5.415,5.244,5.151,5.084,5.084,5.018,4.975,4.975,4.975,4.975,4.975,4.975,4.996,4.996,4.996,5.04,5.04,5.084,5.084,5.151,5.151,5.543,0.0,0.0,0.0,0.0,0.0,8.955,10.394,10.488,10.488,10.394,10.488,10.583,10.583,10.583,10.68,10.68,10.779,10.88,10.982,10.982,10.88,10.982,10.982,10.982,11.087,11.087,11.087,11.087,11.087,11.087,11.087,11.087,10.982,10.982,10.982,10.982,10.982,10.88,10.88,10.88,10.88,10.88,10.779,10.779,10.68,10.68,10.68,10.68,10.68,10.583,10.488,10.488,10.394,10.394,10.394,10.394,10.394,10.394,10.394,10.394,10.302,10.302,10.212,10.212,10.212,10.212,10.212,10.212,10.212,10.212,10.302,10.212,10.212,10.212,10.302,10.302,10.302,10.302,10.302,10.302,10.302,10.394,10.394,10.488,10.488,10.488,10.583,10.583,10.583,10.583,10.583,10.394,10.394,10.302,10.212,10.212,10.212,10.123,10.123,10.123,10.123,10.123,10.212,10.212,10.302,10.302,10.302,10.302,10.302,10.394,10.394,10.394,10.394,10.488,10.583,10.583,10.583,10.68,10.68,10.779,10.88,10.982,11.087,11.194,11.194,11.087,11.087,10.982,10.88,10.779,10.68,10.583,10.488,10.394,10.394,10.302,10.302,10.302,10.212,10.212,10.123,10.036,9.95,9.865,9.783,9.701,9.542,9.464,9.239,9.166,8.955,8.623,8.497,8.436,8.315,0.0,0.0,0.0,0.0,0.0,0.0,0.0,0.0
6.127,6.159,6.225,6.259,6.259,6.327,6.361,6.396,6.396,6.432,6.432,6.432,6.432,6.467,6.467,6.467,6.467,6.504,6.504,6.504,6.504,6.54,6.54,6.54,6.54,6.577,6.614,6.614,6.652,6.69,6.69,6.69,6.69,6.614,6.577,6.504,6.225,0.0,0.0,3.987,3.829,3.804,3.804,3.804,3.792,3.792,3.792,3.78,3.78,3.78,3.78,3.78,3.792,3.792,3.792,3.792,3.792,3.804,3.804,0.0,0.0,0.0,0.0,0.0,0.0,0.0,0.0,0.0,0.0,0.0,0.0,0.0,0.0,0.0,0.0,0.0,0.0,0.0,0.0,0.0,0.0,3.696,3.672,3.672,3.672,3.672,3.696,3.672,3.661,3.649,3.627,3.627,3.615,3.615,3.593,3.582,3.582,3.582,3.593,3.743,3.92,0.0,0.0,0.0,4.851,5.0125,5.174,5.57,5.624,5.651,5.679,5.679,5.707,5.735,5.792,5.792,5.821,5.85,5.909,5.939,6.001,6.032,6.095,6.095,6.095,6.095,6.095,6.095,6.095,6.032,6.032,6.095,6.095,6.095,6.095,6.095,6.095,6.127,6.159,6.159,6.159,6.159,6.225,6.225,6.259,6.259,6.259,6.327,6.327,6.327,6.361,6.396,6.396,6.396,6.361,6.361,6.327,6.327,6.259,6.327,6.259,6.159,6.159,6.159,6.159,6.127,6.159,6.159,6.225,6.259,6.361,6.396,6.396,6.396,6.396,6.396,6.361,6.361,6.327,6.259,6.159,6.095,6.032,5.939,5.85,5.821,5.763,5.679,5.679,5.651,5.651,5.651,5.651,5.651,5.651,5.679,5.679,5.679,5.679,5.679,5.679,5.707,5.707,5.735,5.735,5.763,5.763,5.763,5.763,5.763,5.763,5.763,5.763,5.792,5.85,5.909,5.909,5.939,6.001,6.032,6.032,6.095,6.127,6.167999999999999,6.225,6.396,6.54,6.652,6.768,6.971,7.322,7.659,7.813,7.919,7.973,8.028,8.028,8.084,8.084,8.084,8.084,8.084,8.141,8.198,8.198,8.256,8.256,8.315,8.375,8.497,8.56,8.753,8.955,9.166,9.239,9.464,9.464,9.701,9.783,9.865,9.909,9.865,9.865,9.95,10.036,10.123,10.1675,10.212,10.212,10.302,10.347999999999999,10.394,10.583,10.68,10.982,11.194,11.641,12.254,12.518,13.229,13.536,13.696,14.026,14.026,14.026,14.026,14.026,14.026,13.859,13.859,13.696,13.536,13.381,13.229,12.793,12.384,11.641,11.526,11.526,11.302,11.302,11.641,11.641,11.879,12.001,12.001,12.384,12.384,12.518,12.518,12.518,12.518,12.793,12.518,12.518,12.518,12.518,12.384,12.384,12.254,12.254,12.254,12.254,12.254,12.384,12.384,12.384,12.384,12.384,12.384,12.384,12.384,12.384,12.384,12.384,12.384,12.384,12.518,12.518,12.793,12.793,12.793,12.793,12.935,12.793,12.793,12.793,12.793,12.518,12.384,12.254,11.641,11.087,10.583,7.928750000000001,6.7374375,5.491,5.268,5.174,5.106,5.084,5.018,4.996,4.975,4.975,4.975,4.975,4.975,4.975,4.996,5.018,5.04,5.04,5.084,5.084,5.151,5.151,5.517,0.0,0.0,0.0,0.0,0.0,8.753,10.302,10.302,10.302,10.302,10.394,10.583,10.583,10.583,10.583,10.68,10.88,10.982,11.087,11.087,11.087,11.087,11.087,11.194,11.194,11.194,11.194,11.194,11.087,11.194,11.194,11.087,11.087,11.087,11.194,11.194,11.087,10.982,10.982,10.982,10.982,10.982,10.88,10.88,10.88,10.88,10.982,10.779,10.68,10.68,10.583,10.583,10.583,10.488,10.488,10.488,10.488,10.488,10.488,10.394,10.394,10.394,10.302,10.302,10.302,10.302,10.302,10.302,10.302,10.394,10.394,10.394,10.394,10.302,10.394,10.394,10.394,10.394,10.394,10.394,10.394,10.394,10.394,10.394,10.488,10.488,10.394,10.488,10.488,10.488,10.488,10.394,10.302,10.302,10.302,10.212,10.212,10.212,10.212,10.212,10.212,10.212,10.212,10.212,10.302,10.302,10.302,10.302,10.302,10.394,10.394,10.394,10.394,10.394,10.488,10.583,10.583,10.68,10.68,10.779,10.88,10.982,11.087,11.194,11.302,11.194,11.194,11.087,10.982,10.779,10.68,10.583,10.488,10.394,10.394,10.302,10.302,10.302,10.212,10.212,10.123,10.036,9.95,9.865,9.783,9.701,9.542,9.464,9.313,9.166,8.955,8.819,8.56,8.497,8.436,0.0,0.0,0.0,0.0,0.0,0.0,0.0,0.0
6.127,6.127,6.159,6.159,6.225,6.259,6.327,6.361,6.361,6.361,6.396,6.396,6.396,6.432,6.396,6.432,6.467,6.467,6.467,6.467,6.54,6.54,6.54,6.54,6.577,6.614,6.652,6.69,6.69,6.729,6.729,6.729,6.768,6.729,6.69,6.614,6.54,6.127,0.0,0.0,3.829,3.792,3.804,3.792,3.792,3.792,3.78,3.78,3.78,3.78,3.78,3.78,3.78,3.792,3.792,3.792,3.792,3.792,0.0,0.0,0.0,0.0,0.0,0.0,0.0,0.0,0.0,0.0,0.0,0.0,0.0,0.0,0.0,0.0,0.0,0.0,0.0,0.0,0.0,0.0,0.0,3.743,3.731,3.696,3.707,3.696,3.707,3.696,3.672,3.661,3.649,3.627,3.615,3.615,3.593,3.582,3.593,3.593,3.593,3.767,3.933,4.0985,4.264,4.5575,4.851,5.0355,5.22,5.597,5.651,5.651,5.679,5.735,5.763,5.792,5.821,5.85,5.85,5.909,5.939,5.939,6.001,6.032,6.032,6.032,6.032,6.032,6.032,6.001,6.001,6.001,6.001,6.001,6.001,6.032,6.095,6.095,6.095,6.127,6.159,6.159,6.159,6.159,6.159,6.225,6.259,6.259,6.327,6.327,6.361,6.361,6.396,6.396,6.396,6.396,6.396,6.396,6.432,6.396,6.361,6.361,6.327,6.259,6.225,6.225,6.225,6.225,6.225,6.225,6.225,6.259,6.361,6.361,6.361,6.361,6.361,6.361,6.327,6.327,6.259,6.159,6.127,6.032,6.001,5.909,5.821,5.792,5.735,5.679,5.679,5.651,5.651,5.679,5.679,5.679,5.679,5.679,5.707,5.707,5.735,5.735,5.735,5.735,5.735,5.763,5.763,5.763,5.763,5.763,5.792,5.792,5.763,5.763,5.792,5.821,5.85,5.909,5.939,6.001,6.032,6.095,6.127,6.159,6.183999999999999,6.225,6.361,6.504,6.614,6.729,6.929,7.231,7.559,7.813,7.973,8.028,8.028,8.084,8.084,8.084,8.084,8.084,8.141,8.141,8.198,8.198,8.198,8.256,8.256,8.315,8.375,8.497,8.56,8.753,8.819,9.024,9.166,9.239,9.313,9.542,9.542,9.783,9.783,9.865,9.95,9.95,10.036,10.123,10.178625,10.212,10.302,10.302,10.394,10.394,10.583,10.779,10.982,11.302,11.879,12.254,12.793,13.229,13.536,13.696,14.026,14.026,14.026,14.026,13.859,13.859,13.859,13.859,13.696,13.536,13.229,13.229,12.935,12.518,12.384,12.254,11.879,11.879,11.879,12.001,12.001,12.254,12.255749999999999,12.384,12.384,12.518,12.518,12.518,12.518,12.518,12.793,12.793,12.793,12.793,12.793,12.518,12.518,12.518,12.518,12.518,12.518,12.518,12.518,12.518,12.518,12.518,12.384,12.384,12.384,12.254,12.254,12.254,12.384,12.384,12.384,12.384,12.518,12.793,12.793,12.793,12.793,12.935,12.935,12.935,12.935,12.793,12.793,12.518,12.384,12.001,11.302,10.394,8.819,7.709,6.512499999999999,5.316,5.174,5.151,5.106,5.018,4.996,4.975,4.975,4.975,4.975,4.975,4.975,4.996,4.996,5.018,5.084,5.106,5.106,5.106,5.174,5.517,0.0,0.0,0.0,0.0,8.375,9.120000000000001,9.865,10.212,10.212,10.212,10.302,10.394,10.583,10.583,10.583,10.68,10.88,10.982,11.087,11.087,11.194,11.194,11.302,11.302,11.302,11.302,11.302,11.194,11.302,11.194,11.194,11.302,11.194,11.194,11.194,11.302,11.302,11.194,11.087,11.194,11.194,11.194,11.302,11.194,11.194,11.302,11.302,11.194,11.087,10.779,10.68,10.68,10.68,10.583,10.583,10.583,10.583,10.583,10.583,10.583,10.488,10.394,10.394,10.394,10.394,10.394,10.394,10.394,10.394,10.488,10.488,10.488,10.394,10.394,10.394,10.394,10.394,10.394,10.394,10.394,10.394,10.394,10.488,10.488,10.488,10.488,10.488,10.488,10.488,10.488,10.488,10.394,10.394,10.302,10.302,10.302,10.212,10.302,10.212,10.212,10.212,10.212,10.302,10.302,10.302,10.394,10.394,10.394,10.394,10.394,10.394,10.394,10.394,10.488,10.583,10.583,10.583,10.68,10.779,10.88,10.982,11.087,11.194,11.526,11.526,11.526,11.302,11.194,10.982,10.88,10.68,10.583,10.488,10.394,10.394,10.394,10.302,10.302,10.212,10.212,10.036,9.95,9.865,9.783,9.783,9.701,9.542,9.464,9.313,9.239,9.024,9.024,8.955,8.753,8.6955,0.0,0.0,0.0,0.0,0.0,0.0,0.0,0.0
6.032,6.095,6.095,6.127,6.159,6.225,6.225,6.259,6.259,6.327,6.327,6.327,6.361,6.361,6.396,6.396,6.396,6.432,6.467,6.467,6.504,6.54,6.54,6.577,6.577,6.614,6.652,6.69,6.729,6.768,6.808,6.848,6.808,6.768,6.729,6.729,6.69,6.54,5.792,4.8235,3.855,3.804,3.804,3.804,3.792,3.792,3.78,3.78,3.78,3.78,3.78,3.78,3.78,3.78,3.78,3.78,3.792,3.792,0.0,0.0,0.0,0.0,0.0,0.0,0.0,0.0,0.0,0.0,0.0,0.0,0.0,0.0,0.0,0.0,0.0,0.0,0.0,0.0,0.0,0.0,0.0,0.0,3.743,3.731,3.731,3.707,3.707,3.696,3.672,3.661,3.649,3.649,3.627,3.615,3.593,3.593,3.593,3.593,3.593,3.755,3.906,0.0,4.2485,4.53925,4.83,4.9905,5.151,5.597,5.679,5.679,5.735,5.763,5.792,5.821,5.85,5.909,5.909,5.939,5.939,6.001,6.001,6.001,6.001,6.001,6.001,5.939,5.939,5.939,5.939,5.909,5.909,5.939,6.001,6.001,6.032,6.032,6.095,6.095,6.127,6.159,6.159,6.159,6.159,6.225,6.259,6.259,6.327,6.361,6.361,6.361,6.396,6.396,6.467,6.467,6.467,6.467,6.467,6.432,6.432,6.432,6.396,6.361,6.327,6.327,6.259,6.259,6.259,6.259,6.259,6.327,6.361,6.361,6.361,6.361,6.327,6.327,6.259,6.259,6.225,6.127,6.095,6.001,5.909,5.85,5.792,5.735,5.707,5.679,5.679,5.679,5.679,5.679,5.679,5.679,5.707,5.707,5.735,5.763,5.763,5.763,5.792,5.792,5.792,5.792,5.792,5.792,5.821,5.792,5.792,5.792,5.792,5.792,5.792,5.821,5.85,5.909,5.939,6.001,6.032,6.095,6.159,6.192,6.225,6.259,6.432,6.577,6.69,6.808,7.055,7.368,7.659,7.919,7.973,8.028,8.084,8.084,8.084,8.084,8.141,8.141,8.141,8.198,8.198,8.198,8.256,8.256,8.315,8.375,8.375,8.436,8.56,8.623,8.753,8.819,8.955,9.024,9.239,9.313,9.464,9.542,9.701,9.783,9.865,9.95,10.036,10.123999999999999,10.212,10.302,10.302,10.394,10.394,10.488,10.68,10.88,11.087,11.526,11.879,12.254,12.793,13.229,13.536,13.696,13.859,14.026,14.026,14.026,13.859,13.859,13.696,13.696,13.536,13.536,13.381,13.229,12.935,12.793,12.518,12.384,12.384,12.384,12.254,12.384,12.384,12.384,12.384,12.518,12.518,12.518,12.6555,12.793,12.793,12.793,12.793,12.793,12.935,12.935,12.935,12.935,12.935,12.793,12.793,12.793,12.793,12.793,12.793,12.793,12.793,12.518,12.384,12.384,12.254,12.254,12.254,12.254,12.001,12.254,12.254,12.384,12.384,12.518,12.518,12.518,12.793,12.935,12.935,12.935,12.935,12.793,12.793,12.518,12.384,12.001,11.526,10.982,9.464,8.028,6.721500000000001,5.415,5.244,5.151,5.106,5.04,4.996,4.975,4.975,4.975,4.975,4.975,4.975,4.975,4.996,5.018,5.084,5.106,5.151,5.151,5.174,5.543,0.0,0.0,0.0,0.0,8.375,9.038,9.701,10.123,10.123,10.212,10.302,10.394,10.488,10.583,10.583,10.779,10.88,11.087,11.194,11.194,11.302,11.302,11.526,11.526,11.526,11.526,11.526,11.641,11.526,11.526,11.526,11.526,11.526,11.526,11.526,11.641,11.641,11.526,11.526,11.526,11.526,11.641,11.641,11.641,11.641,11.641,11.641,11.526,11.526,11.194,11.194,11.194,11.087,10.982,11.087,10.982,10.982,10.982,10.779,10.68,10.68,10.583,10.488,10.488,10.583,10.583,10.583,10.583,10.583,10.583,10.583,10.583,10.583,10.583,10.583,10.488,10.488,10.488,10.488,10.394,10.394,10.488,10.394,10.488,10.488,10.488,10.394,10.394,10.488,10.488,10.488,10.394,10.394,10.394,10.394,10.394,10.302,10.302,10.302,10.302,10.302,10.302,10.302,10.394,10.394,10.394,10.394,10.394,10.394,10.394,10.394,10.394,10.488,10.583,10.583,10.583,10.68,10.68,10.779,10.982,10.982,11.194,11.302,11.526,11.641,11.641,11.526,11.194,11.087,10.88,10.68,10.68,10.583,10.488,10.394,10.394,10.394,10.302,10.212,10.212,10.036,9.95,9.865,9.783,9.701,9.701,9.542,9.542,9.464,9.313,9.239,9.166,9.166,9.024,8.955,8.955,0.0,0.0,0.0,0.0,0.0,0.0,0.0
5.939,6.001,6.032,6.095,6.095,6.127,6.159,6.225,6.225,6.259,6.259,6.327,6.327,6.361,6.361,6.396,6.396,6.432,6.432,6.467,6.467,6.54,6.54,6.54,6.577,6.614,6.69,6.69,6.768,6.808,6.848,6.848,6.848,6.808,6.768,6.729,6.729,6.614,6.159,5.026,3.893,3.804,3.804,3.804,3.792,3.792,3.78,3.78,3.78,3.767,3.767,3.78,3.78,3.78,3.78,3.78,3.78,3.792,3.792,0.0,0.0,0.0,0.0,0.0,0.0,0.0,0.0,0.0,0.0,0.0,0.0,0.0,0.0,0.0,0.0,0.0,0.0,0.0,0.0,0.0,0.0,0.0,3.755,3.743,3.731,3.731,3.731,3.707,3.696,3.661,3.661,3.627,3.627,3.615,3.593,3.593,3.593,3.593,3.593,3.755,3.906,4.0695,4.233,4.5215,4.81,4.980499999999999,5.151,5.597,5.735,5.735,5.792,5.821,5.85,5.85,5.909,5.939,5.939,5.939,5.939,6.001,6.001,6.001,6.001,5.939,5.939,5.939,5.909,5.909,5.85,5.821,5.85,5.909,5.909,5.939,6.001,6.032,6.032,6.095,6.159,6.159,6.159,6.159,6.225,6.259,6.259,6.327,6.327,6.361,6.361,6.432,6.467,6.467,6.504,6.504,6.504,6.504,6.504,6.504,6.504,6.467,6.467,6.396,6.396,6.396,6.361,6.361,6.361,6.361,6.361,6.361,6.396,6.396,6.361,6.361,6.327,6.259,6.225,6.225,6.159,6.095,6.001,5.909,5.85,5.821,5.763,5.735,5.707,5.679,5.679,5.679,5.679,5.679,5.679,5.707,5.735,5.763,5.792,5.821,5.821,5.821,5.85,5.821,5.821,5.821,5.821,5.821,5.821,5.821,5.821,5.821,5.792,5.792,5.792,5.821,5.85,5.85,5.909,6.001,6.032,6.095,6.159,6.192,6.225,6.327,6.467,6.577,6.69,6.808,7.055,7.368,7.659,7.866,7.973,8.028,8.084,8.084,8.084,8.084,8.141,8.141,8.141,8.198,8.198,8.198,8.256,8.256,8.315,8.375,8.375,8.436,8.497,8.56,8.623,8.753,8.819,8.955,9.024,9.166,9.313,9.464,9.542,9.701,9.783,9.95,10.036,10.123999999999999,10.212,10.302,10.302,10.394,10.394,10.583,10.68,10.779,11.194,11.526,11.879,12.384,12.793,13.381,13.536,13.696,13.859,14.026,14.026,14.026,13.859,13.859,13.696,13.696,13.536,13.381,13.229,13.229,12.935,12.935,12.793,12.793,12.518,12.518,12.518,12.518,12.518,12.518,12.518,12.518,12.793,12.793,12.793,12.793,12.793,12.793,12.935,12.935,12.935,13.082,13.229,13.229,13.229,12.935,12.935,12.935,12.935,12.935,12.935,12.793,12.793,12.793,12.384,12.384,12.254,12.254,12.001,12.001,12.001,12.001,12.001,12.001,12.254,12.254,12.384,12.384,12.518,12.793,12.793,12.793,12.793,12.518,12.518,12.384,12.384,12.254,11.526,10.982,9.701,8.084,6.7745,5.465,5.316,5.174,5.151,5.084,5.018,4.975,4.975,4.975,4.975,4.975,4.975,4.975,5.018,5.018,5.106,5.106,5.151,5.174,5.22,5.57,5.909,0.0,0.0,0.0,8.256,8.784500000000001,9.313,10.036,10.036,10.036,10.212,10.302,10.394,10.583,10.583,10.68,10.982,11.087,11.302,11.302,11.302,11.526,11.641,11.641,11.641,11.879,11.879,11.879,11.879,11.879,11.879,11.879,11.879,11.879,12.001,12.254,12.001,12.001,12.001,11.879,11.879,11.879,11.879,11.879,11.879,11.879,11.879,11.879,11.526,11.302,11.302,11.302,11.194,11.302,11.302,11.302,11.194,11.194,10.88,10.779,10.68,10.68,10.583,10.583,10.68,10.583,10.68,10.583,10.68,10.68,10.68,10.68,10.583,10.583,10.583,10.488,10.488,10.488,10.488,10.394,10.394,10.394,10.394,10.394,10.394,10.394,10.394,10.488,10.583,10.583,10.583,10.583,10.583,10.583,10.488,10.488,10.394,10.394,10.394,10.394,10.394,10.394,10.394,10.394,10.394,10.394,10.394,10.394,10.394,10.394,10.394,10.488,10.488,10.583,10.583,10.68,10.68,10.779,10.88,11.087,11.087,11.302,11.526,11.641,11.641,11.641,11.641,11.302,11.087,10.982,10.68,10.68,10.583,10.488,10.394,10.394,10.302,10.302,10.212,10.212,10.036,9.95,9.865,9.783,9.701,9.542,9.542,9.542,9.464,9.464,9.313,9.313,9.239,9.239,9.166,9.024,9.024,0.0,0.0,0.0,0.0,0.0,0.0
5.85,5.85,5.909,5.909,6.001,6.032,6.095,6.127,6.225,6.225,6.259,6.327,6.327,6.361,6.396,6.432,6.432,6.467,6.467,6.504,6.504,6.54,6.54,6.577,6.577,6.614,6.69,6.729,6.768,6.808,6.888,6.888,6.888,6.848,6.768,6.768,6.729,6.69,0.0,0.0,0.0,3.804,3.804,3.804,3.804,3.792,3.78,3.78,3.78,3.767,3.767,3.767,3.78,3.78,3.78,3.78,3.78,3.78,3.78,0.0,0.0,0.0,0.0,0.0,0.0,0.0,0.0,0.0,0.0,0.0,0.0,0.0,0.0,0.0,0.0,0.0,0.0,0.0,0.0,0.0,0.0,0.0,3.855,3.817,3.731,3.731,3.731,3.707,3.696,3.672,3.661,3.649,3.627,3.615,3.593,3.593,3.593,3.593,3.582,3.743,3.88,0.0,0.0,0.0,4.81,4.973125,5.106,5.597,5.763,5.763,5.821,5.85,5.85,5.909,5.909,5.909,5.939,5.939,5.939,5.939,6.001,5.939,5.939,5.909,5.939,5.909,5.85,5.821,5.821,5.821,5.792,5.821,5.85,5.909,5.939,6.001,6.032,6.095,6.159,6.225,6.225,6.225,6.259,6.259,6.327,6.396,6.396,6.396,6.432,6.467,6.467,6.504,6.504,6.504,6.504,6.54,6.54,6.54,6.54,6.504,6.504,6.467,6.467,6.467,6.432,6.432,6.432,6.396,6.396,6.396,6.396,6.396,6.361,6.361,6.327,6.225,6.159,6.127,6.095,6.032,5.939,5.85,5.821,5.763,5.735,5.707,5.707,5.679,5.679,5.679,5.679,5.679,5.707,5.735,5.763,5.792,5.85,5.85,5.85,5.909,5.909,5.909,5.85,5.85,5.85,5.85,5.85,5.85,5.85,5.821,5.792,5.792,5.792,5.792,5.821,5.821,5.909,5.939,6.032,6.095,6.159,6.209,6.259,6.361,6.467,6.577,6.69,6.768,6.929,7.231,7.511,7.761,7.919,7.973,8.028,8.028,8.084,8.084,8.084,8.141,8.141,8.198,8.198,8.256,8.256,8.256,8.315,8.315,8.375,8.436,8.436,8.497,8.497,8.623,8.623,8.753,8.819,9.024,9.166,9.313,9.464,9.542,9.783,9.865,10.036,10.123999999999999,10.212,10.212,10.302,10.394,10.394,10.583,10.68,10.88,11.087,11.526,11.879,12.384,12.793,13.229,13.536,13.696,13.859,13.859,13.859,13.859,13.859,13.696,13.696,13.536,13.381,13.381,13.229,13.229,12.935,12.935,12.793,12.793,12.518,12.518,12.518,12.793,12.793,12.793,12.793,12.793,12.793,12.793,12.935,12.935,12.793,12.793,12.935,12.935,13.082,13.229,13.229,13.229,13.229,13.229,13.229,13.229,13.229,13.229,12.935,12.935,12.793,12.518,12.384,12.254,12.001,11.879,11.879,11.641,11.641,11.641,11.641,11.641,11.879,11.879,12.001,12.254,12.254,12.384,12.518,12.518,12.518,12.518,12.384,12.254,11.879,11.526,11.087,10.583,10.394,8.084,6.8955,5.707,5.389,5.22,5.151,5.084,5.018,4.996,4.996,4.975,4.996,4.975,4.996,4.996,5.018,5.04,5.106,5.151,5.22,5.268,5.389,5.651,5.888999999999999,6.127,0.0,0.0,8.315,8.814,9.313,9.95,10.036,10.123,10.212,10.394,10.394,10.583,10.583,10.779,10.982,11.194,11.302,11.526,11.641,11.641,11.879,12.001,12.001,12.001,12.254,12.254,12.254,12.254,12.254,12.254,12.384,12.384,12.384,12.518,12.518,12.384,12.384,12.384,12.384,12.384,12.384,12.384,12.254,12.254,12.254,12.001,11.641,11.641,11.526,11.641,11.526,11.641,11.641,11.641,11.641,11.526,11.087,10.982,10.88,10.68,10.68,10.68,10.68,10.68,10.68,10.68,10.68,10.68,10.68,10.68,10.583,10.583,10.488,10.488,10.394,10.394,10.394,10.302,10.302,10.302,10.302,10.302,10.302,10.302,10.302,10.394,10.488,10.583,10.583,10.68,10.68,10.68,10.68,10.583,10.583,10.583,10.583,10.583,10.488,10.488,10.394,10.488,10.488,10.488,10.488,10.488,10.488,10.488,10.488,10.583,10.583,10.583,10.68,10.68,10.779,10.88,10.982,11.087,11.194,11.526,11.526,11.641,11.641,11.641,11.641,11.302,11.087,10.88,10.68,10.68,10.583,10.488,10.394,10.394,10.302,10.212,10.212,10.123,9.95,9.865,9.783,9.701,9.701,9.701,9.542,9.542,9.542,9.542,9.464,9.464,9.313,9.313,9.239,9.166,9.166,0.0,0.0,0.0,0.0,0.0,0.0
5.792,5.821,5.85,5.85,5.9247499999999995,5.939,6.001,6.095,6.159,6.225,6.259,6.327,6.361,6.396,6.432,6.467,6.467,6.504,6.54,6.54,6.54,6.54,6.577,6.577,6.614,6.652,6.729,6.768,6.808,6.888,6.888,6.929,6.929,6.888,6.808,6.808,6.768,6.729,0.0,0.0,0.0,0.0,3.829,3.817,3.804,3.792,3.792,3.792,3.78,3.78,3.767,3.767,3.767,3.78,3.78,3.78,3.78,3.78,3.78,0.0,0.0,0.0,0.0,0.0,0.0,0.0,0.0,0.0,0.0,0.0,0.0,0.0,0.0,0.0,0.0,0.0,0.0,0.0,0.0,0.0,0.0,0.0,4.114,3.893,3.767,3.743,3.731,3.707,3.696,3.672,3.661,3.649,3.627,3.615,3.593,3.582,3.582,3.593,3.593,3.707,3.855,0.0,0.0,0.0,4.752,4.996,5.269500000000001,5.543,5.707,5.763,5.792,5.821,5.821,5.85,5.909,5.909,5.909,5.909,5.939,5.939,5.939,5.939,5.909,5.909,5.85,5.821,5.792,5.792,5.792,5.792,5.792,5.792,5.821,5.85,5.909,6.001,6.032,6.095,6.159,6.225,6.259,6.259,6.361,6.396,6.396,6.396,6.432,6.432,6.467,6.467,6.504,6.504,6.504,6.504,6.504,6.504,6.54,6.54,6.54,6.54,6.54,6.504,6.504,6.504,6.467,6.432,6.432,6.432,6.432,6.432,6.432,6.396,6.361,6.327,6.259,6.159,6.127,6.095,6.032,5.939,5.85,5.821,5.763,5.763,5.735,5.707,5.679,5.679,5.679,5.679,5.679,5.679,5.707,5.735,5.792,5.821,5.909,5.909,5.939,5.939,5.939,5.939,5.939,5.909,5.909,5.85,5.85,5.85,5.85,5.821,5.821,5.792,5.792,5.792,5.792,5.821,5.85,5.909,6.001,6.032,6.127,6.171999999999999,6.225,6.327,6.432,6.54,6.614,6.729,6.848,7.055,7.322,7.559,7.813,7.919,7.973,8.028,8.084,8.084,8.084,8.141,8.198,8.198,8.198,8.256,8.256,8.256,8.315,8.315,8.375,8.375,8.436,8.436,8.497,8.497,8.623,8.623,8.819,8.819,9.024,9.239,9.313,9.542,9.701,9.865,10.036,10.123999999999999,10.212,10.212,10.302,10.394,10.394,10.583,10.68,10.88,11.194,11.526,11.879,12.254,12.793,13.229,13.536,13.696,13.859,13.859,13.859,13.859,13.696,13.536,13.536,13.381,13.381,13.229,12.935,12.935,12.935,12.935,12.793,12.793,12.793,12.793,12.518,12.793,12.793,12.793,12.793,12.793,12.793,12.793,12.935,12.935,12.935,12.935,12.935,13.229,13.229,13.229,13.229,13.229,13.381,13.381,13.229,13.229,13.229,12.935,12.935,12.793,12.793,12.384,12.254,12.001,11.879,11.526,11.526,11.302,11.194,11.194,11.302,11.302,11.526,11.526,11.641,11.641,11.879,12.001,12.254,12.254,12.254,12.254,12.001,12.001,11.641,11.526,10.88,10.583,10.302,6.929,6.332000000000001,5.735,5.44,5.244,5.151,5.084,5.018,4.996,4.996,4.996,4.996,4.996,5.018,5.04,5.04,5.084,5.151,5.174,5.244,5.389,5.517,5.735,6.048,6.361,0.0,0.0,8.375,8.765500000000001,9.313,10.036,10.036,10.123,10.212,10.394,10.488,10.583,10.68,10.779,10.982,11.194,11.526,11.641,11.641,11.879,12.001,12.254,12.254,12.384,12.384,12.384,12.384,12.384,12.518,12.518,12.518,12.518,12.793,12.935,12.935,12.935,12.793,12.793,12.793,12.793,12.793,12.518,12.518,12.518,12.384,12.384,12.254,12.254,12.001,12.001,11.879,12.001,11.879,11.879,11.879,11.641,11.526,11.087,10.88,10.779,10.779,10.779,10.88,10.88,10.779,10.68,10.68,10.68,10.68,10.68,10.583,10.583,10.394,10.394,10.394,10.302,10.302,10.212,10.212,10.036,10.036,10.036,10.036,10.036,10.212,10.302,10.394,10.583,10.68,10.68,10.779,10.779,10.779,10.779,10.779,10.68,10.68,10.68,10.583,10.583,10.583,10.583,10.583,10.583,10.583,10.583,10.583,10.583,10.583,10.583,10.68,10.68,10.779,10.779,10.88,11.087,11.194,11.194,11.302,11.526,11.641,11.641,11.641,11.641,11.526,11.194,11.087,10.88,10.68,10.583,10.583,10.394,10.394,10.302,10.302,10.212,10.123,9.95,9.865,9.783,9.701,9.701,9.542,9.542,9.542,9.542,9.542,9.542,9.542,9.464,9.464,9.464,9.313,9.239,9.166,9.166,9.024,0.0,0.0,0.0,0.0
5.792,5.821,5.821,5.85,5.909,5.947,6.001,6.032,6.127,6.159,6.259,6.327,6.361,6.432,6.467,6.504,6.54,6.54,6.54,6.577,6.614,6.614,6.614,6.652,6.729,6.729,6.808,6.888,6.929,6.929,6.971,6.971,7.055,6.929,6.888,6.808,6.808,6.729,0.0,0.0,0.0,0.0,3.842,3.829,3.817,3.804,3.804,3.792,3.792,3.78,3.767,3.767,3.767,3.78,3.78,3.78,3.78,3.78,3.78,0.0,0.0,0.0,0.0,0.0,0.0,0.0,0.0,0.0,0.0,0.0,0.0,0.0,0.0,0.0,0.0,0.0,0.0,6.396,0.0,0.0,0.0,0.0,0.0,0.0,3.933,3.829,3.755,3.707,3.696,3.672,3.661,3.649,3.627,3.615,3.593,3.582,3.582,3.582,3.582,3.696,3.829,3.9495000000000005,4.07,4.3635,4.657,4.933,5.1865000000000006,5.44,5.651,5.735,5.763,5.792,5.792,5.792,5.821,5.821,5.85,5.909,5.85,5.909,5.909,5.909,5.85,5.909,5.85,5.821,5.792,5.763,5.763,5.763,5.763,5.792,5.821,5.85,5.909,6.001,6.032,6.127,6.259,6.361,6.361,6.396,6.396,6.432,6.432,6.432,6.467,6.467,6.504,6.504,6.504,6.504,6.504,6.54,6.54,6.54,6.54,6.54,6.54,6.54,6.54,6.54,6.54,6.54,6.54,6.54,6.54,6.504,6.504,6.467,6.467,6.432,6.396,6.327,6.259,6.159,6.127,6.095,6.001,5.939,5.85,5.792,5.792,5.763,5.735,5.707,5.679,5.679,5.679,5.679,5.679,5.679,5.707,5.763,5.792,5.85,5.909,5.909,5.939,5.939,6.001,5.939,5.939,5.939,5.909,5.909,5.909,5.85,5.85,5.85,5.821,5.821,5.792,5.792,5.792,5.792,5.821,5.909,5.939,6.032,6.095,6.127,6.193,6.259,6.396,6.54,6.577,6.652,6.729,6.888,7.098,7.368,7.659,7.813,7.919,7.973,8.028,8.084,8.084,8.141,8.141,8.198,8.198,8.256,8.256,8.256,8.375,8.375,8.375,8.375,8.436,8.436,8.497,8.56,8.56,8.623,8.753,8.819,9.024,9.239,9.313,9.542,9.783,9.865,10.036,10.123750000000001,10.212,10.302,10.394,10.394,10.488,10.583,10.68,10.88,11.194,11.526,11.879,12.384,12.793,13.229,13.536,13.536,13.696,13.696,13.859,13.696,13.696,13.536,13.381,13.381,13.229,13.229,12.935,12.935,12.935,12.793,12.793,12.518,12.518,12.518,12.518,12.518,12.793,12.793,12.793,12.793,12.935,12.935,12.935,12.935,12.935,12.935,12.935,12.935,12.935,13.082,13.229,13.229,13.229,13.229,13.229,13.229,12.935,12.935,12.793,12.518,12.384,12.254,12.001,11.641,11.526,11.302,11.194,11.087,10.982,10.88,10.982,10.982,10.982,11.087,11.194,11.302,11.526,11.641,11.879,11.879,11.879,11.641,11.641,11.641,11.302,11.194,10.88,10.212,0.0,6.8685,6.346500000000001,5.89325,5.44,5.244,5.151,5.084,5.04,4.996,5.018,4.996,4.996,5.018,5.018,5.04,5.106,5.174,5.244,5.244,5.268,5.465,5.597,5.939,6.1965,6.54,0.0,0.0,0.0,8.56,9.542,10.036,10.123,10.212,10.302,10.394,10.488,10.583,10.68,10.779,11.087,11.302,11.526,11.641,11.879,12.001,12.254,12.384,12.518,12.518,12.518,12.518,12.518,12.518,12.518,12.793,12.793,12.793,12.935,12.935,13.229,13.229,13.229,12.935,12.935,12.935,12.935,12.935,12.793,12.793,12.518,12.384,12.254,12.254,12.254,12.001,12.001,12.001,12.001,12.001,11.879,11.879,11.526,11.087,10.88,10.779,10.68,10.68,10.68,10.68,10.68,10.68,10.68,10.68,10.68,10.583,10.488,10.394,10.394,10.302,10.302,10.212,10.212,10.036,9.95,9.865,9.865,9.865,9.865,9.865,10.036,10.212,10.394,10.583,10.779,10.88,10.982,10.982,10.982,10.982,10.88,10.88,10.779,10.779,10.779,10.779,10.68,10.68,10.68,10.68,10.68,10.68,10.68,10.68,10.68,10.68,10.68,10.779,10.88,10.982,11.087,11.194,11.194,11.302,11.302,11.526,11.526,11.641,11.641,11.641,11.526,11.087,10.982,10.779,10.68,10.583,10.488,10.394,10.302,10.212,10.212,10.123,9.95,9.865,9.783,9.701,9.542,9.542,9.542,9.542,9.542,9.542,9.542,9.542,9.542,9.542,9.542,9.313,9.313,9.239,9.166,8.955,8.819,8.623,8.497,0.0,0.0
5.792,5.821,5.85,5.887,5.909,5.939,6.001,6.095,6.127,6.225,6.327,6.361,6.432,6.467,6.54,6.54,6.577,6.614,6.652,6.652,6.69,6.69,6.729,6.729,6.768,6.888,6.929,7.055,7.055,7.098,7.098,7.098,7.098,6.971,6.929,6.888,6.888,6.808,6.729,0.0,0.0,0.0,3.855,3.842,3.817,3.804,3.804,3.804,3.792,3.78,3.78,3.78,3.767,3.78,3.78,3.78,3.78,3.78,0.0,0.0,0.0,0.0,0.0,0.0,0.0,0.0,0.0,0.0,0.0,0.0,0.0,0.0,0.0,0.0,0.0,0.0,0.0,6.432,0.0,0.0,0.0,0.0,0.0,0.0,0.0,3.946,3.804,3.743,3.696,3.661,3.661,3.627,3.627,3.615,3.593,3.582,3.582,3.56,3.56,3.649,3.804,3.973,0.0,0.0,4.477,4.851,5.086375,5.268,5.597,5.735,5.763,5.763,5.792,5.763,5.792,5.821,5.821,5.85,5.85,5.909,5.909,5.909,5.85,5.85,5.85,5.821,5.792,5.792,5.763,5.792,5.763,5.792,5.821,5.85,5.939,6.095,6.159,6.225,6.361,6.396,6.432,6.432,6.467,6.467,6.467,6.504,6.504,6.54,6.54,6.54,6.54,6.54,6.54,6.54,6.54,6.54,6.54,6.54,6.54,6.54,6.54,6.577,6.577,6.54,6.54,6.54,6.54,6.54,6.54,6.54,6.504,6.467,6.396,6.361,6.327,6.225,6.127,6.095,6.001,5.909,5.85,5.821,5.763,5.735,5.707,5.679,5.679,5.679,5.679,5.679,5.679,5.679,5.707,5.735,5.792,5.821,5.85,5.909,5.909,5.939,5.939,6.001,5.939,5.939,5.909,5.909,5.85,5.85,5.85,5.85,5.821,5.821,5.821,5.792,5.792,5.792,5.85,5.909,5.939,6.001,6.095,6.159,6.209,6.259,6.361,6.467,6.54,6.614,6.69,6.768,6.971,7.186,7.511,7.709,7.813,7.973,8.028,8.028,8.084,8.084,8.141,8.198,8.198,8.256,8.256,8.256,8.315,8.315,8.375,8.375,8.375,8.436,8.497,8.497,8.56,8.623,8.753,8.819,9.024,9.239,9.464,9.542,9.783,9.865,9.994,10.123,10.212,10.302,10.394,10.488,10.583,10.583,10.779,10.982,11.194,11.641,12.001,12.384,12.793,13.229,13.381,13.536,13.696,13.696,13.696,13.696,13.536,13.536,13.381,13.381,13.229,12.935,12.793,12.793,12.793,12.518,12.518,12.384,12.384,12.384,12.384,12.518,12.518,12.518,12.793,12.793,12.935,12.935,12.935,12.935,12.935,12.935,12.935,12.935,12.935,12.935,13.082,13.229,13.229,13.229,12.935,12.935,12.793,12.518,12.518,12.254,12.001,11.879,11.641,11.302,11.194,10.982,10.88,10.779,10.68,10.68,10.68,10.68,10.779,10.88,10.982,10.982,11.087,11.194,11.302,11.526,11.526,11.526,11.302,11.194,11.087,10.982,10.68,10.394,8.600999999999999,6.808,6.361,5.979,5.597,5.244,5.106,5.084,5.04,5.018,5.018,5.018,5.018,5.018,5.018,5.084,5.106,5.174,5.268,5.389,5.491,5.651,5.679,6.09525,6.259,6.69,0.0,0.0,0.0,8.955,9.701,10.212,10.212,10.212,10.302,10.394,10.488,10.583,10.68,10.88,11.087,11.302,11.526,11.641,11.879,12.001,12.384,12.384,12.518,12.518,12.518,12.518,12.518,12.518,12.518,12.793,12.793,12.793,12.793,13.229,13.229,13.229,13.229,12.935,12.935,12.935,12.935,12.935,12.935,12.793,12.793,12.384,12.384,12.254,12.254,12.254,12.001,12.001,12.001,11.879,11.879,11.526,11.302,11.087,10.88,10.68,10.68,10.583,10.68,10.68,10.68,10.68,10.583,10.583,10.583,10.583,10.394,10.302,10.302,10.212,10.212,10.123,10.036,9.95,9.783,9.701,9.701,9.701,9.783,9.783,10.036,10.302,10.488,10.68,10.982,11.087,11.194,11.194,11.194,11.194,11.194,11.087,10.982,10.982,10.982,10.982,10.88,10.88,10.88,10.779,10.779,10.68,10.68,10.68,10.68,10.779,10.779,10.982,10.982,11.087,11.194,11.302,11.526,11.526,11.526,11.526,11.526,11.526,11.526,11.526,11.194,11.087,10.88,10.779,10.68,10.583,10.394,10.302,10.212,10.212,10.036,9.95,9.865,9.701,9.542,9.464,9.464,9.464,9.464,9.464,9.542,9.542,9.542,9.701,9.701,9.542,9.464,9.464,9.313,9.239,9.024,8.819,8.753,8.497,8.315,8.256,8.198
5.85,5.909,5.909,5.939,5.939,6.032,6.032,6.127,6.159,6.259,6.361,6.432,6.504,6.54,6.577,6.614,6.69,6.69,6.729,6.729,6.768,6.808,6.848,6.848,6.929,7.055,7.098,7.186,7.186,7.186,7.186,7.186,7.186,7.186,7.055,6.971,6.971,6.888,6.808,0.0,0.0,0.0,0.0,3.868,3.829,3.817,3.804,3.804,3.792,3.792,3.78,3.78,3.78,3.78,3.78,3.78,3.78,3.78,0.0,0.0,0.0,0.0,0.0,0.0,0.0,0.0,0.0,0.0,0.0,0.0,0.0,0.0,0.0,6.396,6.432,6.432,6.432,6.467,6.467,6.432,6.327,6.159,5.792,0.0,0.0,0.0,3.906,3.755,3.696,3.672,3.661,3.627,3.615,3.593,3.582,3.56,3.56,3.56,3.549,3.627,3.78,3.88,0.0,0.0,0.0,4.752,5.04,5.2915,5.543,5.651,5.707,5.735,5.735,5.763,5.763,5.792,5.821,5.821,5.85,5.85,5.909,5.85,5.909,5.85,5.85,5.821,5.821,5.821,5.821,5.821,5.792,5.821,5.939,6.032,6.095,6.127,6.225,6.327,6.396,6.467,6.467,6.504,6.54,6.54,6.54,6.54,6.54,6.54,6.54,6.577,6.577,6.577,6.577,6.54,6.54,6.54,6.54,6.54,6.54,6.577,6.577,6.577,6.577,6.577,6.54,6.54,6.54,6.54,6.54,6.54,6.54,6.504,6.432,6.396,6.361,6.259,6.159,6.127,6.032,5.939,5.909,5.821,5.792,5.792,5.763,5.735,5.707,5.679,5.679,5.679,5.707,5.707,5.707,5.735,5.792,5.821,5.85,5.909,5.909,5.909,5.939,5.939,5.909,5.909,5.85,5.85,5.85,5.85,5.85,5.85,5.821,5.821,5.821,5.821,5.821,5.821,5.85,5.909,5.939,6.001,6.032,6.127,6.225,6.2425,6.327,6.396,6.504,6.577,6.614,6.729,6.808,7.055,7.322,7.511,7.709,7.813,7.973,8.028,8.028,8.084,8.084,8.198,8.198,8.256,8.256,8.256,8.315,8.315,8.315,8.375,8.436,8.436,8.497,8.497,8.56,8.56,8.753,8.819,9.024,9.239,9.313,9.542,9.783,9.95,10.0365,10.123,10.212,10.302,10.394,10.583,10.583,10.68,10.88,11.087,11.302,11.641,12.001,12.384,12.793,13.229,13.381,13.536,13.696,13.696,13.696,13.696,13.536,13.381,13.381,13.229,12.935,12.793,12.518,12.518,12.384,12.384,12.254,12.254,12.254,12.254,12.254,12.384,12.384,12.518,12.518,12.793,12.935,13.229,13.229,12.935,12.935,12.935,12.793,12.793,12.793,12.793,12.935,12.935,12.935,12.793,12.793,12.518,12.384,12.254,12.001,11.879,11.641,11.526,11.302,11.087,10.88,10.779,10.68,10.583,10.583,10.583,10.583,10.583,10.583,10.583,10.68,10.68,10.779,10.88,10.982,11.087,11.087,10.982,10.982,10.88,10.779,10.68,10.583,9.783,9.024,6.929,6.54,6.0954999999999995,5.651,5.316,5.151,5.084,5.084,5.04,5.018,5.018,5.018,5.018,5.084,5.084,5.151,5.22,5.34,5.517,5.597,5.768000000000001,5.939,6.504,6.888,7.098,7.973,8.2045,8.436,9.464,10.036,10.212,10.302,10.302,10.394,10.488,10.583,10.68,10.68,10.88,11.087,11.302,11.526,11.641,12.001,12.254,12.254,12.518,12.793,12.518,12.518,12.518,12.518,12.518,12.518,12.518,12.518,12.793,12.935,13.229,13.229,13.229,13.229,13.229,13.229,13.229,13.229,12.935,12.935,12.935,12.935,12.793,12.518,12.384,12.384,12.254,12.001,12.001,12.001,11.641,11.641,11.526,11.194,10.982,10.779,10.68,10.583,10.583,10.583,10.583,10.583,10.583,10.583,10.488,10.488,10.394,10.394,10.212,10.212,10.123,10.036,10.036,9.865,9.701,9.701,9.464,9.464,9.464,9.701,9.865,10.123,10.302,10.488,10.68,11.087,11.194,11.302,11.302,11.302,11.526,11.302,11.302,11.194,11.194,11.194,11.087,11.087,10.982,10.982,10.982,10.88,10.88,10.779,10.779,10.88,10.88,10.982,11.087,11.194,11.302,11.302,11.526,11.526,11.526,11.526,11.526,11.526,11.526,11.526,11.302,11.087,10.982,10.779,10.68,10.583,10.488,10.394,10.302,10.212,10.123,9.95,9.783,9.701,9.542,9.464,9.464,9.313,9.464,9.313,9.464,9.464,9.542,9.542,9.542,9.542,9.542,9.542,9.464,9.239,9.166,9.024,8.753,8.56,8.375,8.256,8.198,8.084
5.939,6.001,6.032,6.032,6.095,6.095,6.127,6.159,6.259,6.361,6.467,6.54,6.577,6.614,6.652,6.69,6.729,6.768,6.848,6.888,6.929,6.971,7.055,7.055,7.098,7.186,7.231,7.231,7.231,7.322,7.231,7.231,7.231,7.231,7.186,7.098,7.098,6.971,6.888,6.848,5.88,4.912,4.39,3.868,3.829,3.817,3.804,3.804,3.804,3.792,3.78,3.78,3.78,3.78,3.78,3.78,3.78,3.78,0.0,0.0,0.0,0.0,0.0,0.0,0.0,0.0,0.0,0.0,6.396,6.361,6.396,6.396,6.432,6.432,6.467,6.467,6.467,6.467,6.467,6.467,6.396,6.327,6.095,5.763,0.0,0.0,0.0,3.804,3.707,3.649,3.649,3.615,3.615,3.593,3.582,3.56,3.56,3.549,3.56,3.615,3.743,3.842,3.987,0.0,0.0,4.477,4.851,5.091125,5.268,5.57,5.651,5.707,5.707,5.707,5.763,5.763,5.792,5.821,5.85,5.909,5.909,5.909,5.939,5.909,5.909,5.909,5.909,5.85,6.001,6.001,5.939,6.032,6.032,6.095,6.159,6.225,6.327,6.396,6.432,6.504,6.504,6.54,6.54,6.577,6.577,6.577,6.577,6.577,6.577,6.577,6.577,6.577,6.54,6.54,6.54,6.54,6.54,6.54,6.54,6.577,6.577,6.577,6.577,6.577,6.577,6.577,6.54,6.54,6.54,6.54,6.504,6.467,6.432,6.396,6.361,6.259,6.225,6.159,6.095,6.001,5.939,5.909,5.85,5.821,5.792,5.763,5.735,5.707,5.707,5.707,5.707,5.707,5.707,5.735,5.763,5.792,5.821,5.85,5.85,5.909,5.909,5.909,5.909,5.85,5.85,5.85,5.909,5.85,5.85,5.85,5.85,5.821,5.821,5.821,5.821,5.85,5.85,5.909,5.909,5.939,6.001,6.032,6.127,6.159,6.259,6.327500000000001,6.396,6.467,6.577,6.652,6.729,6.888,7.098,7.322,7.511,7.709,7.813,7.919,7.973,8.028,8.084,8.084,8.198,8.198,8.256,8.256,8.256,8.315,8.315,8.375,8.375,8.375,8.436,8.497,8.497,8.56,8.753,8.819,9.024,9.239,9.464,9.701,9.865,10.036,10.123999999999999,10.212,10.302,10.394,10.394,10.583,10.583,10.68,10.88,11.087,11.302,11.641,12.001,12.384,12.793,13.229,13.381,13.536,13.536,13.536,13.536,13.536,13.381,13.229,12.935,12.935,12.518,12.518,12.254,12.254,12.001,12.001,11.879,11.879,11.879,11.879,11.879,12.001,12.254,12.254,12.518,12.793,12.793,12.935,12.935,12.935,12.935,12.793,12.518,12.518,12.518,12.518,12.518,12.793,12.518,12.518,12.384,12.254,12.001,12.001,11.879,11.526,11.302,11.087,10.982,10.779,10.68,10.583,10.583,10.394,10.394,10.394,10.394,10.394,10.394,10.394,10.488,10.583,10.583,10.68,10.68,10.68,10.779,10.68,10.68,10.68,10.583,10.583,0.0,0.0,0.0,0.0,6.69,6.2555,5.821,5.415,5.151,5.106,5.084,5.04,5.018,5.04,5.04,5.04,5.084,5.106,5.174,5.316,5.517,5.651,5.821,6.105,6.504,6.808,7.659,7.590999999999999,8.172,8.753,9.542,10.036,10.123,10.302,10.302,10.302,10.394,10.583,10.583,10.68,10.779,10.982,11.087,11.302,11.526,11.641,11.879,12.001,12.254,12.518,12.518,12.518,12.518,12.384,12.518,12.518,12.518,12.518,12.518,12.793,12.935,13.381,13.381,13.381,13.229,13.229,13.381,13.381,13.381,13.229,13.229,13.229,13.229,12.935,12.518,12.384,12.254,12.254,12.001,12.001,11.879,11.641,11.526,11.302,11.194,10.982,10.68,10.583,10.583,10.583,10.488,10.583,10.488,10.488,10.394,10.394,10.394,10.394,10.302,10.212,10.123,10.036,9.95,9.783,9.783,9.542,9.464,9.313,9.313,9.464,9.542,9.783,10.036,10.302,10.488,10.779,11.087,11.302,11.302,11.641,11.641,11.641,11.641,11.641,11.526,11.526,11.302,11.302,11.194,11.194,11.194,11.087,10.982,10.982,10.88,10.88,10.982,10.982,11.087,11.194,11.302,11.526,11.641,11.641,11.641,11.641,11.641,11.526,11.526,11.526,11.302,11.087,10.982,10.88,10.779,10.68,10.583,10.394,10.302,10.212,10.123,10.036,9.865,9.701,9.542,9.313,9.313,9.239,9.239,9.239,9.239,9.313,9.313,9.464,9.464,9.542,9.464,9.464,9.313,9.464,9.239,9.166,8.819,8.623,8.497,8.256,8.198,8.028,7.973
6.032,6.095,6.127,6.159,6.225,6.259,6.259,6.327,6.396,6.467,6.54,6.577,6.614,6.652,6.69,6.729,6.808,6.848,6.848,6.929,6.971,7.055,7.098,7.186,7.186,7.322,7.368,7.322,7.368,7.368,7.368,7.368,7.368,7.368,7.322,7.231,7.186,7.055,6.971,6.929,6.4704999999999995,6.225,5.0525,3.88,3.842,3.817,3.817,3.804,3.804,3.792,3.792,3.78,3.78,3.78,3.792,3.792,3.792,3.792,3.817,0.0,0.0,0.0,0.0,0.0,0.0,0.0,0.0,6.432,6.432,6.432,6.432,6.432,6.467,6.467,6.467,6.504,6.504,6.504,6.504,6.467,6.467,6.432,6.361,6.127,5.543,0.0,0.0,3.829,3.743,3.649,3.649,3.615,3.593,3.582,3.56,3.56,3.549,3.549,3.56,3.582,3.672,3.804,3.868,0.0,0.0,4.296,4.638,4.954,5.197,5.44,5.597,5.679,5.707,5.707,5.735,5.763,5.821,5.821,5.85,5.909,5.909,5.939,6.001,6.001,5.939,6.032,6.032,6.032,6.032,6.032,6.032,6.095,6.127,6.159,6.225,6.327,6.361,6.432,6.504,6.54,6.54,6.54,6.577,6.577,6.577,6.577,6.577,6.577,6.614,6.614,6.577,6.577,6.54,6.54,6.54,6.54,6.54,6.504,6.54,6.577,6.577,6.577,6.577,6.577,6.54,6.54,6.577,6.54,6.54,6.54,6.504,6.504,6.467,6.396,6.361,6.327,6.225,6.159,6.127,6.032,6.001,5.939,5.909,5.85,5.821,5.821,5.763,5.763,5.707,5.735,5.707,5.707,5.707,5.735,5.741999999999999,5.763,5.792,5.792,5.821,5.843,5.85,5.85,5.85,5.85,5.85,5.85,5.85,5.85,5.85,5.85,5.85,5.85,5.85,5.85,5.85,5.85,5.909,5.909,5.909,5.939,5.939,5.939,6.001,6.095,6.127,6.259,6.3187500000000005,6.361,6.504,6.577,6.69,6.768,6.929,7.098,7.322,7.415,7.659,7.761,7.919,7.973,8.028,8.084,8.084,8.141,8.198,8.256,8.256,8.256,8.315,8.315,8.315,8.375,8.436,8.497,8.497,8.623,8.753,8.955,9.024,9.239,9.542,9.701,9.95,10.036,10.123750000000001,10.212,10.302,10.394,10.488,10.583,10.68,10.779,10.982,11.194,11.526,11.879,12.254,12.518,12.793,13.229,13.381,13.381,13.381,13.536,13.381,13.229,13.229,12.793,12.793,12.384,12.384,12.001,11.879,11.879,11.641,11.526,11.526,11.302,11.302,11.526,11.641,11.821,12.001,12.254,12.384,12.518,12.793,12.793,12.935,12.793,12.518,12.384,12.384,12.384,12.254,12.254,12.384,12.254,12.254,12.254,12.001,11.879,11.879,11.526,11.526,11.194,11.087,10.88,10.779,10.68,10.583,10.488,10.394,10.394,10.302,10.302,10.302,10.302,10.302,10.302,10.394,10.394,10.488,10.488,10.583,10.583,10.583,10.583,10.488,10.488,10.394,10.394,0.0,0.0,0.0,0.0,7.866,7.012499999999999,6.159,5.763,5.151,5.106,5.084,5.084,5.04,5.04,5.04,5.084,5.106,5.106,5.22,5.415,5.597,5.7235,5.85,6.327,6.768,7.559,7.8465,8.084,8.796000000000001,9.464,10.036,10.302,10.394,10.394,10.488,10.394,10.488,10.583,10.68,10.779,10.88,10.982,11.087,11.302,11.526,11.641,11.879,12.254,12.254,12.384,12.518,12.518,12.518,12.384,12.384,12.518,12.518,12.518,12.518,12.518,12.793,13.381,13.381,13.381,13.381,13.381,13.381,13.381,13.381,13.229,13.229,12.935,12.935,12.793,12.518,12.384,12.254,12.254,12.001,11.641,11.641,11.526,11.302,11.194,10.982,10.779,10.68,10.583,10.488,10.488,10.394,10.488,10.394,10.394,10.394,10.394,10.302,10.302,10.212,10.123,9.95,9.865,9.783,9.701,9.542,9.464,9.313,9.239,9.313,9.313,9.464,9.865,10.123,10.302,10.583,10.779,11.194,11.526,11.641,11.879,12.001,11.879,11.879,11.879,11.641,11.641,11.526,11.526,11.526,11.302,11.302,11.194,11.087,11.087,11.087,10.982,11.087,11.194,11.302,11.302,11.641,11.641,11.879,11.879,11.879,11.641,11.641,11.526,11.526,11.302,11.194,11.087,10.982,10.779,10.68,10.583,10.488,10.394,10.302,10.212,10.123,9.865,9.783,9.542,9.313,9.239,9.166,9.166,9.166,9.239,9.166,9.239,9.239,9.313,9.464,9.464,9.464,9.464,9.313,9.313,9.239,9.166,8.819,8.623,8.375,8.198,8.084,7.973,7.709
6.159,6.159,6.225,6.259,6.327,6.361,6.396,6.432,6.504,6.54,6.577,6.614,6.652,6.69,6.729,6.768,6.848,6.888,6.929,6.971,7.098,7.098,7.186,7.231,7.322,7.368,7.368,7.415,7.415,7.415,7.415,7.415,7.415,7.415,7.368,7.322,7.231,7.186,7.098,6.971,6.848,6.419499999999999,4.66625,4.0735624999999995,3.842,3.817,3.817,3.817,3.804,3.804,3.792,3.792,3.78,3.78,3.792,3.792,3.792,3.792,3.829,0.0,0.0,0.0,0.0,0.0,0.0,0.0,6.396,6.396,6.432,6.432,6.432,6.432,6.467,6.467,6.504,6.504,6.504,6.504,6.467,6.467,6.467,6.432,6.396,6.259,5.707,5.491,0.0,0.0,3.792,3.672,3.627,3.615,3.582,3.582,3.56,3.549,3.549,3.549,3.549,3.56,3.627,3.743,3.817,0.0,0.0,0.0,0.0,0.0,0.0,0.0,5.415,5.57,5.624,5.679,5.735,5.763,5.792,5.85,5.909,5.909,6.001,6.001,6.095,6.095,6.127,6.127,6.127,6.095,6.127,6.127,6.127,6.159,6.159,6.225,6.327,6.361,6.432,6.467,6.54,6.54,6.577,6.577,6.577,6.577,6.614,6.614,6.614,6.614,6.614,6.614,6.577,6.577,6.54,6.54,6.54,6.54,6.504,6.54,6.54,6.54,6.577,6.577,6.577,6.577,6.577,6.577,6.54,6.54,6.54,6.54,6.54,6.504,6.467,6.396,6.361,6.327,6.259,6.225,6.159,6.127,6.095,6.001,6.001,5.939,5.909,5.85,5.821,5.792,5.763,5.735,5.707,5.679,5.707,5.707,5.707,5.735,5.735,5.763,5.763,5.792,5.821,5.821,5.821,5.821,5.821,5.821,5.821,5.821,5.85,5.85,5.85,5.85,5.909,5.909,5.909,5.909,5.909,5.909,5.909,5.909,5.85,5.909,5.939,6.001,6.032,6.159,6.259,6.3447499999999994,6.432,6.54,6.614,6.729,6.808,6.929,7.098,7.231,7.511,7.659,7.761,7.866,7.973,8.028,8.028,8.141,8.198,8.198,8.256,8.256,8.256,8.256,8.315,8.375,8.436,8.497,8.56,8.623,8.955,8.955,9.239,9.464,9.701,9.865,9.9505,10.036,10.123,10.212,10.302,10.394,10.583,10.583,10.68,10.88,11.087,11.302,11.641,11.879,12.254,12.518,12.793,12.935,13.381,13.381,13.381,13.381,13.229,12.935,12.793,12.518,12.384,12.001,12.001,11.641,11.526,11.194,11.194,11.194,11.087,11.087,11.087,11.194,11.526,11.641,11.879,12.097,12.254,12.384,12.518,12.793,12.793,12.518,12.384,12.384,12.384,12.254,12.001,12.001,12.001,12.254,12.001,11.879,11.641,11.641,11.526,11.302,11.087,11.087,10.88,10.779,10.68,10.583,10.488,10.394,10.302,10.302,10.212,10.212,10.212,10.212,10.212,10.302,10.302,10.302,10.394,10.394,10.394,10.394,10.488,10.488,10.394,10.394,10.302,10.302,10.212,0.0,0.0,0.0,8.084,7.492749999999999,0.0,0.0,0.0,5.106,5.084,5.084,5.04,5.04,5.084,5.084,5.106,5.151,5.316,0.0,0.0,0.0,0.0,0.0,0.0,0.0,8.084,8.56,9.464,9.95,10.212,10.394,10.488,10.488,10.583,10.583,10.583,10.68,10.68,10.779,10.88,11.087,11.194,11.302,11.526,11.641,11.879,12.001,12.254,12.384,12.518,12.518,12.384,12.384,12.384,12.384,12.384,12.384,12.384,12.518,12.935,13.229,13.381,13.381,13.381,13.381,13.381,13.381,13.381,13.229,13.229,12.935,12.935,12.793,12.384,12.254,12.001,11.879,11.641,11.526,11.526,11.194,11.087,10.982,10.88,10.68,10.583,10.583,10.488,10.488,10.394,10.394,10.394,10.302,10.302,10.302,10.302,10.212,10.123,10.036,9.95,9.783,9.701,9.542,9.464,9.313,9.239,9.024,9.166,9.313,9.542,9.783,10.123,10.302,10.583,10.779,11.194,11.641,11.879,12.254,12.254,12.254,12.001,12.001,12.001,11.879,11.641,11.641,11.526,11.526,11.526,11.302,11.194,11.194,11.087,11.087,11.194,11.302,11.526,11.641,11.641,11.879,12.001,12.001,12.001,11.879,11.641,11.526,11.526,11.194,11.194,10.982,10.88,10.68,10.68,10.583,10.488,10.394,10.302,10.212,10.036,9.865,9.701,9.542,9.313,9.239,9.166,9.166,9.166,9.166,9.166,9.166,9.239,9.239,9.313,9.464,9.313,9.313,9.313,9.313,9.239,9.166,8.753,8.497,8.256,8.028,7.919,7.709,7.322
6.225,6.259,6.361,6.361,6.432,6.467,6.504,6.504,6.54,6.577,6.614,6.652,6.69,6.729,6.729,6.808,6.848,6.888,6.929,6.971,7.055,7.098,7.231,7.231,7.368,7.368,7.415,7.415,7.511,7.511,7.511,7.511,7.511,7.511,7.511,7.415,7.368,7.231,7.186,7.055,6.8345,6.614,4.28,3.906,3.855,3.829,3.817,3.817,3.804,3.804,3.792,3.792,3.792,3.792,3.792,3.792,3.792,3.792,3.855,4.014,0.0,0.0,0.0,0.0,0.0,0.0,6.396,6.396,6.396,6.396,6.432,6.432,6.467,6.467,6.504,6.504,6.504,6.504,6.504,6.467,6.467,6.432,6.396,6.361,6.225,5.679,0.0,0.0,3.829,3.696,3.627,3.593,3.582,3.582,3.56,3.549,3.549,3.549,3.549,3.549,3.582,3.661,3.743,3.817,0.0,0.0,0.0,0.0,0.0,0.0,0.0,0.0,5.543,5.651,5.679,5.763,5.792,5.85,5.939,6.001,6.032,6.095,6.127,6.159,6.159,6.159,6.159,6.225,6.225,6.159,6.225,6.225,6.259,6.327,6.361,6.432,6.467,6.504,6.54,6.54,6.577,6.577,6.577,6.577,6.577,6.577,6.577,6.577,6.577,6.577,6.577,6.54,6.54,6.54,6.467,6.504,6.467,6.467,6.54,6.54,6.54,6.577,6.577,6.577,6.577,6.54,6.54,6.54,6.54,6.54,6.504,6.504,6.432,6.432,6.396,6.327,6.259,6.259,6.225,6.159,6.127,6.095,6.032,6.032,6.001,5.939,5.909,5.85,5.792,5.763,5.735,5.679,5.679,5.679,5.679,5.679,5.707,5.707,5.735,5.763,5.792,5.792,5.821,5.821,5.821,5.821,5.821,5.821,5.85,5.85,5.85,5.909,5.909,5.909,5.909,5.939,5.939,5.909,5.909,5.85,5.85,5.821,5.85,5.909,5.939,6.032,6.159,6.327,6.397,6.467,6.577,6.652,6.729,6.848,6.971,7.098,7.322,7.415,7.659,7.813,7.919,7.973,8.028,8.084,8.141,8.198,8.198,8.256,8.256,8.256,8.315,0.0,0.0,0.0,8.56,8.753,8.955,9.166,9.313,9.542,9.783,9.95,9.992999999999999,10.036,10.123,10.212,10.302,10.394,10.488,10.583,10.68,10.88,11.087,11.302,11.641,12.001,12.254,12.518,12.793,13.229,13.229,13.229,13.229,13.229,12.935,12.518,12.384,12.254,12.001,11.879,11.641,11.194,11.087,10.982,10.982,10.88,10.88,10.88,10.88,11.087,11.194,11.526,11.879,12.001,12.16,12.384,12.384,12.518,12.793,12.518,12.384,12.384,12.254,12.001,12.001,12.001,11.879,12.001,11.879,11.641,11.641,11.302,11.302,11.087,11.087,10.88,10.779,10.68,10.583,10.583,10.394,10.394,10.302,10.302,10.212,10.212,10.212,10.212,10.212,10.212,10.212,10.212,10.302,10.302,10.302,10.302,10.394,10.394,10.394,10.302,10.302,10.212,9.95,9.783,9.542,8.899000000000001,8.256,7.973,0.0,0.0,0.0,0.0,0.0,0.0,0.0,0.0,0.0,0.0,0.0,0.0,0.0,0.0,0.0,0.0,0.0,0.0,0.0,0.0,8.56,9.313,9.95,10.212,10.394,10.583,10.583,10.583,10.583,10.583,10.68,10.68,10.779,10.88,10.88,11.087,11.194,11.302,11.526,11.641,11.879,12.001,12.254,12.254,12.384,12.384,12.384,12.254,12.384,12.384,12.384,12.384,12.384,12.518,12.793,13.229,13.381,13.381,13.381,13.381,13.381,13.381,13.381,13.381,13.229,13.229,12.935,12.935,12.793,12.384,12.001,11.879,11.641,11.526,11.302,11.194,10.982,10.982,10.779,10.68,10.583,10.583,10.488,10.394,10.394,10.394,10.302,10.302,10.302,10.212,10.212,10.212,10.036,9.865,9.783,9.783,9.701,9.542,9.464,9.239,9.239,9.024,9.239,9.313,9.542,9.865,10.212,10.394,10.583,10.779,11.302,11.641,12.001,12.254,12.384,12.384,12.254,12.254,12.001,11.879,11.879,11.641,11.641,11.641,11.526,11.526,11.194,11.302,11.194,11.194,11.302,11.302,11.526,11.641,11.879,12.001,12.254,12.254,12.001,11.879,11.641,11.526,11.302,11.087,10.88,10.779,10.68,10.68,10.583,10.583,10.394,10.302,10.212,10.123,9.95,9.865,9.701,9.542,9.464,9.313,9.239,9.239,9.166,9.239,9.166,9.239,9.239,9.239,9.313,9.313,9.313,9.313,9.313,9.313,9.239,9.166,0.0,0.0,0.0,0.0,7.866,7.559,7.186
6.327,6.361,6.432,6.467,6.504,6.54,6.54,6.54,6.577,6.614,6.614,6.69,6.69,6.729,6.768,6.808,6.848,6.888,6.929,6.971,7.055,7.098,7.186,7.231,7.322,7.368,7.368,7.415,7.415,7.511,7.511,7.511,7.511,7.511,7.511,7.511,7.415,7.322,7.186,7.098,6.94475,0.0,0.0,0.0,3.855,3.829,3.817,3.817,3.804,3.804,3.792,3.792,3.792,3.792,3.792,3.792,3.792,3.792,3.855,0.0,0.0,0.0,0.0,0.0,0.0,5.85,6.361,6.361,6.361,6.396,6.432,6.432,6.467,6.467,6.504,6.504,6.504,6.504,6.504,6.467,6.467,6.432,6.396,6.327,6.327,6.159,5.597,0.0,0.0,3.743,3.615,3.593,3.582,3.582,3.56,3.549,3.549,3.538,3.549,3.549,3.56,3.615,3.661,3.743,3.804,0.0,0.0,0.0,0.0,0.0,0.0,0.0,0.0,5.597,5.707,5.792,5.85,5.909,5.939,6.032,6.095,6.127,6.159,6.159,6.225,6.225,6.225,6.225,6.259,6.259,6.327,6.327,6.327,6.361,6.396,6.432,6.467,6.504,6.54,6.54,6.54,6.54,6.54,6.54,6.577,6.577,6.577,6.577,6.577,6.577,6.54,6.54,6.504,6.432,6.396,6.396,6.361,6.361,6.396,6.467,6.467,6.504,6.504,6.504,6.504,6.467,6.467,6.467,6.467,6.467,6.467,6.432,6.432,6.396,6.361,6.361,6.327,6.259,6.225,6.225,6.159,6.159,6.127,6.127,6.095,6.032,5.939,5.909,5.821,5.792,5.707,5.679,5.679,5.651,5.651,5.679,5.679,5.679,5.707,5.707,5.735,5.763,5.763,5.763,5.792,5.792,5.821,5.821,5.821,5.85,5.909,5.909,5.939,5.939,5.939,5.939,5.939,5.939,5.85,5.821,5.821,5.792,5.792,5.792,5.821,5.939,6.095,6.225,6.3285,6.432,6.54,6.614,6.69,6.808,6.929,7.055,7.186,7.368,7.511,7.709,7.813,7.919,7.973,8.028,8.084,8.141,8.198,8.198,8.256,0.0,0.0,0.0,0.0,0.0,0.0,8.819,9.166,9.313,9.464,9.783,9.865,9.95,9.982249999999999,10.036,10.123,10.212,10.212,10.302,10.394,10.583,10.583,10.779,10.982,11.302,11.641,12.001,12.384,12.518,12.935,12.935,13.229,13.229,12.935,12.935,12.793,12.384,12.254,12.001,11.641,11.526,11.194,10.982,10.982,10.779,10.779,10.779,10.779,10.779,10.88,10.982,11.194,11.302,11.641,11.8805,12.001,12.254,12.384,12.518,12.518,12.518,12.384,12.384,12.254,12.001,12.001,11.879,11.879,12.001,11.879,11.641,11.526,11.302,11.194,11.087,10.982,10.88,10.779,10.68,10.583,10.583,10.394,10.394,10.302,10.302,10.212,10.212,10.212,10.212,10.212,10.212,10.212,10.212,10.212,10.302,10.302,10.302,10.302,10.394,10.302,10.302,10.302,10.302,10.302,10.212,9.95,9.464,8.955,8.375,0.0,0.0,0.0,0.0,0.0,0.0,0.0,0.0,0.0,0.0,0.0,0.0,0.0,0.0,0.0,0.0,0.0,0.0,0.0,8.753,9.464,9.95,10.302,10.394,10.583,10.583,10.583,10.583,10.583,10.583,10.68,10.68,10.68,10.779,10.88,10.982,11.087,11.194,11.526,11.526,11.641,11.879,11.879,12.254,12.254,12.254,12.254,12.001,12.001,12.254,12.254,12.254,12.254,12.254,12.384,12.793,13.229,13.229,13.229,12.935,13.229,13.229,13.381,13.229,12.935,12.935,12.793,12.793,12.384,12.254,12.001,11.879,11.641,11.526,11.302,11.194,11.087,10.982,10.779,10.68,10.583,10.583,10.488,10.394,10.394,10.394,10.302,10.302,10.302,10.212,10.212,10.212,10.036,9.95,9.865,9.783,9.701,9.701,9.542,9.464,9.464,9.313,9.542,9.701,9.783,10.036,10.302,10.488,10.68,10.88,11.194,11.641,12.001,12.254,12.254,12.384,12.254,12.001,12.001,11.879,11.879,11.641,11.641,11.641,11.526,11.302,11.302,11.194,11.194,11.194,11.194,11.302,11.526,11.641,11.879,12.001,12.001,11.879,11.879,11.641,11.526,11.302,11.194,10.982,10.779,10.68,10.68,10.583,10.583,10.488,10.394,10.302,10.212,10.123,9.95,9.865,9.783,9.542,9.464,9.313,9.313,9.313,9.239,9.239,9.166,9.239,9.166,9.239,9.239,9.239,9.239,9.239,9.239,9.239,9.239,9.166,0.0,0.0,0.0,0.0,0.0,7.322,6.929
6.361,6.396,6.467,6.467,6.504,6.54,6.54,6.54,6.577,6.614,6.614,6.652,6.69,6.729,6.729,6.768,6.808,6.888,6.929,6.971,7.055,7.055,7.186,7.231,7.322,7.368,7.368,7.368,7.415,7.415,7.511,7.511,7.511,7.511,7.511,7.511,7.415,7.415,7.322,7.231,7.055,0.0,0.0,0.0,3.829,3.817,3.817,3.817,3.804,3.804,3.792,3.792,3.792,3.792,3.792,3.792,3.792,3.792,3.855,0.0,0.0,0.0,0.0,0.0,5.316,5.792,6.361,6.361,6.361,6.396,6.432,6.432,6.467,6.467,6.504,6.504,6.54,6.54,6.504,6.467,6.467,6.432,6.361,6.327,6.259,6.259,5.763,0.0,0.0,3.743,3.593,3.593,3.56,3.56,3.56,3.549,3.549,3.538,3.538,3.538,3.56,3.582,3.593,3.627,3.696,0.0,0.0,0.0,0.0,0.0,0.0,0.0,0.0,0.0,5.792,5.909,5.909,5.939,5.939,6.032,6.095,6.127,6.159,6.225,6.259,6.259,6.327,6.327,6.361,6.361,6.361,6.361,6.396,6.396,6.432,6.467,6.467,6.504,6.504,6.504,6.54,6.54,6.54,6.54,6.54,6.54,6.54,6.54,6.54,6.54,6.504,6.504,6.432,6.396,6.361,6.361,6.327,6.259,6.361,6.396,6.432,6.432,6.432,6.432,6.432,6.396,6.396,6.432,6.432,6.396,6.396,6.396,6.361,6.361,6.361,6.327,6.259,6.259,6.225,6.225,6.225,6.225,6.225,6.159,6.159,6.127,6.032,5.939,5.85,5.821,5.763,5.679,5.651,5.651,5.651,5.651,5.651,5.679,5.679,5.707,5.707,5.735,5.763,5.763,5.763,5.792,5.821,5.821,5.821,5.85,5.909,5.939,5.939,6.001,6.001,6.001,6.001,5.939,5.909,5.821,5.792,5.792,5.763,5.763,5.792,5.909,6.001,6.225,6.310499999999999,6.396,6.54,6.614,6.729,6.808,6.888,6.971,7.098,7.231,7.368,7.559,7.709,7.866,7.973,8.028,8.084,8.084,8.198,8.198,8.198,0.0,0.0,0.0,0.0,0.0,0.0,9.166,9.313,9.464,9.542,9.701,9.865,9.95,9.95,9.95,10.036,10.08025,10.123,10.212,10.302,10.394,10.583,10.68,10.982,11.194,11.641,12.001,12.384,12.793,12.935,13.229,13.229,13.229,12.935,12.793,12.518,12.254,11.879,11.641,11.526,11.087,10.982,10.88,10.779,10.68,10.68,10.68,10.68,10.68,10.68,10.88,11.087,11.302,11.526,11.879,12.001,12.1275,12.254,12.384,12.518,12.384,12.384,12.384,12.254,12.254,12.254,12.001,12.001,12.001,12.001,11.641,11.641,11.526,11.302,11.194,10.982,10.982,10.779,10.68,10.68,10.583,10.488,10.394,10.302,10.302,10.302,10.302,10.212,10.212,10.212,10.212,10.212,10.302,10.302,10.302,10.302,10.302,10.394,10.394,10.394,10.394,10.394,10.302,10.302,10.302,10.212,9.95,9.701,9.239,0.0,0.0,0.0,0.0,0.0,0.0,0.0,0.0,0.0,0.0,0.0,0.0,0.0,0.0,0.0,0.0,0.0,0.0,0.0,9.95,10.212,10.302,10.488,10.583,10.583,10.583,10.68,10.583,10.583,10.583,10.68,10.68,10.68,10.779,10.779,10.88,10.982,11.087,11.194,11.194,11.194,11.641,11.641,11.879,12.001,12.001,11.879,11.879,12.001,12.001,12.001,12.001,12.001,12.001,12.384,12.518,12.793,12.793,12.793,12.793,12.793,12.935,12.935,12.793,12.518,12.518,12.384,12.384,12.001,11.879,11.641,11.526,11.302,11.302,11.194,11.087,10.982,10.88,10.779,10.68,10.583,10.583,10.394,10.394,10.394,10.302,10.302,10.302,10.212,10.212,10.212,10.212,10.036,9.95,9.865,9.865,9.783,9.701,9.701,9.701,9.701,9.701,9.783,9.865,9.95,10.212,10.302,10.488,10.68,10.88,11.087,11.526,12.001,12.254,12.254,12.254,12.254,12.001,11.879,11.641,11.526,11.526,11.302,11.194,11.302,11.194,11.194,11.087,11.087,11.087,11.194,11.302,11.302,11.526,11.641,11.879,11.879,11.641,11.526,11.302,11.194,11.087,10.88,10.68,10.68,10.68,10.583,10.583,10.488,10.394,10.302,10.302,10.212,10.123,10.036,9.865,9.783,9.701,9.542,9.542,9.464,9.464,9.313,9.313,9.239,9.239,9.239,9.239,9.239,9.239,9.239,9.239,9.239,9.239,9.313,9.239,0.0,0.0,0.0,0.0,0.0,0.0,6.768
6.361,6.396,6.432,6.432,6.467,6.504,6.54,6.54,6.577,6.577,6.614,6.652,6.69,6.69,6.729,6.729,6.768,6.808,6.848,6.888,6.929,6.971,7.055,7.098,7.186,7.231,7.231,7.322,7.322,7.368,7.368,7.415,7.415,7.511,7.511,7.511,7.511,7.368,7.322,7.231,7.098,0.0,0.0,0.0,0.0,3.817,3.817,3.804,3.804,3.804,3.804,3.792,3.792,3.792,3.792,3.792,3.792,3.792,3.855,4.056,0.0,0.0,0.0,0.0,5.106,5.651,6.127,6.259,6.396,6.396,6.432,6.467,6.467,6.504,6.504,6.504,6.54,6.54,6.504,6.467,6.467,6.396,6.361,6.327,6.259,6.225,6.159,5.57,0.0,0.0,3.593,3.593,3.582,3.582,3.582,3.549,3.549,3.538,3.538,3.538,3.549,3.538,3.549,3.549,3.582,3.615,3.661,0.0,0.0,0.0,0.0,0.0,0.0,0.0,0.0,5.909,5.939,5.939,5.939,6.001,6.095,6.127,6.159,6.225,6.259,6.327,6.327,6.327,6.361,6.361,6.361,6.361,6.396,6.396,6.396,6.432,6.432,6.467,6.467,6.467,6.467,6.467,6.467,6.467,6.467,6.467,6.467,6.467,6.467,6.467,6.396,6.361,6.327,6.327,6.259,6.259,6.225,6.225,6.259,6.327,6.361,6.361,6.361,6.361,6.361,6.327,6.259,6.259,6.327,6.327,6.327,6.327,6.327,6.259,6.327,6.327,6.259,6.259,6.225,6.259,6.259,6.259,6.225,6.225,6.225,6.159,6.127,6.001,5.909,5.821,5.792,5.679,5.679,5.651,5.651,5.651,5.651,5.679,5.679,5.679,5.707,5.735,5.763,5.763,5.763,5.792,5.821,5.821,5.85,5.85,5.909,5.939,5.939,6.001,6.032,6.001,6.001,5.939,5.909,5.821,5.792,5.763,5.735,5.707,5.763,5.909,6.001,6.225,6.3285,6.432,6.54,6.614,6.69,6.768,6.848,6.888,6.971,7.098,7.231,7.415,7.559,7.761,7.866,7.973,8.028,8.084,8.084,8.141,8.141,0.0,0.0,0.0,0.0,0.0,0.0,9.024,9.239,9.351500000000001,9.464,9.542,9.701,9.783,9.783,9.783,9.95,9.95,10.102,10.212,10.212,10.302,10.488,10.583,10.779,11.087,11.641,12.001,12.384,12.793,12.935,13.229,13.229,12.935,12.935,12.793,12.384,12.254,11.879,11.641,11.302,11.087,10.88,10.779,10.68,10.68,10.68,10.68,10.68,10.68,10.68,10.88,10.982,11.194,11.526,11.641,12.001,12.095875,12.254,12.384,12.384,12.384,12.384,12.384,12.384,12.384,12.384,12.254,12.254,12.254,12.001,12.001,11.879,11.641,11.526,11.302,11.194,11.087,10.88,10.779,10.68,10.583,10.583,10.488,10.394,10.394,10.394,10.302,10.302,10.302,10.302,10.302,10.302,10.302,10.302,10.302,10.302,10.302,10.394,10.394,10.394,10.394,10.394,10.394,10.302,10.302,10.302,10.212,10.212,10.212,10.123,0.0,0.0,0.0,0.0,0.0,0.0,0.0,0.0,0.0,0.0,0.0,0.0,0.0,0.0,0.0,0.0,0.0,10.394,10.583,10.583,10.583,10.583,10.583,10.68,10.68,10.68,10.68,10.583,10.583,10.68,10.68,10.68,10.779,10.779,10.779,10.88,10.982,10.982,10.982,11.087,11.087,11.194,11.302,11.641,11.641,11.641,11.641,11.641,11.641,11.879,11.879,11.879,11.879,12.001,12.254,12.384,12.518,12.384,12.384,12.384,12.254,12.254,12.254,12.001,11.879,11.879,11.641,11.641,11.526,11.302,11.194,11.087,11.087,10.982,10.779,10.779,10.68,10.68,10.583,10.488,10.394,10.302,10.302,10.212,10.212,10.212,10.212,10.123,10.123,10.123,10.123,10.036,9.95,9.95,9.865,9.865,9.783,9.783,9.783,9.783,9.783,9.783,9.95,10.036,10.212,10.394,10.488,10.68,10.68,10.982,11.526,11.879,12.001,12.001,12.001,11.879,11.879,11.641,11.526,11.302,11.194,11.087,11.087,11.087,11.087,10.982,10.982,10.88,10.982,11.087,11.194,11.302,11.302,11.302,11.526,11.526,11.302,11.194,11.087,10.982,10.779,10.68,10.583,10.583,10.583,10.488,10.394,10.394,10.302,10.302,10.212,10.212,10.036,10.036,9.95,9.865,9.783,9.783,9.701,9.701,9.542,9.542,9.542,9.313,9.313,9.313,9.313,9.313,9.313,9.313,9.313,9.239,9.464,9.464,9.464,0.0,0.0,0.0,0.0,0.0,0.0,0.0
6.225,6.327,6.361,6.396,6.432,6.432,6.467,6.504,6.54,6.54,6.577,6.577,6.614,6.614,6.652,6.69,6.69,6.729,6.729,6.768,6.808,6.848,6.929,6.971,6.971,7.098,7.186,7.186,7.231,7.231,7.322,7.368,7.415,7.415,7.415,7.511,7.415,7.368,7.322,7.231,7.098,0.0,0.0,0.0,0.0,3.817,3.804,3.804,3.804,3.804,3.804,3.792,3.792,3.792,3.792,3.792,3.792,3.804,3.855,4.028,0.0,0.0,0.0,4.933,5.2379999999999995,5.543,5.909,6.159,6.396,6.432,6.432,6.467,6.467,6.504,6.504,6.54,6.54,6.54,6.504,6.467,6.467,6.396,6.361,6.327,6.259,6.225,6.225,5.597,0.0,0.0,0.0,3.615,3.615,3.593,3.593,3.56,3.549,3.538,3.538,3.538,3.538,3.538,3.538,3.538,3.549,3.56,3.582,3.582,0.0,0.0,0.0,0.0,0.0,0.0,0.0,5.909,5.939,5.939,5.939,6.001,6.032,6.127,6.159,6.225,6.225,6.327,6.327,6.327,6.361,6.361,6.361,6.361,6.361,6.396,6.396,6.396,6.432,6.432,6.432,6.432,6.396,6.396,6.396,6.396,6.361,6.396,6.361,6.361,6.396,6.361,6.327,6.259,6.225,6.225,6.225,6.159,6.159,6.225,6.225,6.259,6.259,6.327,6.327,6.327,6.259,6.225,6.225,6.225,6.225,6.259,6.259,6.259,6.259,6.259,6.259,6.259,6.225,6.225,6.225,6.259,6.259,6.259,6.259,6.225,6.225,6.225,6.127,6.032,5.939,5.85,5.792,5.707,5.679,5.651,5.651,5.679,5.679,5.679,5.679,5.707,5.735,5.763,5.763,5.763,5.792,5.792,5.821,5.821,5.85,5.909,5.909,5.939,6.001,6.001,6.032,6.001,6.001,6.001,5.909,5.821,5.792,5.735,5.707,5.707,5.763,5.85,5.939,6.225,6.3285,6.432,6.577,6.614,6.729,6.768,6.848,6.888,6.929,7.055,7.186,7.322,7.415,7.559,7.761,7.813,7.973,8.028,8.028,8.084,8.084,0.0,0.0,0.0,0.0,0.0,0.0,0.0,0.0,0.0,9.315000000000001,9.464,9.542,9.783,9.701,9.783,9.865,9.95,10.123,10.1675,10.212,10.302,10.394,10.583,10.779,11.087,11.526,12.001,12.384,12.793,13.229,13.229,13.229,13.229,12.793,12.793,12.384,12.254,11.879,11.526,11.087,10.982,10.88,10.779,10.68,10.68,10.68,10.68,10.68,10.68,10.68,10.779,10.982,11.194,11.526,11.641,11.821,12.001,12.254,12.254,12.384,12.384,12.518,12.518,12.518,12.518,12.518,12.518,12.518,12.518,12.384,12.254,12.001,11.879,11.641,11.641,11.302,11.194,11.087,10.88,10.779,10.68,10.68,10.583,10.488,10.488,10.394,10.394,10.394,10.302,10.302,10.302,10.302,10.394,10.302,10.394,10.394,10.394,10.394,10.394,10.394,10.394,10.394,10.394,10.394,10.394,10.302,10.302,10.302,10.302,10.212,0.0,0.0,0.0,0.0,0.0,0.0,0.0,0.0,0.0,0.0,0.0,0.0,0.0,0.0,0.0,0.0,0.0,10.583,10.68,10.583,10.583,10.68,10.68,10.68,10.68,10.68,10.68,10.68,10.68,10.68,10.68,10.68,10.68,10.68,10.779,10.779,10.88,10.88,10.88,10.982,10.982,10.982,11.087,11.087,11.087,11.194,11.526,11.526,11.526,11.641,11.641,11.641,11.641,11.879,12.001,12.254,12.254,12.001,11.641,11.879,11.879,11.641,11.302,11.194,11.194,11.194,11.194,11.087,11.087,10.982,10.982,10.88,10.779,10.779,10.68,10.68,10.583,10.583,10.394,10.394,10.302,10.212,10.212,10.212,10.212,10.123,10.123,10.036,10.123,10.123,10.123,10.123,10.036,10.036,9.95,9.95,9.95,9.865,9.865,9.865,9.865,9.95,9.95,10.036,10.212,10.394,10.394,10.583,10.68,10.88,11.194,11.526,11.879,11.879,11.641,11.641,11.526,11.526,11.194,11.087,10.982,10.88,10.88,10.779,10.779,10.779,10.779,10.779,10.88,10.88,10.982,11.087,11.194,11.194,11.194,11.194,11.087,10.982,10.88,10.68,10.68,10.488,10.394,10.394,10.394,10.394,10.302,10.302,10.302,10.212,10.212,10.212,10.123,10.036,9.95,9.95,9.95,9.95,9.865,9.865,9.783,9.783,9.701,9.542,9.542,9.464,9.542,9.464,9.464,9.464,9.464,9.542,9.701,9.542,9.701,9.701,9.701,9.542,8.753,0.0,0.0,0.0
