6.259,6.259,6.259,6.327,6.327,6.327,6.361,6.361,6.361,6.361,6.361,6.361,6.361,6.361,6.361,6.361,6.361,6.361,6.361,6.361,6.361,6.396,6.396,6.396,6.396,6.432,6.467,6.467,6.504,6.504,6.504,6.54,6.54,6.577,6.577,6.577,6.577,6.614,6.614,6.614,6.652,6.69,6.69,6.69,6.69,6.69,6.729,6.729,6.729,6.729,6.768,6.768,6.768,6.768,6.768,6.768,6.768,6.768,6.768,6.768,6.768,6.768,6.768,6.848,6.848,6.888,6.929,6.971,6.971,7.055,7.055,7.055,7.055,7.055,6.971,6.768,6.614,5.651,5.1915,4.732,4.3115,4.028,3.987,3.973,3.946,3.933,3.92,3.92,3.906,3.893,3.893,3.893,3.88,3.88,3.868,3.868,3.868,3.868,3.868,3.868,3.868,3.88,3.88,3.893,3.92,3.933,3.946,3.973,3.987,4.014,4.014,3.987,3.946,3.893,3.855,3.817,3.731,3.661,3.582,3.528,3.496,3.496,3.485,3.485,3.485,3.496,3.506,3.528,3.56,3.615,3.661,3.707,3.755,3.78,3.817,3.829,3.868,3.893,3.987,4.0504999999999995,4.114,4.233,4.296,4.344,4.46,4.638,4.752,4.851,4.954,5.106,5.226,5.34,5.543,5.624,5.707,5.821,6.001,6.127,6.159,6.225,6.259,6.259,6.259,6.327,6.259,6.259,6.259,6.259,6.225,6.225,6.159,6.159,6.159,6.159,6.159,6.159,6.127,6.127,6.127,6.127,6.159,6.127,6.127,6.127,6.095,6.032,6.001,5.85,5.821,5.763,5.707,5.735,5.679,5.679,5.679,5.679,5.679,5.679,5.679,5.707,5.735,5.792,5.792,5.821,5.85,5.909,5.939,5.939,5.939,6.001,5.939,5.909,5.909,5.85,5.85,5.821,5.792,5.763,5.763,5.763,5.763,5.763,5.763,5.763,5.763,5.792,5.792,5.792,5.821,5.85,5.909,5.939,5.939,6.001,6.032,6.032,6.095,6.159,6.327,6.467,6.577,6.628625,6.69,6.768,6.971,7.322,7.659,7.813,7.919,7.973,8.028,8.028,8.084,8.084,8.141,8.198,8.198,8.198,8.198,8.256,8.256,8.198,8.198,8.198,8.084,8.084,8.028,8.028,7.973,7.919,7.866,7.813,7.761,7.709,7.709,7.659,7.709,7.659,7.709,7.761,7.813,7.866,7.919,7.973,8.028,8.084,8.084,8.198,8.256,8.315,8.375,8.497,8.623,8.819,8.955,9.239,9.464,9.783,9.95,10.212,10.302,10.394,10.583,10.68,10.779,10.88,10.88,10.982,10.88,10.88,10.779,10.68,10.583,10.583,10.488,10.394,10.394,10.302,10.302,10.302,10.302,10.394,10.394,10.488,10.583,10.68,10.68,10.68,10.779,10.88,10.88,11.087,11.302,11.526,11.641,12.254,12.384,12.793,12.793,12.935,13.229,13.229,13.229,13.229,13.229,13.229,13.229,13.229,13.229,12.935,13.229,12.935,12.935,12.935,12.935,12.518,12.518,12.384,12.254,12.001,11.641,11.364,11.087,10.488,0.0,0.0,0.0,0.0,0.0,5.316,5.244,5.174,5.151,5.106,5.04,5.018,4.996,4.975,4.954,4.933,4.933,4.933,4.933,4.912,4.912,4.912,4.933,4.933,4.933,4.954,4.954,4.996,5.151,5.465,5.679,0.0,0.0,6.577,7.055,7.973,8.2665,8.56,8.56,8.497,8.436,8.375,8.256,8.256,8.198,8.084,8.084,8.028,8.028,8.084,8.084,8.084,8.198,8.198,8.315,8.375,8.436,8.497,8.623,8.819,8.955,9.239,9.464,9.865,10.036,10.212,10.212,10.212,10.212,10.212,10.212,10.123,10.036,10.036,10.036,10.036,10.123,10.036,10.123,10.036,10.123,10.123,10.036,10.036,9.865,9.783,9.783,9.701,9.701,9.313,9.239,9.024,8.955,8.753,8.623,8.56,8.497,8.436,8.375,8.375,8.375,8.375,8.315,8.315,8.315,8.256,8.315,8.315,8.256,8.256,8.256,8.256,8.256,8.198,8.198,8.198,8.198,8.198,8.198,8.141,8.141,8.198,8.198,8.198,8.256,8.315,8.315,8.436,8.56,8.436,8.436,8.56,8.56,8.623,8.623,8.623,8.623,8.623,8.56,8.623,8.623,8.623,8.753,8.753,8.753,8.623,8.623,8.623,8.56,8.56,0.0,0.0,7.098,6.768,6.69,6.614,6.54,6.467,6.432,6.361,6.225,6.001,5.909,5.821,5.735,5.679,5.597,5.57,5.543,5.44,5.316,5.174,5.106,5.04,4.975,4.954,4.933,4.912,0.0
6.259,6.259,6.259,6.259,6.327,6.327,6.327,6.327,6.327,6.361,6.361,6.361,6.327,6.327,6.327,6.327,6.361,6.361,6.361,6.361,6.361,6.396,6.396,6.396,6.396,6.432,6.432,6.467,6.504,6.504,6.54,6.54,6.54,6.54,6.577,6.577,6.577,6.614,6.614,6.614,6.652,6.652,6.69,6.69,6.69,6.69,6.729,6.729,6.729,6.729,6.768,6.768,6.768,6.768,6.768,6.768,6.768,6.768,6.768,6.768,6.768,6.768,6.768,6.808,6.808,6.848,6.888,6.929,6.929,6.971,6.971,7.055,7.055,6.971,6.888,6.652,6.432,5.939,0.0,0.0,4.085,4.014,3.987,3.973,3.946,3.92,3.92,3.906,3.893,3.88,3.868,3.868,3.868,3.855,3.855,3.855,3.855,3.855,3.868,3.868,3.868,3.868,3.88,3.906,3.933,3.946,3.973,3.987,4.014,4.028,4.028,4.014,3.973,3.906,3.868,3.829,3.743,3.672,3.593,3.528,3.506,3.496,3.485,3.485,3.485,3.496,3.506,3.528,3.582,3.615,3.661,3.707,3.755,3.78,3.804,3.829,3.855,3.868,3.906,4.014,4.085,4.140499999999999,4.188,4.264,4.312,4.376,4.512,4.657,4.81,4.891,5.018,5.1225,5.22,5.465,5.57,5.651,5.735,5.85,6.001,6.127,6.225,6.259,6.259,6.259,6.259,6.259,6.259,6.225,6.225,6.225,6.159,6.159,6.127,6.127,6.127,6.127,6.095,6.095,6.095,6.095,6.095,6.095,6.095,6.032,6.032,6.001,6.001,5.939,5.85,5.85,5.821,5.792,5.763,5.735,5.735,5.735,5.735,5.763,5.763,5.763,5.792,5.792,5.85,5.85,5.85,5.85,5.909,5.909,5.909,5.909,5.909,5.85,5.821,5.821,5.792,5.792,5.763,5.763,5.763,5.763,5.763,5.763,5.763,5.763,5.763,5.763,5.763,5.792,5.821,5.85,5.909,5.939,5.939,6.001,6.032,6.032,6.095,6.159,6.327,6.467,6.54,6.614,6.691,6.768,6.929,7.231,7.511,7.761,7.866,7.973,7.973,8.028,8.084,8.084,8.141,8.198,8.198,8.256,8.256,8.256,8.256,8.256,8.256,8.198,8.141,8.084,8.028,7.973,7.973,7.919,7.813,7.761,7.709,7.659,7.559,7.559,7.559,7.559,7.659,7.709,7.709,7.761,7.866,7.919,7.973,8.028,8.084,8.141,8.198,8.256,8.375,8.436,8.56,8.753,8.955,9.166,9.313,9.701,9.95,10.123,10.302,10.394,10.583,10.68,10.982,11.087,10.982,11.087,11.087,10.982,10.88,10.779,10.68,10.583,10.583,10.488,10.394,10.302,10.302,10.302,10.302,10.394,10.394,10.488,10.583,10.68,10.68,10.68,10.68,10.779,10.88,10.982,11.194,11.526,11.879,12.001,12.384,12.793,12.793,13.229,13.229,13.229,13.229,13.381,13.381,13.381,13.381,13.229,13.381,13.229,13.229,12.935,12.935,12.793,12.793,12.384,12.384,12.254,0.0,0.0,0.0,0.0,0.0,0.0,0.0,0.0,5.679,5.4975000000000005,5.316,5.268,5.244,5.174,5.151,5.084,5.04,5.018,4.975,4.954,4.954,4.933,4.912,4.912,4.912,4.912,4.912,4.912,4.912,4.933,4.933,4.933,4.954,4.975,5.151,5.491,5.679,0.0,0.0,6.614,7.186,7.973,8.2665,8.56,8.56,8.497,8.375,8.315,8.256,8.256,8.198,8.084,8.084,8.028,8.028,8.084,8.084,8.141,8.198,8.256,8.256,8.375,8.497,8.56,8.753,8.819,9.166,9.313,9.701,9.865,10.212,10.302,10.302,10.302,10.302,10.302,10.212,10.123,10.123,10.036,9.95,9.95,9.95,9.95,9.865,9.783,9.783,9.701,9.783,9.701,9.542,9.542,9.464,9.464,9.464,9.166,9.024,8.955,8.753,8.623,8.497,8.436,8.375,8.315,8.315,8.315,8.315,8.315,8.315,8.375,8.436,8.497,8.497,8.497,8.56,8.497,8.497,8.497,8.497,8.497,8.497,8.436,8.375,8.375,8.375,8.315,8.315,8.375,8.375,8.375,8.497,8.56,8.56,8.623,8.753,8.753,8.753,8.753,8.753,8.753,8.753,8.753,8.623,8.623,8.56,8.501,8.623,8.623,8.623,8.753,8.623,8.56,8.427,8.497,7.964,7.7445,0.0,0.0,6.768,6.614,6.54,6.432,6.396,6.327,6.159,5.909,5.821,5.735,5.707,5.651,5.597,5.57,5.491,5.415,5.34,5.22,5.106,4.933,4.912,4.891,4.891,4.871,0.0,0.0,0.0
6.259,6.259,6.259,6.259,6.259,6.259,6.259,6.259,6.259,6.327,6.327,6.327,6.327,6.327,6.327,6.327,6.361,6.361,6.361,6.361,6.396,6.396,6.396,6.432,6.432,6.432,6.432,6.467,6.504,6.504,6.54,6.54,6.54,6.54,6.577,6.577,6.577,6.577,6.614,6.614,6.614,6.652,6.69,6.69,6.69,6.69,6.69,6.729,6.729,6.729,6.729,6.729,6.768,6.768,6.768,6.768,6.768,6.768,6.768,6.768,6.729,6.729,6.729,6.768,6.768,6.808,6.808,6.848,6.888,6.848,6.808,6.768,6.729,6.729,6.614,6.327,5.57,0.0,0.0,0.0,4.085,3.987,4.014,3.973,3.946,3.92,3.906,3.893,3.88,3.868,3.868,3.855,3.855,3.842,3.842,3.842,3.855,3.855,3.868,3.868,3.868,3.88,3.893,3.906,3.933,3.973,3.987,4.014,4.014,4.056,4.056,4.028,3.987,3.92,3.868,3.829,3.755,3.672,3.593,3.538,3.506,3.496,3.485,3.496,3.496,3.496,3.506,3.538,3.582,3.615,3.672,3.707,3.743,3.78,3.804,3.817,3.829,3.855,3.88,3.92,3.987,4.056,4.1145000000000005,4.158,4.233,4.264,4.328,4.41,4.583,4.752,4.851,4.912,5.084,5.19275,5.268,5.491,5.597,5.679,5.792,5.909,6.032,6.159,6.225,6.259,6.259,6.259,6.259,6.225,6.259,6.225,6.159,6.127,6.127,6.095,6.095,6.032,6.032,6.032,6.032,6.032,6.032,6.001,6.001,6.001,5.939,5.939,5.939,5.939,5.939,5.909,5.909,5.85,5.821,5.821,5.821,5.821,5.821,5.821,5.821,5.821,5.821,5.821,5.821,5.821,5.821,5.821,5.821,5.85,5.821,5.821,5.821,5.792,5.792,5.763,5.735,5.735,5.735,5.735,5.735,5.735,5.735,5.735,5.735,5.735,5.735,5.763,5.763,5.792,5.792,5.85,5.85,5.939,5.939,6.001,6.032,6.095,6.127,6.159,6.327,6.432,6.54,6.614,6.6715,6.729,6.848,7.055,7.368,7.559,7.761,7.866,7.973,7.973,8.028,8.084,8.141,8.198,8.256,8.256,8.256,8.256,8.256,8.256,8.256,8.198,8.141,8.084,8.028,7.973,7.973,7.866,7.761,7.709,7.709,7.559,7.559,7.559,7.559,7.559,7.559,7.559,7.659,7.709,7.761,7.813,7.919,7.973,8.028,8.084,8.141,8.198,8.256,8.375,8.497,8.623,8.753,8.955,9.239,9.464,9.783,10.036,10.212,10.394,10.488,10.68,10.88,11.087,11.087,11.087,11.087,11.087,10.88,10.779,10.68,10.583,10.583,10.394,10.394,10.302,10.302,10.302,10.302,10.394,10.394,10.488,10.488,10.583,10.583,10.583,10.68,10.779,10.779,10.982,11.194,11.302,11.641,12.001,12.384,12.793,13.229,13.229,13.229,13.381,13.536,13.536,13.536,13.536,13.536,13.381,13.381,13.229,13.229,13.229,12.935,12.793,0.0,0.0,0.0,0.0,0.0,0.0,0.0,0.0,0.0,0.0,0.0,5.707,5.57,5.491,5.268,5.244,5.174,5.151,5.106,5.084,5.04,4.996,4.975,4.954,4.954,4.933,4.912,4.912,4.912,4.912,4.912,4.912,4.912,4.912,4.912,4.933,4.954,4.975,5.174,5.517,5.707,0.0,0.0,6.652,7.186,7.973,8.235,8.497,8.497,8.436,8.375,8.315,8.256,8.256,8.198,8.084,8.084,8.084,8.084,8.141,8.141,8.198,8.256,8.315,8.375,8.497,8.623,8.753,8.955,9.024,9.239,9.464,9.783,10.036,10.212,10.302,10.302,10.302,10.302,10.302,10.212,10.212,10.123,9.95,9.865,9.865,9.865,9.783,9.701,9.464,9.464,9.313,9.239,9.239,9.239,9.239,9.166,9.166,9.166,9.024,8.819,8.753,8.623,8.56,8.436,8.375,8.315,8.315,8.256,8.256,8.256,8.315,8.375,8.436,8.497,8.56,8.56,8.623,8.623,8.623,8.623,8.623,8.623,8.56,8.56,8.497,8.497,8.497,8.497,8.497,8.497,8.56,8.56,8.623,8.623,8.753,8.753,8.819,8.819,8.819,8.819,8.819,8.753,8.753,8.623,8.623,8.623,8.497,8.375,8.198,8.084,8.141,8.375,8.375,8.315,8.256,8.028,7.919,7.368,6.929,6.69,6.577,0.0,6.1745,6.159,6.032,6.001,5.85,5.763,5.679,5.679,5.624,5.597,5.543,5.491,5.44,5.268,5.22,5.106,5.018,4.891,4.851,4.83,4.83,4.81,4.81,0.0,0.0,0.0
6.259,6.259,6.259,6.259,6.259,6.259,6.259,6.259,6.259,6.259,6.259,6.259,6.259,6.327,6.327,6.327,6.361,6.361,6.361,6.361,6.396,6.396,6.432,6.432,6.432,6.467,6.467,6.467,6.504,6.54,6.54,6.54,6.54,6.577,6.577,6.577,6.577,6.614,6.614,6.614,6.614,6.652,6.652,6.69,6.69,6.69,6.69,6.729,6.729,6.729,6.729,6.729,6.768,6.768,6.729,6.729,6.768,6.768,6.729,6.729,6.729,6.729,6.729,6.729,6.729,6.729,6.768,6.808,6.768,6.69,6.614,6.54,6.54,6.504,0.0,0.0,0.0,0.0,4.376,4.249,4.114,3.987,3.987,3.946,3.933,3.92,3.906,3.893,3.868,3.868,3.855,3.855,3.855,3.855,3.842,3.855,3.855,3.868,3.868,3.868,3.88,3.893,3.906,3.92,3.946,3.973,3.987,4.014,4.028,4.056,4.056,4.028,3.987,3.933,3.868,3.842,3.755,3.696,3.615,3.549,3.517,3.496,3.496,3.496,3.496,3.506,3.517,3.538,3.582,3.627,3.672,3.707,3.743,3.767,3.804,3.817,3.829,3.842,3.868,3.88,3.92,3.973,4.056,4.128,4.1695,4.203,4.264,4.312,4.36,4.477,4.657,4.81,4.871,4.954,5.151,5.26875,5.415,5.543,5.624,5.707,5.821,6.032,6.159,6.225,6.225,6.225,6.225,6.259,6.225,6.159,6.127,6.095,6.095,6.095,6.032,6.001,6.001,5.939,5.939,5.939,5.909,5.909,5.909,5.939,5.909,5.939,5.939,6.001,6.001,6.001,6.001,5.939,5.939,5.939,5.909,5.909,5.909,5.939,5.909,5.909,5.909,5.85,5.85,5.821,5.821,5.792,5.792,5.792,5.792,5.792,5.763,5.763,5.735,5.735,5.735,5.735,5.707,5.735,5.735,5.735,5.735,5.735,5.735,5.735,5.735,5.763,5.763,5.763,5.821,5.85,5.909,5.939,6.001,6.032,6.032,6.095,6.127,6.225,6.327,6.432,6.54,6.614,6.656875,6.69,6.768,6.929,7.186,7.415,7.559,7.709,7.813,7.973,7.973,8.084,8.141,8.198,8.256,8.256,8.315,8.315,8.315,8.315,8.256,8.198,8.198,8.084,8.028,7.973,7.973,7.866,7.761,7.709,7.709,7.559,7.559,7.511,7.511,7.511,7.511,7.511,7.511,7.559,7.659,7.709,7.813,7.866,7.973,8.028,8.084,8.141,8.198,8.256,8.375,8.436,8.56,8.753,8.955,9.166,9.464,9.701,10.036,10.212,10.394,10.583,10.779,10.982,10.982,11.087,11.087,11.087,10.982,10.88,10.68,10.68,10.583,10.488,10.394,10.302,10.302,10.394,10.394,10.394,10.394,10.394,10.488,10.583,10.583,10.583,10.583,10.68,10.68,10.779,11.194,11.302,11.641,12.254,12.384,12.935,13.229,13.381,13.536,13.536,13.696,13.696,13.696,13.696,13.696,13.536,13.381,13.381,13.381,0.0,0.0,0.0,0.0,0.0,0.0,0.0,0.0,0.0,0.0,0.0,0.0,0.0,0.0,0.0,5.4190000000000005,5.34,5.244,5.22,5.151,5.151,5.084,5.04,5.018,4.996,4.975,4.954,4.933,4.933,4.912,4.912,4.912,4.912,4.912,4.912,4.912,4.912,4.912,4.933,4.933,4.975,5.084,5.465,5.651,0.0,0.0,6.577,7.055,7.919,8.211500000000001,8.436,8.436,8.436,8.315,8.315,8.256,8.256,8.198,8.084,8.141,8.084,8.084,8.141,8.198,8.256,8.256,8.315,8.436,8.56,8.753,8.955,9.024,9.166,9.313,9.542,9.783,10.036,10.212,10.212,10.302,10.302,10.302,10.302,10.212,10.212,10.036,9.95,9.865,9.783,9.701,9.464,9.313,9.166,9.166,9.024,8.819,8.753,8.753,8.753,8.753,8.819,8.819,8.819,8.623,8.56,8.497,8.375,8.315,8.256,8.198,8.198,8.198,8.198,8.256,8.256,8.315,8.375,8.497,8.56,8.623,8.623,8.623,8.623,8.623,8.623,8.623,8.623,8.497,8.497,8.436,8.436,8.436,8.436,8.43725,8.56,8.623,8.753,8.753,8.753,8.819,8.819,8.819,8.819,8.819,8.819,8.753,8.753,8.623,8.56,8.497,8.315,8.198,7.973,7.866,7.761,7.368,7.098,6.848,6.69,6.577,6.432,6.225,5.821,6.2125,5.9465,5.84075,5.735,5.707,5.707,5.679,5.651,5.651,5.597,5.543,5.517,5.465,5.415,5.316,5.22,5.084,4.996,4.891,4.851,4.81,4.771,4.752,4.713,4.713,4.694,0.0,0.0,4.638
6.327,6.327,6.259,6.259,6.259,6.259,6.259,6.259,6.259,6.259,6.259,6.259,6.259,6.327,6.327,6.361,6.361,6.361,6.361,6.396,6.396,6.396,6.432,6.432,6.467,6.467,6.467,6.504,6.54,6.54,6.54,6.54,6.577,6.577,6.577,6.577,6.614,6.614,6.614,6.614,6.614,6.652,6.69,6.69,6.69,6.69,6.729,6.729,6.729,6.729,6.729,6.729,6.729,6.729,6.729,6.729,6.729,6.729,6.729,6.729,6.729,6.729,6.729,6.729,6.729,6.729,6.729,6.729,6.69,6.577,6.432,6.127,5.939,0.0,0.0,0.0,0.0,4.393,4.28,4.203,4.056,4.014,4.014,3.946,3.933,3.92,3.906,3.893,3.88,3.868,3.855,3.855,3.855,3.855,3.868,3.855,3.868,3.868,3.88,3.88,3.893,3.906,3.92,3.933,3.946,3.987,3.987,4.014,4.014,4.028,4.028,4.028,3.987,3.92,3.868,3.842,3.767,3.707,3.627,3.56,3.528,3.506,3.496,3.506,3.506,3.517,3.528,3.549,3.593,3.627,3.672,3.707,3.743,3.767,3.792,3.804,3.817,3.829,3.855,3.868,3.893,3.92,3.973,4.028,4.114,4.14375,4.188,4.249,4.28,4.328,4.41,4.565,4.713,4.81,4.891,5.018,5.244,5.323,5.465,5.57,5.679,5.821,6.001,6.127,6.159,6.225,6.159,6.159,6.159,6.159,6.127,6.032,6.032,6.001,5.939,5.939,5.909,5.85,5.821,5.821,5.85,5.85,5.909,5.909,5.939,5.939,6.001,6.032,6.032,6.095,6.032,6.032,6.032,6.032,6.032,6.032,6.032,6.032,6.032,6.001,6.001,5.939,5.909,5.85,5.821,5.792,5.792,5.763,5.763,5.763,5.735,5.735,5.735,5.735,5.707,5.707,5.707,5.735,5.735,5.735,5.707,5.707,5.707,5.707,5.735,5.735,5.735,5.763,5.821,5.85,5.909,5.939,6.001,6.032,6.095,6.127,6.127,6.225,6.327,6.432,6.54,6.577,6.652,6.68075,6.729,6.848,6.971,7.186,7.368,7.511,7.709,7.813,7.973,8.028,8.084,8.198,8.256,8.315,8.315,8.375,8.315,8.315,8.256,8.256,8.198,8.084,8.084,7.973,7.973,7.866,7.813,7.761,7.709,7.559,7.511,7.511,7.511,7.415,7.415,7.415,7.511,7.511,7.511,7.559,7.709,7.761,7.866,7.973,8.028,8.084,8.198,8.198,8.256,8.375,8.497,8.56,8.753,8.955,9.166,9.464,9.783,10.036,10.302,10.394,10.583,10.68,10.779,10.88,10.982,10.88,10.88,10.779,10.68,10.68,10.583,10.583,10.394,10.302,10.394,10.302,10.394,10.394,10.394,10.394,10.394,10.488,10.583,10.583,10.583,10.583,10.68,10.68,10.88,11.194,11.302,12.254,12.518,12.935,13.229,13.381,13.536,13.536,13.696,13.696,13.859,13.859,13.696,13.696,13.536,13.536,0.0,0.0,0.0,0.0,0.0,0.0,0.0,0.0,0.0,0.0,0.0,0.0,0.0,0.0,0.0,0.0,5.268,5.244,5.22,5.174,5.151,5.106,5.084,5.04,5.018,4.996,4.975,4.954,4.933,4.933,4.912,4.912,4.912,4.912,4.912,4.891,4.912,4.912,4.912,4.912,4.933,4.933,5.04,5.34,5.57,0.0,0.0,6.467,6.808,7.709,8.256,8.315,8.375,8.315,8.256,8.256,8.256,8.198,8.198,8.084,8.084,8.084,8.141,8.141,8.198,8.256,8.256,8.315,8.497,8.623,8.819,8.955,9.024,9.239,9.313,9.464,9.701,9.865,10.123,10.212,10.212,10.212,10.212,10.212,10.212,10.036,9.95,9.865,9.701,9.542,9.464,9.239,9.166,8.955,8.819,8.623,8.56,8.497,8.497,8.497,8.497,8.497,8.436,8.497,8.375,8.375,8.256,8.256,8.198,8.141,8.084,8.084,8.084,8.141,8.141,8.198,8.256,8.375,8.4665,0.0,8.5915,8.623,8.623,8.623,8.623,8.623,8.56,8.56,8.497,8.375,8.315,8.315,8.315,8.256,8.256,8.375,8.436,8.497,8.56,8.623,8.623,8.623,8.819,8.753,8.753,8.623,8.56,8.375,8.375,8.198,8.084,7.973,7.709,6.888,0.0,0.0,6.6385000000000005,6.5352500000000004,6.432,6.1845,6.00275,5.821,5.543,5.56825,5.735,5.316,5.244,5.244,5.244,5.244,5.268,5.268,5.268,5.22,5.174,5.34,5.244,5.22,5.106,5.018,4.933,4.851,4.83,4.791,4.732,4.657,4.601,4.583,4.583,4.583,4.565,4.53,0.0
6.361,6.361,6.327,6.327,6.259,6.259,6.259,6.259,6.259,6.259,6.259,6.259,6.327,6.327,6.327,6.361,6.361,6.361,6.361,6.396,6.396,6.432,6.432,6.467,6.467,6.504,6.504,6.504,6.54,6.54,6.54,6.577,6.577,6.577,6.577,6.614,6.614,6.614,6.614,6.614,6.652,6.652,6.69,6.69,6.69,6.69,6.729,6.729,6.729,6.729,6.729,6.729,6.729,6.729,6.729,6.729,6.729,6.729,6.729,6.729,6.729,6.729,6.729,6.729,6.729,6.69,6.69,6.69,6.54,6.259,0.0,0.0,5.395,0.0,0.0,0.0,4.328,4.264,4.203,4.085,3.987,3.987,3.987,3.973,3.946,3.92,3.906,3.906,3.88,3.868,3.868,3.868,3.868,3.868,3.868,3.868,3.868,3.88,3.893,3.906,3.906,3.92,3.92,3.933,3.946,3.973,3.987,4.014,4.014,4.014,4.028,4.014,3.987,3.92,3.868,3.842,3.78,3.731,3.661,3.582,3.538,3.528,3.517,3.517,3.517,3.528,3.538,3.56,3.593,3.649,3.672,3.707,3.743,3.767,3.792,3.804,3.817,3.817,3.842,3.855,3.868,3.88,3.92,3.946,4.014,4.07,4.128,4.203,4.226249999999999,4.249,4.296,4.36,4.46,4.583,4.732,4.83,4.9615,5.04,5.316,5.36525,5.491,5.597,5.707,5.909,6.032,6.095,6.127,6.127,6.127,6.095,6.032,6.001,5.939,5.85,5.821,5.821,5.792,5.792,5.792,5.792,5.821,5.821,5.85,5.85,5.909,5.939,6.001,6.032,6.095,6.095,6.127,6.127,6.095,6.095,6.095,6.127,6.127,6.127,6.095,6.032,6.032,6.001,5.939,5.909,5.821,5.821,5.792,5.763,5.735,5.735,5.707,5.707,5.707,5.707,5.679,5.679,5.679,5.735,5.707,5.707,5.707,5.707,5.707,5.707,5.707,5.735,5.735,5.763,5.821,5.85,5.85,5.939,6.001,6.032,6.095,6.127,6.127,6.159,6.259,6.361,6.467,6.54,6.577,6.652,6.6905,6.729,6.808,6.929,7.098,7.231,7.415,7.659,7.813,7.973,8.084,8.141,8.256,8.315,8.375,8.436,8.436,8.436,8.315,8.256,8.198,8.198,8.084,8.028,7.973,7.866,7.813,7.761,7.761,7.709,7.659,7.559,7.511,7.511,7.511,7.511,7.511,7.511,7.511,7.511,7.659,7.761,7.813,7.919,7.973,8.028,8.084,8.141,8.198,8.256,8.315,8.375,8.497,8.623,8.819,9.024,9.313,9.783,10.036,10.212,10.394,10.583,10.583,10.68,10.68,10.68,10.68,10.68,10.583,10.583,10.488,10.394,10.212,10.212,10.123,10.036,10.036,9.95,9.95,9.95,10.036,10.212,10.212,10.302,10.302,10.394,10.394,10.583,10.68,10.88,11.087,11.526,11.879,12.254,12.935,13.381,13.536,13.696,13.696,13.696,13.859,13.859,13.859,13.696,13.696,0.0,0.0,0.0,0.0,0.0,0.0,0.0,0.0,0.0,0.0,0.0,0.0,0.0,0.0,0.0,0.0,5.244,5.22,5.244,5.174,5.174,5.106,5.084,5.04,5.018,4.996,4.996,4.975,4.954,4.933,4.933,4.912,4.912,4.912,4.912,4.912,4.891,4.891,4.912,4.912,4.912,4.912,4.933,4.996,5.244,5.517,0.0,0.0,0.0,6.614,7.231,8.084,8.198,8.315,8.315,8.256,8.256,8.256,8.256,8.198,8.141,8.141,8.141,8.084,8.141,8.198,8.198,8.256,8.375,8.497,8.623,8.819,8.955,9.024,9.166,9.239,9.464,9.542,9.783,9.95,10.036,10.036,10.123,10.036,10.036,9.95,9.865,9.783,9.542,9.313,9.313,9.166,9.024,8.819,8.623,8.56,8.436,8.375,8.315,8.315,8.256,8.315,8.256,8.256,8.256,8.198,8.198,8.141,8.084,8.028,8.028,8.028,8.028,8.084,8.084,8.141,8.198,8.256,8.315,8.436,8.498000000000001,8.56,8.623,8.623,8.623,8.623,8.623,0.0,0.0,0.0,0.0,0.0,0.0,0.0,0.0,0.0,8.028,8.028,8.028,8.028,8.028,8.028,8.084,8.198,8.198,8.198,8.198,8.084,7.973,7.973,7.709,6.888,6.69,0.0,0.0,0.0,0.0,5.909,5.975125,5.838531250000001,5.679,5.563187500000001,5.465,5.316,5.174,5.084,5.018,4.975,4.975,4.975,4.975,4.996,5.04,5.018,4.996,4.996,4.954,4.954,4.912,4.891,4.81,4.771,4.713,4.657,4.601,4.53,4.477,4.426,4.41,4.426,4.426,4.512,0.0,0.0
6.396,6.396,6.396,6.361,6.327,6.327,6.327,6.259,6.259,6.259,6.259,6.259,6.327,6.327,6.361,6.361,6.361,6.396,6.396,6.396,6.396,6.432,6.432,6.467,6.504,6.504,6.504,6.54,6.54,6.54,6.577,6.577,6.577,6.614,6.614,6.614,6.614,6.614,6.652,6.652,6.652,6.652,6.69,6.69,6.69,6.69,6.729,6.729,6.729,6.729,6.729,6.729,6.729,6.729,6.729,6.729,6.729,6.729,6.729,6.729,6.729,6.729,6.729,6.69,6.69,6.652,6.652,6.54,6.259,0.0,0.0,0.0,4.851,4.477,0.0,0.0,4.218,4.158,4.114,4.056,4.014,4.014,4.014,3.987,3.946,3.946,3.92,3.92,3.893,3.88,3.868,3.868,3.868,3.88,3.88,3.893,3.893,3.906,3.92,3.933,3.92,3.933,3.933,3.946,3.973,3.973,3.987,3.987,3.987,3.987,4.014,4.014,3.973,3.92,3.868,3.855,3.792,3.743,3.672,3.615,3.56,3.549,3.528,3.528,3.538,3.538,3.549,3.582,3.615,3.649,3.672,3.731,3.743,3.755,3.78,3.804,3.804,3.817,3.829,3.842,3.855,3.868,3.88,3.92,3.946,3.987,4.028,4.085,4.173,4.218,4.2415,4.264,4.312,4.344,4.426,4.601,4.732,4.8115000000000006,4.94775,5.084,5.34,5.425,5.543,5.651,5.735,5.85,5.939,6.032,6.032,6.001,5.909,5.821,5.821,5.792,5.792,5.763,5.763,5.763,5.763,5.7775,5.792,5.85,5.85,5.909,5.939,6.001,6.001,6.032,6.095,6.127,6.127,6.127,6.127,6.127,6.159,6.159,6.159,6.159,6.159,6.127,6.095,6.032,6.001,5.909,5.85,5.821,5.792,5.763,5.763,5.735,5.707,5.707,5.707,5.707,5.707,5.707,5.707,5.735,5.735,5.735,5.707,5.735,5.735,5.707,5.735,5.735,5.763,5.792,5.821,5.85,5.909,6.001,6.001,6.032,6.095,6.095,6.127,6.159,6.225,6.327,6.396,6.467,6.54,6.577,6.652,6.69,6.71975,6.729,6.848,6.971,7.231,7.415,7.709,7.866,8.028,8.141,8.256,8.436,8.497,8.497,8.56,8.56,8.436,8.436,8.315,8.256,8.198,8.084,8.028,7.973,7.919,7.866,7.813,7.813,7.709,7.709,7.659,7.559,7.559,7.511,7.511,7.511,7.559,7.559,7.559,7.709,7.761,7.866,7.973,7.973,8.028,8.084,8.141,8.198,8.198,8.256,8.315,8.436,8.56,8.753,9.024,9.313,9.701,10.036,10.212,10.302,10.394,10.394,10.488,10.488,10.488,10.488,10.394,10.302,10.212,10.036,9.701,9.464,9.239,9.166,9.024,9.024,9.024,9.166,9.239,9.542,9.701,9.783,9.95,10.036,10.212,10.302,10.488,10.68,10.88,11.087,11.526,12.254,12.518,12.518,13.229,13.536,13.536,13.536,13.696,13.696,13.859,13.696,0.0,0.0,0.0,0.0,0.0,0.0,0.0,0.0,0.0,0.0,0.0,0.0,0.0,0.0,0.0,0.0,5.268,5.22,5.22,5.174,5.151,5.106,5.084,5.04,5.018,5.018,4.996,4.975,4.975,4.954,4.933,4.933,4.912,4.912,4.912,4.912,4.891,4.891,4.891,4.912,4.912,4.912,4.912,4.912,4.954,5.106,5.34,0.0,0.0,0.0,6.327,6.69,7.415,7.866,8.028,8.084,8.141,8.141,8.141,8.198,8.198,8.141,8.141,8.141,8.141,8.198,8.198,8.256,8.256,8.375,8.497,8.623,8.819,8.955,9.024,9.166,9.239,9.313,9.464,9.542,9.701,9.783,9.783,9.783,9.783,9.701,9.464,9.313,9.239,9.024,8.955,8.819,8.753,8.623,8.56,8.436,8.315,8.256,8.256,8.256,8.256,8.198,8.198,8.198,8.198,8.141,8.084,8.084,8.028,7.973,7.973,7.866,7.919,7.973,7.973,8.028,8.084,8.141,8.256,8.256,8.375,8.436,8.56,8.623,8.623,8.753,8.623,8.623,0.0,0.0,0.0,0.0,0.0,0.0,0.0,0.0,0.0,7.098,7.186,7.186,7.231,7.231,7.231,7.415,7.659,7.709,7.659,7.511,7.368,7.098,6.729,6.614,6.396,0.0,0.0,0.0,5.597,5.543,5.491,5.415,5.268,5.244,5.106,5.018,4.933,4.912,4.891,4.891,4.851,4.851,4.871,4.891,4.891,4.912,4.891,4.891,4.891,4.871,4.851,4.851,4.83,4.752,4.694,4.601,4.565,4.512,4.46,4.41,4.376,4.376,4.376,4.393,0.0,0.0,0.0
6.467,6.467,6.432,6.396,6.396,6.361,6.327,6.327,6.327,6.327,6.327,6.327,6.361,6.361,6.361,6.396,6.396,6.396,6.396,6.396,6.432,6.432,6.467,6.467,6.504,6.504,6.54,6.54,6.54,6.577,6.577,6.577,6.614,6.614,6.614,6.614,6.614,6.614,6.652,6.652,6.652,6.652,6.69,6.69,6.69,6.69,6.69,6.729,6.729,6.729,6.729,6.729,6.729,6.729,6.729,6.729,6.729,6.729,6.729,6.729,6.729,6.729,6.729,6.69,6.69,6.577,6.577,6.396,0.0,0.0,0.0,4.41,4.312,4.249,0.0,0.0,4.014,4.014,4.014,4.028,4.028,4.028,4.028,4.028,4.014,3.987,3.973,3.946,3.92,3.906,3.893,3.893,3.893,3.906,3.906,3.92,3.92,3.933,3.933,3.946,3.946,3.946,3.946,3.946,3.946,3.973,3.973,3.987,3.973,3.973,3.987,3.973,3.946,3.906,3.868,3.855,3.804,3.767,3.707,3.649,3.593,3.56,3.549,3.549,3.549,3.549,3.56,3.593,3.615,3.661,3.672,3.731,3.743,3.755,3.78,3.792,3.804,3.804,3.817,3.829,3.842,3.855,3.868,3.893,3.92,3.946,3.987,4.028,4.07,4.128,4.188,4.233,4.264,4.296,4.32875,4.344,4.426,4.583,4.678875,0.0,0.0,5.22,5.465,5.532,5.597,5.679,5.792,5.763,5.909,5.85,5.821,5.792,5.763,5.763,5.763,5.735,5.735,5.735,5.763,5.788375,5.821,5.85,5.85,5.939,6.001,6.001,6.032,6.032,6.095,6.095,6.127,6.127,6.127,6.127,6.127,6.159,6.159,6.159,6.127,6.095,6.095,6.032,6.001,5.909,5.85,5.821,5.792,5.763,5.763,5.735,5.735,5.735,5.707,5.707,5.707,5.735,5.735,5.735,5.735,5.735,5.735,5.763,5.763,5.763,5.763,5.792,5.821,5.821,5.85,5.909,5.939,6.001,6.032,6.032,6.095,6.095,6.127,6.127,6.225,6.259,6.327,6.396,6.467,6.54,6.577,6.614,6.652,6.729,6.76875,6.808,6.929,7.186,7.415,7.761,7.973,8.084,8.256,8.497,8.56,8.623,8.623,8.623,8.623,8.56,8.436,8.315,8.256,8.198,8.084,8.028,7.973,7.919,7.919,7.919,7.866,7.761,7.709,7.709,7.659,7.559,7.559,7.511,7.511,7.511,7.511,7.659,7.709,7.813,7.866,7.919,7.973,8.028,8.084,8.084,8.141,8.198,8.198,8.256,8.375,8.497,8.623,8.955,9.239,9.542,9.865,10.123,10.123,10.212,10.302,10.302,10.302,10.212,10.036,9.783,9.464,9.166,8.623,8.497,8.315,8.315,8.256,8.315,8.315,8.436,8.497,8.753,8.955,9.166,9.313,9.542,9.865,10.123,10.302,10.488,10.68,10.88,11.194,11.641,12.254,12.254,12.793,12.935,13.229,13.381,13.536,13.696,0.0,0.0,0.0,0.0,0.0,0.0,0.0,0.0,0.0,0.0,0.0,0.0,0.0,0.0,0.0,0.0,0.0,0.0,5.174,5.174,5.151,5.151,5.106,5.084,5.04,5.04,5.018,4.996,4.996,4.975,4.954,4.954,4.933,4.912,4.912,4.912,4.912,4.912,4.912,4.912,4.912,4.912,4.912,4.912,4.912,4.912,4.954,5.04,5.22,0.0,0.0,5.909,6.135,6.361,6.69,6.971,7.368,7.559,7.709,7.659,7.559,7.659,7.709,7.761,7.813,7.866,7.919,8.028,8.141,8.256,8.375,8.497,8.623,8.753,8.955,9.024,9.166,9.166,9.166,9.239,9.313,9.313,9.313,9.464,9.313,9.313,9.239,9.166,8.955,8.819,8.623,8.56,8.497,8.497,8.436,8.375,8.256,8.256,8.256,8.198,8.198,8.198,8.141,8.141,8.084,8.084,8.028,8.028,7.973,7.973,7.919,7.813,7.709,7.709,7.709,7.761,7.866,7.973,8.028,8.084,8.198,8.256,8.315,8.436,8.497,8.56,8.623,8.623,0.0,0.0,0.0,0.0,0.0,0.0,0.0,0.0,0.0,0.0,0.0,0.0,6.5035,6.54025,6.577,6.614,6.614,6.69,6.729,6.768,6.729,6.614,6.54,6.467,6.225,6.0920000000000005,5.918,5.7044999999999995,5.491,5.244,5.151,5.04,5.018,4.975,4.975,4.912,4.912,4.891,4.851,4.83,4.83,4.83,4.81,4.81,4.81,4.81,4.81,4.83,4.83,4.81,4.81,4.81,4.81,4.771,4.713,4.657,4.583,4.53,4.477,4.46,4.393,4.376,4.344,4.344,4.344,4.36,0.0,0.0,0.0
6.54,6.504,6.467,6.467,6.432,6.396,6.361,6.361,6.327,6.327,6.327,6.361,6.361,6.396,6.396,6.396,6.396,6.396,6.396,6.396,6.432,6.432,6.467,6.467,6.504,6.54,6.54,6.54,6.54,6.577,6.577,6.577,6.614,6.614,6.614,6.614,6.614,6.652,6.652,6.652,6.652,6.652,6.69,6.69,6.69,6.69,6.69,6.69,6.69,6.69,6.69,6.729,6.729,6.729,6.729,6.729,6.729,6.729,6.729,6.729,6.729,6.729,6.69,6.69,6.614,6.54,6.54,6.127,0.0,0.0,4.328,4.264,4.203,4.173,4.114,4.07,4.056,4.056,4.056,4.07,4.07,4.07,4.07,4.085,4.07,4.07,4.028,4.014,3.973,3.946,3.933,3.933,3.933,3.933,3.946,3.946,3.973,3.973,3.973,3.987,3.987,3.987,3.973,3.946,3.946,3.973,3.973,3.973,3.973,3.946,3.973,3.946,3.933,3.906,3.868,3.855,3.804,3.78,3.743,3.672,3.627,3.593,3.582,3.56,3.56,3.56,3.582,3.593,3.627,3.661,3.696,3.731,3.743,3.755,3.767,3.792,3.804,3.804,3.817,3.829,3.842,3.855,3.868,3.88,3.906,3.92,3.946,3.987,4.028,4.07,4.085,4.128,4.158,4.188,4.249,4.28,4.328,4.40025,4.41,0.0,0.0,4.84,5.106,5.415,5.389,5.57,5.57,5.679,5.821,5.821,5.792,5.763,5.763,5.763,5.763,5.735,5.735,5.763,5.770250000000001,5.792,5.821,5.909,5.909,5.939,6.001,6.001,6.032,6.032,6.032,6.032,6.095,6.095,6.095,6.095,6.095,6.127,6.127,6.127,6.127,6.127,6.095,6.095,6.001,5.939,5.909,5.85,5.821,5.792,5.763,5.763,5.763,5.763,5.763,5.763,5.763,5.763,5.763,5.792,5.792,5.792,5.792,5.792,5.792,5.792,5.821,5.821,5.85,5.85,5.909,5.939,6.001,6.001,6.032,6.032,6.032,6.095,6.127,6.127,6.159,6.225,6.259,6.327,6.396,6.432,6.504,6.54,6.577,6.614,6.69,6.729500000000001,6.768,6.929,7.186,7.559,7.973,8.084,8.315,8.623,8.753,8.819,8.819,8.955,8.955,8.753,8.56,8.436,8.315,8.256,8.198,8.084,8.084,8.028,8.028,8.028,8.028,7.973,7.866,7.761,7.709,7.709,7.659,7.511,7.415,7.511,7.559,7.559,7.659,7.709,7.813,7.866,7.973,8.028,8.028,8.084,8.084,8.084,8.141,8.198,8.256,8.256,8.436,8.56,8.819,9.166,9.313,9.542,9.783,9.865,9.95,9.865,9.783,9.3545,9.116375000000001,8.819,8.56,8.256,8.141,8.028,7.973,7.973,7.973,7.973,8.028,8.028,8.141,8.256,8.315,8.497,8.753,9.024,9.239,9.783,10.123,10.302,10.491,10.68,11.087,11.641,12.001,12.384,12.518,12.935,13.229,13.381,13.536,13.536,0.0,0.0,0.0,0.0,0.0,0.0,0.0,0.0,0.0,0.0,0.0,0.0,0.0,0.0,0.0,0.0,0.0,0.0,5.140000000000001,5.151,5.106,5.106,5.084,5.04,5.04,5.018,4.996,4.996,4.996,4.975,4.975,4.954,4.933,4.933,4.933,4.912,4.912,4.912,4.912,4.912,4.912,4.912,4.912,4.912,4.912,4.912,4.933,4.996,5.084,5.316,0.0,0.0,0.0,0.0,6.361,6.614,6.729,6.848,6.888,6.848,6.768,6.827999999999999,6.888,6.929,6.971,0.0,0.0,0.0,0.0,8.436,8.497,8.623,8.819,8.955,8.955,8.955,9.024,9.024,9.024,9.024,9.024,9.166,9.024,9.024,8.955,8.819,8.819,8.56,8.497,8.315,8.256,8.256,8.198,8.198,8.198,8.198,8.141,8.141,8.084,8.084,8.084,8.084,8.084,8.028,8.028,7.973,7.973,7.919,7.866,7.761,7.659,7.415,7.368,7.415,7.415,7.511,7.761,7.866,7.973,8.028,8.084,8.198,8.315,8.375,8.315,8.256,8.141,0.0,0.0,0.0,0.0,0.0,0.0,0.0,0.0,0.0,0.0,0.0,0.0,0.0,5.821,6.055125,6.1005,6.1325,6.1465,6.1985,6.218,6.2235,6.15925,6.095,5.85,5.763,5.74325,5.57,5.44,5.084,4.975,4.912,4.871,4.851,4.83,4.83,4.81,4.81,4.81,4.791,4.771,4.732,4.732,4.732,4.694,4.713,4.713,4.713,4.732,4.732,4.732,4.732,4.732,4.713,4.713,4.694,4.638,4.565,4.53,4.46,4.426,4.393,4.376,4.344,4.328,4.328,4.328,4.344,0.0,0.0,0.0
6.54,6.54,6.54,6.504,6.467,6.432,6.432,6.396,6.361,6.361,6.361,6.396,6.396,6.396,6.396,6.396,6.432,6.432,6.432,6.432,6.432,6.432,6.467,6.504,6.504,6.54,6.54,6.54,6.54,6.577,6.577,6.614,6.614,6.614,6.614,6.614,6.614,6.652,6.652,6.652,6.652,6.652,6.69,6.69,6.69,6.69,6.69,6.69,6.69,6.69,6.69,6.729,6.729,6.729,6.729,6.729,6.729,6.729,6.729,6.729,6.729,6.729,6.69,6.69,6.614,6.54,6.504,5.798,5.018,4.393,4.264,4.218,4.158,4.128,4.114,4.114,4.085,4.07,4.085,4.114,4.128,4.128,4.158,4.158,4.158,4.158,4.128,4.114,4.056,4.028,4.014,3.987,3.987,3.987,4.014,4.028,4.014,4.014,4.014,4.014,4.014,3.987,3.973,3.973,3.946,3.946,3.946,3.946,3.933,3.933,3.933,3.933,3.92,3.893,3.868,3.855,3.817,3.792,3.755,3.707,3.661,3.627,3.593,3.582,3.593,3.593,3.593,3.615,3.649,3.672,3.696,3.731,3.743,3.755,3.767,3.78,3.804,3.804,3.817,3.817,3.829,3.855,3.868,3.88,3.893,3.92,3.933,3.946,3.973,4.014,4.028,4.056,4.07,4.114,4.158,4.188,4.233,4.28,4.328,4.394,4.46,4.46,4.713,0.0,0.0,5.491,5.557499999999999,5.624,5.792,5.792,5.792,5.763,5.763,5.763,5.735,5.707,5.707,5.763,5.763,5.792,5.821,5.909,5.909,5.909,5.939,5.939,5.939,5.939,5.939,5.939,5.939,5.939,6.001,6.001,6.001,6.032,6.032,6.032,6.032,6.032,6.032,6.032,6.032,6.001,5.909,5.909,5.85,5.821,5.792,5.792,5.792,5.763,5.792,5.792,5.792,5.792,5.821,5.821,5.821,5.821,5.821,5.85,5.85,5.85,5.909,5.909,5.939,5.939,6.001,6.001,6.001,6.001,6.032,6.032,6.032,6.095,6.095,6.095,6.127,6.159,6.159,6.225,6.259,6.327,6.361,6.432,6.504,6.54,6.577,6.652,6.729,6.829000000000001,6.929,7.368,7.761,8.028,8.256,8.623,8.819,8.955,9.024,9.024,8.955,8.753,8.56,8.436,8.315,8.270999999999999,8.198,8.141,8.084,8.028,7.973,8.028,7.973,7.973,7.866,7.761,7.761,7.709,7.559,7.511,7.415,7.368,7.415,7.511,7.559,7.659,7.709,7.761,7.866,7.919,7.973,7.973,8.028,8.028,8.028,8.084,8.141,8.198,8.198,8.256,8.375,8.497,8.623,8.819,8.819,8.819,8.955,8.819,8.623,8.497,8.256,8.141,0.0,7.7435,7.6195,7.564125,7.511,7.559,7.659,7.709,7.813,7.919,7.923,7.973,8.084,8.141,8.256,8.436,8.753,9.166,9.783,10.212,10.446,10.68,11.087,11.879,12.254,12.518,12.384,12.001,11.641,0.0,0.0,0.0,0.0,0.0,0.0,0.0,0.0,0.0,0.0,0.0,0.0,0.0,0.0,0.0,0.0,0.0,0.0,0.0,0.0,0.0,5.106,5.106,5.084,5.084,5.084,5.04,5.018,5.018,4.996,4.996,4.996,4.975,4.975,4.954,4.954,4.933,4.933,4.933,4.933,4.912,4.912,4.912,4.912,4.912,4.912,4.912,4.933,4.933,4.933,4.975,5.04,5.22,5.389,0.0,0.0,0.0,6.090999999999999,6.323,6.444,6.5035,0.0,0.0,0.0,0.0,0.0,0.0,0.0,0.0,0.0,0.0,0.0,0.0,0.0,0.0,0.0,0.0,8.256,8.436,8.56,8.753,8.819,8.819,8.819,8.819,8.753,8.623,8.56,8.497,8.375,8.256,8.198,8.141,8.084,8.028,8.028,8.028,8.028,8.028,8.028,8.028,7.973,7.973,7.973,7.973,7.973,7.919,7.866,7.813,7.709,7.559,7.415,7.186,6.929,6.808,6.69,6.69,6.768,6.808,6.888,6.971,7.15475,7.098,7.322,7.415,7.559,7.322,7.186,6.888,0.0,0.0,0.0,0.0,0.0,0.0,0.0,0.0,0.0,0.0,0.0,0.0,0.0,5.44,5.543,5.57,5.624,5.651,5.679,5.707,5.707,5.679,5.774125,5.69478125,5.57,5.517,5.415,5.084,4.954,4.912,4.871,4.83,4.81,4.791,4.771,4.771,4.752,4.713,4.694,4.694,4.638,4.638,4.638,4.638,4.601,4.601,4.601,4.638,4.638,4.657,4.657,4.657,4.657,4.657,4.657,4.638,4.583,4.53,4.477,4.426,4.393,4.376,4.344,4.328,4.328,4.312,4.312,4.328,0.0,0.0,0.0
6.577,6.54,6.54,6.504,6.504,6.467,6.432,6.432,6.396,6.396,6.396,6.396,6.396,6.396,6.396,6.396,6.432,6.432,6.432,6.432,6.432,6.467,6.467,6.504,6.504,6.54,6.54,6.54,6.577,6.577,6.577,6.614,6.614,6.614,6.614,6.652,6.652,6.652,6.69,6.69,6.652,6.69,6.69,6.69,6.69,6.69,6.69,6.69,6.69,6.69,6.69,6.69,6.729,6.729,6.729,6.729,6.729,6.729,6.729,6.729,6.729,6.729,6.69,6.69,6.614,6.54,6.467,5.543,4.954,4.36,4.249,4.203,4.158,4.158,4.158,4.128,4.114,4.114,4.158,4.188,4.188,4.203,4.218,4.203,4.203,4.203,4.188,4.173,4.158,4.128,4.114,4.085,4.085,4.085,4.085,4.085,4.085,4.07,4.07,4.056,4.028,4.014,3.987,3.973,3.946,3.933,3.933,3.933,3.92,3.92,3.906,3.906,3.893,3.868,3.868,3.842,3.817,3.792,3.767,3.731,3.696,3.661,3.627,3.615,3.615,3.615,3.615,3.627,3.661,3.672,3.707,3.731,3.755,3.755,3.767,3.78,3.792,3.804,3.817,3.817,3.829,3.855,3.855,3.868,3.893,3.906,3.92,3.933,3.946,3.973,4.014,4.014,4.028,4.07,4.114,4.128,4.188,4.188,4.233,4.264,4.344,4.4545,4.565,0.0,0.0,5.389,5.5283750000000005,5.597,5.763,5.821,5.792,5.821,5.792,5.792,5.792,5.735,5.735,5.735,5.792,5.8065,5.821,5.85,5.85,5.909,5.85,5.85,5.85,5.85,5.85,5.85,5.821,5.85,5.85,5.909,5.909,5.939,5.939,5.939,6.001,6.032,6.032,6.032,6.032,6.001,5.939,5.939,5.909,5.85,5.85,5.821,5.821,5.821,5.821,5.821,5.85,5.85,5.85,5.85,5.909,5.85,5.909,5.909,5.939,5.939,5.939,6.001,6.001,6.001,6.001,6.032,6.001,6.032,6.032,6.032,6.032,6.032,6.095,6.095,6.095,6.127,6.127,6.159,6.225,6.225,6.259,6.327,6.396,6.467,6.54,6.577,6.614,6.729,6.85,6.971,7.415,7.866,8.141,8.497,8.753,8.819,9.024,9.024,8.819,8.753,8.56,8.497,8.436,8.315,8.228,8.141,8.028,7.973,7.973,7.973,7.973,7.866,7.813,7.709,7.659,7.559,7.511,7.415,7.322,7.322,7.322,7.368,7.415,7.511,7.559,7.559,7.709,7.761,7.813,7.866,7.866,7.919,7.973,7.973,7.973,7.973,8.028,8.028,8.084,8.141,8.141,8.198,8.198,8.198,8.198,8.141,8.084,8.028,7.866,7.598,7.4145,7.231,7.098,7.098,7.098,7.186,7.231,7.322,7.415,7.559,7.659,7.761,7.919,7.949249999999999,8.028,8.084,8.256,8.497,8.955,9.542,9.968,10.394,0.0,0.0,0.0,0.0,0.0,0.0,0.0,0.0,0.0,0.0,0.0,0.0,0.0,0.0,0.0,0.0,0.0,0.0,0.0,0.0,0.0,0.0,0.0,0.0,0.0,0.0,0.0,5.106,5.084,5.084,5.084,5.04,5.04,5.018,5.018,4.996,4.996,4.996,4.996,4.975,4.975,4.975,4.975,4.954,4.954,4.954,4.954,4.954,4.954,4.954,4.933,4.933,4.933,4.954,4.954,4.933,4.954,4.996,5.04,5.151,5.268,5.44,5.543,5.651,5.821,6.032,6.159,6.159,0.0,0.0,0.0,0.0,0.0,0.0,0.0,0.0,0.0,0.0,0.0,0.0,0.0,0.0,0.0,0.0,0.0,0.0,8.084,8.198,8.315,8.497,8.56,8.56,8.56,8.497,8.436,8.315,8.256,8.141,8.028,7.973,7.919,7.813,7.813,7.813,7.761,7.761,7.813,7.761,7.761,7.761,7.761,7.761,7.709,7.559,7.368,7.231,7.055,6.888,6.729,6.54,6.467,6.361,6.361,6.327,6.396,6.467,6.504,6.54,6.577,6.652,6.69,6.69,6.69,6.577,6.504,0.0,0.0,0.0,0.0,0.0,0.0,0.0,0.0,0.0,0.0,0.0,0.0,4.912,4.975,5.04,5.151,5.244,5.316,5.389,5.389,5.415,5.44,5.44,5.389,5.34,5.244,5.04,4.954,4.912,4.871,4.83,4.81,4.791,4.752,4.732,4.713,4.713,4.694,4.601,4.601,4.583,4.53,4.53,4.512,4.477,4.477,4.512,4.512,4.53,4.565,4.583,4.583,4.601,4.601,4.601,4.601,4.583,4.565,4.512,4.426,4.41,4.376,4.36,4.328,4.312,4.312,4.312,4.312,4.32,0.0,0.0,0.0
6.577,6.577,6.54,6.54,6.54,6.504,6.467,6.432,6.432,6.432,6.396,6.432,6.432,6.432,6.432,6.432,6.432,6.432,6.432,6.432,6.432,6.432,6.467,6.504,6.504,6.54,6.54,6.54,6.577,6.577,6.577,6.614,6.614,6.614,6.614,6.652,6.652,6.69,6.69,6.69,6.69,6.69,6.69,6.69,6.69,6.69,6.69,6.69,6.69,6.69,6.69,6.69,6.729,6.729,6.729,6.729,6.729,6.729,6.729,6.729,6.729,6.729,6.69,6.652,6.54,6.432,6.327,5.415,4.912,4.376,4.264,4.218,4.188,4.188,4.173,4.158,4.158,4.158,4.188,4.218,4.218,4.233,4.233,4.233,4.233,4.233,4.218,4.203,4.203,4.203,4.188,4.173,4.173,4.158,4.158,4.158,4.128,4.128,4.085,4.085,4.056,4.028,3.987,3.973,3.946,3.933,3.92,3.906,3.893,3.893,3.88,3.88,3.868,3.868,3.855,3.842,3.817,3.792,3.767,3.743,3.707,3.661,3.649,3.627,3.627,3.627,3.627,3.649,3.672,3.696,3.731,3.743,3.755,3.767,3.78,3.792,3.804,3.804,3.817,3.817,3.829,3.842,3.855,3.868,3.88,3.906,3.906,3.92,3.933,3.973,3.973,3.987,4.014,4.056,4.056,4.085,4.114,4.173,4.203,4.233,4.312,4.417375000000001,4.477,0.0,0.0,5.268,5.57,5.6665,5.763,5.85,5.85,5.909,5.85,5.85,5.85,5.792,5.792,5.792,5.792,5.821,5.821,5.821,5.821,5.821,5.792,5.763,5.763,5.763,5.763,5.763,5.792,5.792,5.792,5.821,5.85,5.85,5.909,5.909,5.939,6.001,6.001,6.032,6.032,6.032,6.032,6.001,6.001,5.939,5.939,5.909,5.909,5.909,5.909,5.909,5.939,5.939,5.939,5.939,5.939,5.939,6.001,6.001,6.032,6.032,6.095,6.095,6.095,6.095,6.095,6.095,6.095,6.095,6.032,6.032,6.032,6.032,6.032,6.032,6.032,6.095,6.095,6.127,6.127,6.159,6.225,6.259,6.327,6.396,6.504,6.54,6.577,6.69,0.0,0.0,0.0,0.0,8.028,8.315,8.56,0.0,0.0,0.0,0.0,0.0,0.0,0.0,0.0,0.0,0.0,0.0,7.947,7.973,7.866,7.973,7.866,7.761,7.709,7.559,7.511,7.415,7.368,7.231,7.231,7.186,7.231,7.231,7.231,7.322,7.368,7.415,7.559,7.659,7.659,7.709,7.761,7.761,7.761,7.761,7.866,7.813,7.866,7.866,7.919,7.919,7.973,7.973,7.919,7.919,7.866,7.813,7.559,0.0,7.337,7.055,6.929,6.888,6.888,6.848,6.848,6.888,6.929,6.971,7.055,7.098,7.186,7.368,7.559,7.709,7.866,7.973,8.084,8.2025,8.256,0.0,0.0,0.0,0.0,0.0,0.0,0.0,0.0,0.0,0.0,0.0,0.0,0.0,0.0,0.0,0.0,0.0,0.0,0.0,0.0,0.0,0.0,0.0,0.0,0.0,0.0,0.0,0.0,0.0,0.0,5.084,5.04,5.04,5.04,5.018,5.018,5.018,5.018,4.996,4.996,4.996,4.996,4.996,4.996,4.996,4.996,4.996,4.975,4.975,4.975,4.996,4.996,4.975,4.975,4.975,4.975,4.975,4.975,4.975,4.975,5.018,5.04,5.151,5.244,5.34,5.465,5.57,5.651,5.763,5.763,5.792,5.735,5.679,5.651,5.624,5.57,5.543,0.0,0.0,0.0,0.0,0.0,0.0,0.0,0.0,0.0,0.0,0.0,0.0,7.098,7.511,7.813,7.973,8.084,8.198,8.198,8.198,8.198,8.084,8.028,7.919,7.761,7.511,7.415,7.368,7.322,7.368,7.415,7.415,7.415,7.415,7.415,7.368,7.322,7.322,7.186,7.055,6.888,6.729,6.69,6.432,6.259,6.032,5.821,5.792,5.735,5.763,5.821,5.909,5.909,6.001,6.095,6.159,6.159,0.0,0.0,0.0,0.0,0.0,0.0,0.0,0.0,0.0,4.83,4.81,4.81,4.81,4.81,4.81,4.83,4.851,4.871,4.891,4.912,4.933,4.954,4.975,4.975,5.018,5.018,5.018,4.996,4.954,4.912,4.891,4.871,4.83,4.81,4.771,4.732,4.713,4.657,4.657,4.638,4.583,4.565,4.53,4.512,4.46,4.46,4.426,4.41,4.41,4.41,4.426,4.426,4.46,4.477,4.477,4.512,4.53,4.53,4.565,4.565,4.53,4.512,4.46,4.41,4.393,4.36,4.344,4.328,4.312,4.296,4.312,4.296,4.312,0.0,0.0,0.0
6.577,6.577,6.54,6.54,6.54,6.504,6.504,6.467,6.467,6.432,6.432,6.432,6.432,6.432,6.432,6.432,6.432,6.432,6.432,6.432,6.432,6.432,6.467,6.467,6.504,6.504,6.54,6.54,6.577,6.577,6.577,6.614,6.614,6.614,6.652,6.652,6.69,6.69,6.69,6.69,6.69,6.69,6.69,6.69,6.69,6.69,6.69,6.69,6.69,6.69,6.69,6.69,6.69,6.729,6.729,6.729,6.729,6.729,6.729,6.729,6.69,6.69,6.614,6.577,6.504,6.361,6.095,5.268,4.822,4.376,4.28,4.233,4.203,4.203,4.188,4.173,4.158,4.173,4.188,4.233,4.233,4.249,4.249,4.249,4.249,4.249,4.249,4.233,4.233,4.233,4.218,4.218,4.218,4.203,4.188,4.188,4.173,4.158,4.114,4.114,4.07,4.028,4.014,3.973,3.946,3.92,3.906,3.893,3.88,3.868,3.868,3.868,3.855,3.855,3.842,3.817,3.804,3.792,3.767,3.743,3.707,3.696,3.661,3.649,3.649,3.649,3.649,3.661,3.672,3.707,3.731,3.755,3.767,3.78,3.792,3.792,3.804,3.804,3.817,3.817,3.829,3.842,3.855,3.868,3.88,3.893,3.906,3.92,3.92,3.933,3.946,3.973,3.987,4.014,4.056,4.085,4.114,4.158,4.173,4.218,4.296,4.426,0.0,0.0,0.0,5.174,5.543,5.6675,5.792,5.939,6.001,5.939,6.001,6.001,5.939,5.909,5.909,5.85,5.85,5.821,5.821,5.821,5.821,5.792,5.763,5.763,5.735,5.735,5.735,5.735,5.735,5.763,5.792,5.792,5.792,5.821,5.85,5.85,5.909,5.939,6.001,6.032,6.095,6.032,6.032,6.032,6.032,6.032,6.001,6.001,5.939,5.939,6.001,6.001,6.001,6.001,6.001,6.001,6.032,6.032,6.095,6.095,6.127,6.127,6.159,6.159,6.159,6.159,6.127,6.127,6.095,6.095,6.095,6.032,6.032,6.001,6.001,6.032,6.032,6.032,6.032,6.127,6.127,6.159,6.225,6.259,6.327,6.396,6.467,6.54,6.577,6.614,0.0,0.0,0.0,0.0,0.0,8.198,8.375,0.0,0.0,0.0,0.0,0.0,0.0,0.0,0.0,0.0,0.0,0.0,7.866,7.761,7.761,7.761,7.709,7.559,7.415,7.368,7.322,7.322,7.098,7.055,7.055,7.055,7.055,7.055,7.098,7.098,7.098,7.231,7.2917499999999995,7.322,7.368,7.415,7.415,7.559,7.559,7.659,7.659,7.761,7.761,7.761,7.813,7.761,7.761,7.761,7.709,7.511,7.368,7.186,6.971,6.8895,6.808,6.729,6.69,6.69,6.69,6.69,6.69,6.69,6.729,6.729,6.768,6.848,6.888,6.971,7.098,7.322,7.368,7.559,7.761,7.973,0.0,0.0,0.0,0.0,0.0,0.0,0.0,0.0,0.0,0.0,0.0,0.0,0.0,0.0,0.0,0.0,0.0,0.0,0.0,0.0,0.0,0.0,0.0,0.0,0.0,0.0,0.0,0.0,0.0,0.0,5.04,5.04,5.04,5.018,5.018,4.996,5.018,4.996,4.996,5.018,5.018,5.018,5.018,5.018,5.018,5.018,5.018,5.018,5.018,5.018,5.018,5.04,5.04,5.018,5.018,4.996,4.996,4.996,4.996,4.996,5.018,5.04,5.084,5.151,5.174,5.268,5.389,5.491,5.57,5.624,5.651,5.624,5.597,5.57,5.543,5.465,5.34,5.22,0.0,0.0,0.0,0.0,0.0,0.0,0.0,0.0,0.0,0.0,0.0,6.504,6.614,6.848,7.055,7.2524999999999995,7.368,7.415,7.559,7.559,7.368,7.231,7.055,6.971,6.971,6.929,6.929,6.929,6.929,7.055,6.971,7.055,7.055,7.055,6.971,6.929,6.888,6.848,6.729,6.69,6.614,6.54,6.159,5.939,5.763,5.679,5.624,5.597,5.57,5.597,5.597,5.651,5.699999999999999,5.759,0.0,5.824999999999999,5.824999999999999,0.0,0.0,0.0,0.0,0.0,4.996,4.912,4.851,4.83,4.81,4.81,4.81,4.81,4.81,4.81,4.83,4.83,4.83,4.851,4.851,4.871,4.871,4.871,4.871,4.871,4.891,4.871,4.871,4.851,4.851,4.83,4.81,4.791,4.752,4.713,4.694,4.638,4.601,4.565,4.53,4.512,4.477,4.426,4.41,4.393,4.376,4.376,4.376,4.36,4.36,4.376,4.376,4.393,4.41,4.426,4.426,4.46,4.477,4.477,4.477,4.477,4.46,4.426,4.393,4.376,4.344,4.328,4.312,4.296,4.28,4.28,4.28,4.28,0.0,0.0,0.0
6.577,6.54,6.54,6.54,6.54,6.54,6.504,6.504,6.467,6.467,6.467,6.467,6.467,6.432,6.432,6.432,6.396,6.432,6.432,6.432,6.432,6.432,6.467,6.467,6.504,6.504,6.54,6.54,6.577,6.577,6.577,6.614,6.614,6.614,6.652,6.652,6.69,6.69,6.69,6.69,6.69,6.69,6.69,6.69,6.69,6.69,6.69,6.69,6.69,6.69,6.69,6.69,6.69,6.69,6.69,6.729,6.729,6.729,6.729,6.69,6.69,6.614,6.577,6.54,6.396,6.159,5.85,5.57,0.0,0.0,4.28,4.249,4.218,4.203,4.188,4.188,4.173,4.173,4.203,4.233,4.249,4.264,4.264,4.264,4.264,4.264,4.264,4.249,4.249,4.249,4.233,4.233,4.249,4.233,4.218,4.203,4.203,4.173,4.158,4.114,4.085,4.028,3.987,3.973,3.933,3.906,3.88,3.868,3.868,3.855,3.855,3.855,3.842,3.829,3.829,3.817,3.804,3.792,3.767,3.743,3.731,3.696,3.672,3.661,3.661,3.661,3.661,3.696,3.707,3.731,3.755,3.767,3.78,3.792,3.804,3.804,3.804,3.804,3.817,3.817,3.829,3.842,3.855,3.868,3.88,3.893,3.893,3.906,3.92,3.92,3.933,3.946,3.973,3.987,4.028,4.07,4.114,4.158,4.188,4.203,4.28,4.41,0.0,0.0,0.0,5.151,5.543,5.6675,5.792,6.032,6.095,6.095,6.095,6.127,6.095,6.001,5.939,5.939,5.909,5.85,5.821,5.792,5.792,5.763,5.763,5.707,5.679,5.679,5.679,5.679,5.679,5.707,5.735,5.763,5.792,5.792,5.821,5.821,5.821,5.909,5.939,6.032,6.032,6.032,6.095,6.095,6.095,6.032,6.032,6.032,6.032,6.032,6.032,6.032,6.032,6.032,6.032,6.095,6.095,6.095,6.127,6.159,6.159,6.159,6.225,6.259,6.225,6.225,6.225,6.159,6.127,6.095,6.095,6.032,6.032,6.001,6.001,6.001,6.032,6.032,6.095,6.095,6.127,6.159,6.225,6.259,6.361,6.432,6.467,6.54,6.577,6.614,6.729,0.0,0.0,0.0,0.0,0.0,0.0,0.0,0.0,0.0,0.0,0.0,0.0,0.0,0.0,0.0,0.0,0.0,0.0,7.4735,7.4948749999999995,7.559,7.511,7.368,7.322,7.186,7.055,6.971,6.929,6.888,6.848,6.848,6.848,6.848,6.888,6.888,6.888,6.971,7.055,7.098,7.186,7.231,7.2885,7.322,7.368,7.511,7.559,7.659,7.659,7.709,7.761,7.761,7.813,7.761,7.709,7.415,7.322,7.098,6.888,6.808,6.729,6.652,6.614,6.577,6.577,6.577,6.614,6.614,6.614,6.614,6.69,6.69,6.69,6.729,6.808,6.888,6.971,7.172499999999999,7.231,7.415,0.0,0.0,0.0,0.0,0.0,0.0,0.0,0.0,0.0,0.0,5.651,5.597,5.543,0.0,0.0,0.0,0.0,0.0,0.0,0.0,0.0,0.0,0.0,0.0,0.0,0.0,0.0,0.0,0.0,0.0,5.04,5.04,5.018,5.018,5.018,5.018,5.018,5.018,5.018,5.018,5.018,5.018,5.018,5.04,5.04,5.084,5.084,5.106,5.106,5.106,5.106,5.106,5.106,5.084,5.084,5.084,5.04,5.084,5.084,5.084,5.084,5.084,5.151,5.174,5.244,5.268,5.34,5.44,5.517,5.543,5.543,5.543,5.491,5.465,5.389,5.268,5.174,5.084,4.975,4.975,4.954,4.954,4.975,5.018,5.119,5.22,5.389,0.0,0.0,6.0105,0.0,0.0,6.432,6.614,6.614,6.69,6.69,6.69,6.652,6.652,6.614,6.614,6.652,6.652,6.69,6.69,6.729,6.729,6.768,6.808,6.768,6.729,6.729,6.69,6.652,6.577,6.54,6.467,6.095,5.909,5.735,5.651,5.597,5.543,5.44,5.415,5.389,5.389,5.44,5.465,5.491,5.517,5.504,5.491,5.491,5.34,5.22,5.084,4.975,4.912,4.891,4.851,4.83,4.81,4.81,4.81,4.81,4.81,4.81,4.81,4.81,4.81,4.83,4.83,4.851,4.851,4.851,4.851,4.851,4.851,4.851,4.851,4.83,4.83,4.81,4.791,4.771,4.752,4.713,4.657,4.601,4.583,4.53,4.512,4.477,4.46,4.41,4.376,4.36,4.344,4.344,4.328,4.328,4.328,4.328,4.344,4.344,4.344,4.36,4.376,4.393,4.41,4.41,4.426,4.426,4.426,4.41,4.393,4.36,4.36,4.328,4.312,4.296,4.296,4.28,4.28,4.28,4.28,0.0,0.0,0.0
6.54,6.54,6.54,6.54,6.54,6.54,6.504,6.504,6.504,6.467,6.467,6.467,6.467,6.432,6.432,6.396,6.396,6.396,6.432,6.396,6.396,6.432,6.432,6.467,6.467,6.504,6.54,6.54,6.54,6.577,6.577,6.577,6.614,6.614,6.652,6.652,6.652,6.69,6.69,6.69,6.69,6.69,6.69,6.69,6.69,6.69,6.69,6.69,6.69,6.69,6.69,6.69,6.69,6.69,6.69,6.69,6.729,6.729,6.69,6.69,6.614,6.577,6.54,6.432,6.159,5.939,5.491,5.283,0.0,0.0,4.296,4.249,4.233,4.218,4.203,4.188,4.188,4.188,4.218,4.249,4.264,4.28,4.28,4.28,4.28,4.28,4.28,4.28,4.28,4.264,4.264,4.264,4.249,4.249,4.233,4.233,4.218,4.188,4.158,4.114,4.07,4.028,3.987,3.946,3.92,3.893,3.868,3.855,3.855,3.842,3.829,3.829,3.829,3.817,3.804,3.804,3.804,3.78,3.767,3.755,3.731,3.707,3.696,3.672,3.672,3.672,3.696,3.707,3.731,3.743,3.767,3.78,3.804,3.804,3.804,3.804,3.804,3.817,3.817,3.817,3.829,3.842,3.855,3.868,3.868,3.88,3.893,3.906,3.92,3.92,3.933,3.946,3.973,3.987,4.028,4.07,4.114,4.158,4.173,4.188,4.28,4.41,4.5615000000000006,4.713,4.932,5.151,5.543,5.6675,5.792,6.127,6.127,6.159,6.225,6.159,6.127,6.095,6.032,6.001,5.939,5.909,5.821,5.792,5.763,5.763,5.707,5.679,5.679,5.679,5.679,5.679,5.707,5.707,5.735,5.735,5.763,5.792,5.792,5.821,5.85,5.909,5.939,6.032,6.032,6.095,6.095,6.095,6.095,6.095,6.095,6.095,6.032,6.095,6.095,6.095,6.095,6.127,6.127,6.127,6.127,6.127,6.159,6.225,6.225,6.259,6.259,6.259,6.259,6.225,6.225,6.159,6.127,6.095,6.095,6.032,6.032,6.001,6.001,6.032,6.032,6.032,6.095,6.127,6.127,6.159,6.259,6.327,6.396,6.467,6.504,6.577,6.577,6.652,6.729,6.808,6.8895,6.971,0.0,0.0,0.0,0.0,0.0,0.0,0.0,0.0,0.0,0.0,0.0,0.0,0.0,0.0,0.0,7.186,7.186,7.322,7.231,7.098,6.929,6.848,6.848,6.808,6.768,6.729,6.729,6.729,6.729,6.729,6.729,6.729,6.729,6.768,6.888,6.929,7.055,7.098,7.186,7.26525,7.322,7.415,7.511,7.659,7.709,7.761,7.813,7.813,7.866,7.866,7.813,7.511,7.368,7.098,6.929,6.768,6.729,6.652,6.614,6.577,6.577,6.577,6.577,6.577,6.577,6.614,6.614,6.652,6.69,6.69,6.729,6.768,6.848,6.929,7.055,7.098,0.0,0.0,0.0,0.0,0.0,5.543,0.0,0.0,0.0,5.491,5.491,5.491,5.491,5.491,5.465,0.0,0.0,0.0,0.0,0.0,0.0,0.0,0.0,0.0,0.0,0.0,0.0,0.0,0.0,0.0,5.084,5.04,5.04,5.04,5.018,5.018,5.018,5.018,5.018,5.04,5.04,5.084,5.084,5.106,5.106,5.151,5.151,5.174,5.174,5.174,5.174,5.174,5.174,5.151,5.151,5.106,5.106,5.106,5.106,5.106,5.151,5.151,5.22,5.244,5.316,5.34,5.415,5.465,5.543,5.543,5.543,5.543,5.491,5.44,5.34,5.268,5.174,5.04,4.975,4.954,4.933,4.912,4.933,4.954,5.018,5.151,5.223,5.268,5.415,5.517,0.0,0.0,5.987500000000001,0.0,6.1055,6.1435,0.0,0.0,0.0,0.0,0.0,0.0,6.327,6.396,6.467,6.54,6.577,6.577,6.577,6.614,6.614,6.577,6.54,6.54,6.432,6.159,6.001,5.821,5.707,5.651,5.57,5.465,5.389,5.268,5.174,5.151,5.151,5.151,5.174,5.174,5.151,5.106,5.106,5.04,5.018,4.954,4.912,4.891,4.851,4.851,4.83,4.83,4.81,4.81,4.81,4.81,4.81,4.81,4.81,4.81,4.81,4.81,4.81,4.83,4.83,4.83,4.83,4.83,4.83,4.83,4.81,4.81,4.81,4.791,4.771,4.752,4.713,4.694,4.638,4.601,4.565,4.53,4.477,4.46,4.426,4.41,4.376,4.36,4.344,4.328,4.328,4.328,4.328,4.312,4.312,4.328,4.328,4.328,4.344,4.344,4.344,4.36,4.376,4.376,4.393,4.393,4.376,4.36,4.344,4.328,4.328,4.312,4.28,4.28,4.28,4.264,4.264,0.0,0.0,0.0,0.0
6.54,6.54,6.54,6.54,6.54,6.54,6.504,6.504,6.504,6.467,6.467,6.467,6.432,6.432,6.432,6.396,6.396,6.396,6.396,6.396,6.396,6.396,6.432,6.432,6.467,6.504,6.54,6.54,6.54,6.577,6.577,6.577,6.614,6.614,6.614,6.652,6.652,6.652,6.69,6.69,6.69,6.69,6.69,6.69,6.69,6.69,6.69,6.69,6.69,6.69,6.69,6.69,6.69,6.69,6.69,6.69,6.729,6.729,6.729,6.652,6.577,6.54,6.432,6.225,6.001,5.763,5.389,4.996,4.711,4.426,4.312,4.264,4.249,4.233,4.218,4.188,4.188,4.203,4.233,4.264,4.28,4.28,4.296,4.312,4.296,4.296,4.296,4.28,4.28,4.28,4.28,4.264,4.249,4.249,4.233,4.218,4.203,4.173,4.128,4.085,4.056,4.014,3.973,3.933,3.906,3.868,3.855,3.855,3.829,3.829,3.817,3.817,3.817,3.804,3.804,3.792,3.78,3.767,3.767,3.755,3.743,3.731,3.707,3.696,3.707,3.707,3.707,3.743,3.755,3.767,3.792,3.804,3.804,3.817,3.817,3.817,3.817,3.817,3.817,3.817,3.829,3.829,3.855,3.855,3.868,3.88,3.893,3.906,3.92,3.92,3.933,3.946,3.973,3.987,4.028,4.07,4.085,4.128,4.188,4.203,4.28,4.376,4.507,4.638,4.861,5.084,5.465,5.608874999999999,5.679,6.032,6.127,6.259,6.259,6.327,6.225,6.127,6.095,6.095,6.001,5.85,5.821,5.763,5.735,5.735,5.707,5.679,5.679,5.651,5.679,5.679,5.707,5.707,5.735,5.792,5.792,5.821,5.85,5.85,5.909,5.939,6.001,6.032,6.095,6.095,6.127,6.127,6.127,6.127,6.095,6.095,6.095,6.095,6.095,6.095,6.127,6.127,6.127,6.127,6.127,6.159,6.159,6.225,6.225,6.259,6.259,6.259,6.259,6.225,6.159,6.159,6.095,6.095,6.032,6.032,6.032,6.001,6.032,6.032,6.032,6.095,6.095,6.127,6.159,6.259,6.327,6.361,6.432,6.504,6.54,6.577,6.614,6.652,6.729,6.808,6.8786249999999995,6.929,0.0,0.0,0.0,0.0,0.0,0.0,0.0,0.0,0.0,0.0,0.0,0.0,0.0,0.0,6.888,6.888,6.971,7.0075,6.929,6.848,6.848,6.768,6.729,6.729,6.69,6.652,6.652,6.614,6.614,6.614,6.614,6.614,6.652,6.69,6.729,6.808,6.888,6.971,7.098,7.231,7.2995,7.368,7.559,7.659,7.709,7.813,7.813,7.866,7.919,7.919,7.866,7.709,7.368,7.186,6.971,6.808,6.729,6.652,6.614,6.577,6.577,6.577,6.577,6.577,6.577,6.577,6.577,6.614,6.614,6.652,6.69,6.729,6.768,6.768,6.808,6.808,0.0,0.0,0.0,0.0,5.517,5.517,5.491,5.491,5.491,5.491,5.491,5.491,5.491,5.491,5.465,5.465,0.0,0.0,0.0,0.0,0.0,0.0,0.0,0.0,0.0,0.0,0.0,0.0,0.0,0.0,0.0,5.084,5.084,5.04,5.04,5.04,5.04,5.04,5.04,5.084,5.084,5.106,5.151,5.174,5.174,5.22,5.22,5.244,5.244,5.268,5.268,5.268,5.244,5.244,5.174,5.174,5.174,5.174,5.174,5.174,5.22,5.22,5.244,5.34,5.389,5.415,5.44,5.517,5.543,5.57,5.543,5.543,5.465,5.415,5.34,5.244,5.151,5.04,4.954,4.933,4.912,4.912,4.912,4.912,4.954,5.018,5.084,5.174,5.2242500000000005,5.268,5.389,5.465,5.543,5.57,5.597,5.597,0.0,0.0,0.0,0.0,0.0,0.0,5.792,5.909,5.939,6.095,6.127,6.225,6.259,6.259,6.259,6.259,6.159,5.939,5.821,5.735,5.651,5.597,5.543,5.44,5.316,5.174,5.018,4.975,4.954,4.933,4.933,4.912,4.912,4.912,4.891,4.891,4.871,4.851,4.851,4.851,4.83,4.83,4.81,4.81,4.81,4.81,4.81,4.81,4.81,4.81,4.791,4.791,4.791,4.791,4.791,4.791,4.791,4.81,4.81,4.81,4.791,4.791,4.791,4.791,4.771,4.771,4.752,4.732,4.713,4.694,4.657,4.601,4.583,4.565,4.512,4.477,4.46,4.41,4.393,4.36,4.344,4.328,4.328,4.312,4.312,4.312,4.312,4.312,4.312,4.312,4.312,4.328,4.328,4.328,4.328,4.344,4.344,4.344,4.36,4.36,4.36,4.344,4.328,4.328,4.312,4.296,4.28,4.264,4.264,4.264,4.249,0.0,0.0,0.0,0.0
6.54,6.54,6.54,6.54,6.54,6.504,6.504,6.504,6.467,6.467,6.467,6.432,6.432,6.432,6.396,6.396,6.396,6.396,6.396,6.361,6.361,6.396,6.396,6.432,6.467,6.467,6.54,6.54,6.54,6.577,6.577,6.577,6.614,6.614,6.614,6.652,6.652,6.652,6.69,6.69,6.69,6.69,6.69,6.69,6.69,6.69,6.69,6.69,6.69,6.69,6.69,6.69,6.69,6.69,6.69,6.69,6.69,6.69,6.69,6.614,6.54,6.432,6.225,6.032,5.792,5.491,5.2364999999999995,0.0,0.0,4.46,4.312,4.264,4.249,4.233,4.218,4.203,4.188,4.188,4.218,4.249,4.264,4.28,4.28,4.28,4.28,4.28,4.28,4.28,4.264,4.264,4.264,4.249,4.249,4.218,4.188,4.173,4.158,4.114,4.07,4.056,4.014,3.973,3.933,3.906,3.88,3.868,3.855,3.829,3.817,3.817,3.804,3.804,3.792,3.792,3.78,3.78,3.767,3.767,3.755,3.755,3.743,3.731,3.731,3.707,3.707,3.731,3.743,3.755,3.767,3.792,3.804,3.804,3.817,3.817,3.817,3.817,3.817,3.817,3.817,3.817,3.829,3.829,3.842,3.855,3.855,3.868,3.893,3.906,3.92,3.92,3.933,3.946,3.973,3.987,4.028,4.056,4.114,4.128,4.173,4.203,4.264,4.344,4.4635,4.583,4.7895,4.996,5.389,5.624,5.737,5.85,6.032,6.159,6.259,6.327,6.259,6.127,6.127,6.095,6.001,5.85,5.792,5.735,5.735,5.735,5.679,5.679,5.679,5.679,5.679,5.707,5.735,5.763,5.792,5.821,5.85,5.909,5.939,5.939,6.001,6.032,6.095,6.127,6.127,6.127,6.127,6.127,6.159,6.127,6.127,6.095,6.095,6.095,6.095,6.095,6.095,6.095,6.127,6.127,6.127,6.127,6.159,6.159,6.159,6.159,6.225,6.159,6.159,6.159,6.127,6.127,6.095,6.095,6.032,6.032,6.032,6.001,6.032,6.032,6.095,6.095,6.127,6.159,6.225,6.259,6.361,6.432,6.467,6.54,6.577,6.614,6.652,6.69,6.768,6.827999999999999,6.888,6.971,7.098,0.0,0.0,0.0,0.0,0.0,0.0,0.0,0.0,0.0,0.0,6.768,6.729,6.729,6.729,6.729,6.808,6.808,6.768,6.729,6.69,6.69,6.652,6.614,6.614,6.577,6.577,6.54,6.54,6.54,6.54,6.577,6.577,6.614,6.69,6.729,6.768,6.888,7.055,7.186,7.277,7.368,7.659,7.761,7.813,7.919,7.919,7.973,8.028,7.973,7.973,7.813,7.511,7.231,6.971,6.888,6.729,6.69,6.652,6.614,6.614,6.577,6.577,6.577,6.577,6.577,6.577,6.614,6.614,6.614,6.69,6.729,6.729,6.729,6.729,6.729,0.0,0.0,0.0,5.57,5.543,5.543,5.517,5.491,5.491,5.491,5.491,5.465,5.465,5.465,5.465,5.465,5.465,0.0,0.0,0.0,0.0,0.0,0.0,0.0,0.0,0.0,0.0,0.0,0.0,0.0,0.0,5.084,5.106,5.084,5.084,5.084,5.084,5.084,5.084,5.106,5.151,5.151,5.174,5.22,5.244,5.268,5.316,5.316,5.316,5.34,5.34,5.34,5.316,5.268,5.268,5.244,5.244,5.244,5.244,5.244,5.244,5.268,5.34,5.389,5.44,5.465,5.491,5.543,5.57,5.57,5.57,5.543,5.465,5.415,5.34,5.244,5.106,5.018,4.933,4.933,4.912,4.912,4.912,4.912,4.933,4.954,4.975,4.996,5.04,5.106,5.151,5.174,5.244,5.268,5.268,5.268,5.268,5.34,5.389,5.465,5.517,5.543,5.597,5.624,5.651,5.707,5.735,5.792,5.821,5.821,5.792,5.763,5.707,5.651,5.597,5.57,5.491,5.389,5.244,5.151,4.975,4.912,4.912,4.891,4.891,4.871,4.851,4.851,4.851,4.83,4.83,4.83,4.83,4.81,4.81,4.81,4.81,4.81,4.81,4.81,4.81,4.81,4.81,4.81,4.81,4.791,4.791,4.791,4.771,4.771,4.771,4.791,4.791,4.791,4.791,4.791,4.771,4.771,4.771,4.752,4.752,4.732,4.713,4.694,4.694,4.638,4.601,4.583,4.565,4.53,4.477,4.46,4.426,4.41,4.393,4.344,4.328,4.328,4.312,4.312,4.312,4.312,4.312,4.296,4.312,4.312,4.312,4.312,4.312,4.312,4.328,4.328,4.328,4.328,4.328,4.344,4.344,4.328,4.328,4.312,4.312,4.28,4.264,4.264,4.264,4.264,4.249,0.0,0.0,0.0,0.0
6.504,6.504,6.54,6.54,6.504,6.504,6.504,6.504,6.467,6.467,6.467,6.432,6.432,6.432,6.396,6.396,6.361,6.361,6.361,6.361,6.361,6.396,6.396,6.432,6.432,6.467,6.504,6.54,6.54,6.54,6.577,6.577,6.614,6.614,6.614,6.614,6.652,6.652,6.69,6.69,6.69,6.69,6.69,6.69,6.729,6.69,6.69,6.69,6.69,6.69,6.69,6.69,6.69,6.69,6.69,6.69,6.69,6.69,6.652,6.577,6.467,6.259,6.04,5.821,5.679,5.34,5.084,0.0,0.0,4.46,4.312,4.28,4.249,4.233,4.203,4.188,4.158,4.173,4.173,4.203,4.233,4.249,4.249,4.249,4.249,4.249,4.249,4.249,4.249,4.233,4.233,4.218,4.188,4.158,4.128,4.114,4.085,4.056,4.028,3.987,3.973,3.92,3.906,3.88,3.868,3.842,3.829,3.817,3.804,3.804,3.792,3.78,3.767,3.767,3.767,3.767,3.755,3.755,3.755,3.743,3.743,3.731,3.731,3.707,3.731,3.743,3.755,3.767,3.78,3.804,3.804,3.817,3.829,3.829,3.829,3.829,3.817,3.817,3.817,3.817,3.817,3.829,3.829,3.842,3.855,3.868,3.88,3.893,3.92,3.92,3.933,3.946,3.973,4.014,4.028,4.07,4.114,4.128,4.173,4.188,4.264,4.328,4.440875,4.512,4.712,4.912,5.244,5.543,5.6735,5.735,5.909,6.127,6.259,6.259,6.259,6.127,6.127,6.095,6.032,5.85,5.792,5.735,5.735,5.735,5.707,5.707,5.679,5.679,5.707,5.763,5.821,5.85,5.909,5.909,5.939,6.032,6.032,6.032,6.095,6.095,6.127,6.159,6.159,6.159,6.159,6.159,6.159,6.127,6.127,6.095,6.095,6.095,6.032,6.095,6.095,6.095,6.095,6.095,6.095,6.095,6.095,6.127,6.159,6.159,6.159,6.127,6.127,6.127,6.095,6.095,6.032,6.032,6.032,6.032,6.032,6.032,6.032,6.095,6.095,6.127,6.159,6.225,6.327,6.361,6.396,6.504,6.54,6.577,6.614,6.652,6.729,6.768,6.808,6.848,6.929,7.098,7.231,7.368,7.511,0.0,0.0,0.0,0.0,0.0,0.0,6.808,6.7684999999999995,6.729,6.69,6.652,6.69,6.69,6.69,6.69,6.69,6.652,6.614,6.614,6.577,6.54,6.54,6.504,6.504,6.467,6.432,6.432,6.432,6.432,6.467,6.54,6.577,6.69,6.729,6.808,7.055,7.231,7.323,7.415,7.761,7.866,7.919,7.973,8.028,8.028,8.084,8.084,8.028,7.973,7.813,7.415,7.186,6.929,6.808,6.69,6.69,6.614,6.614,6.577,6.577,6.577,6.577,6.577,6.577,6.577,6.614,6.614,6.652,6.69,6.69,6.69,6.652,6.614,0.0,0.0,5.679,5.57,5.543,5.543,5.517,5.517,5.491,5.491,5.491,5.465,5.465,5.465,5.465,5.465,5.465,0.0,0.0,0.0,0.0,0.0,0.0,0.0,0.0,0.0,0.0,0.0,0.0,0.0,5.106,5.106,5.106,5.106,5.106,5.106,5.151,5.151,5.151,5.151,5.174,5.22,5.244,5.268,5.316,5.316,5.34,5.389,5.389,5.389,5.389,5.389,5.34,5.34,5.316,5.268,5.268,5.268,5.268,5.268,5.268,5.316,5.389,5.415,5.44,5.465,5.491,5.543,5.543,5.57,5.543,5.491,5.44,5.389,5.268,5.22,5.084,5.018,4.933,4.912,4.912,4.891,4.891,4.891,4.912,4.912,4.912,4.912,4.912,4.933,4.933,4.933,4.954,4.954,4.933,4.954,4.954,4.996,4.996,5.084,5.174,5.244,5.34,5.415,5.491,5.543,5.57,5.57,5.597,5.597,5.57,5.57,5.543,5.491,5.415,5.316,5.22,5.106,5.04,4.912,4.891,4.871,4.851,4.851,4.83,4.83,4.83,4.83,4.81,4.81,4.81,4.81,4.81,4.81,4.81,4.81,4.81,4.81,4.81,4.791,4.791,4.791,4.791,4.791,4.791,4.771,4.771,4.771,4.771,4.771,4.771,4.771,4.771,4.771,4.771,4.752,4.752,4.752,4.732,4.713,4.713,4.694,4.657,4.638,4.601,4.583,4.565,4.53,4.512,4.477,4.46,4.426,4.41,4.393,4.376,4.36,4.328,4.328,4.328,4.312,4.312,4.312,4.312,4.296,4.312,4.312,4.312,4.312,4.312,4.312,4.312,4.328,4.328,4.328,4.328,4.328,4.328,4.328,4.312,4.312,4.296,4.28,4.264,4.264,4.249,4.249,4.249,0.0,0.0,0.0,0.0
6.467,6.467,6.504,6.504,6.504,6.504,6.504,6.504,6.504,6.467,6.467,6.467,6.432,6.432,6.432,6.396,6.361,6.361,6.361,6.361,6.361,6.396,6.396,6.432,6.432,6.467,6.504,6.54,6.54,6.54,6.577,6.577,6.577,6.614,6.614,6.614,6.652,6.652,6.652,6.69,6.69,6.69,6.69,6.69,6.69,6.69,6.69,6.69,6.69,6.69,6.69,6.69,6.69,6.69,6.69,6.69,6.69,6.652,6.614,6.54,6.361,6.095,5.8870000000000005,5.679,5.465,5.151,4.954,4.851,4.771,4.426,4.328,4.264,4.249,4.218,4.188,4.158,4.114,4.114,4.114,4.128,4.173,4.188,4.188,4.203,4.203,4.203,4.203,4.203,4.188,4.188,4.173,4.128,4.114,4.085,4.07,4.056,4.028,3.987,3.973,3.933,3.906,3.893,3.868,3.868,3.842,3.829,3.817,3.804,3.792,3.755,3.755,3.743,3.743,3.743,3.743,3.743,3.743,3.743,3.743,3.743,3.731,3.731,3.731,3.731,3.743,3.743,3.755,3.78,3.792,3.804,3.817,3.829,3.829,3.829,3.829,3.829,3.829,3.817,3.817,3.817,3.817,3.817,3.829,3.829,3.855,3.868,3.88,3.893,3.906,3.92,3.933,3.946,3.973,4.014,4.028,4.07,4.114,4.128,4.173,4.188,4.264,4.312,4.46,0.0,4.6845,4.891,5.106,5.465,5.679,5.75,5.821,6.032,6.259,6.327,6.259,6.225,6.159,6.159,6.095,6.032,5.939,5.821,5.821,5.821,5.792,5.792,5.792,5.821,5.821,5.909,5.939,6.032,6.032,6.095,6.1049999999999995,6.127,6.16125,6.159,6.193499999999999,6.159,6.159,6.159,6.225,6.225,6.225,6.159,6.159,6.127,6.095,6.095,6.032,6.032,6.032,6.032,6.032,6.032,6.032,6.032,6.032,6.032,6.095,6.095,6.095,6.095,6.095,6.095,6.095,6.095,6.032,6.032,6.032,6.032,6.032,6.032,6.032,6.095,6.095,6.095,6.127,6.159,6.225,6.259,6.327,6.396,6.504,6.54,6.577,6.614,6.652,6.729,6.768,6.808,6.848,6.929,7.098,7.231,7.368,7.511,7.659,7.659,7.659,7.559,7.415,7.322,6.848,6.808,6.729,6.729,6.69,6.652,6.652,6.614,6.652,6.652,6.614,6.614,6.614,6.577,6.54,6.54,6.504,6.432,6.396,6.361,6.361,6.327,6.327,6.327,6.361,6.432,6.504,6.577,6.69,6.768,6.929,7.231,7.371,7.511,7.813,7.973,8.028,8.084,8.084,8.141,8.141,8.198,8.084,8.028,7.973,7.813,7.368,7.055,6.848,6.729,6.69,6.614,6.614,6.577,6.577,6.577,6.577,6.577,6.577,6.577,6.614,6.614,6.652,6.652,6.69,6.614,6.614,6.523,6.432,0.0,5.6515,5.57,5.543,5.543,5.517,5.517,5.491,5.491,5.491,5.465,5.465,5.465,5.465,5.465,5.44,5.465,0.0,0.0,0.0,0.0,0.0,0.0,0.0,0.0,0.0,0.0,0.0,0.0,5.1285,5.106,5.106,5.1285,5.151,5.151,5.174,5.174,5.22,5.244,5.268,5.244,5.268,5.316,5.34,5.389,5.389749999999999,5.415,5.44,5.44,5.44,5.415,5.415,5.389,5.34,5.316,5.316,5.316,5.316,5.316,5.316,5.34,5.389,5.415,5.44,5.465,5.491,5.517,5.543,5.517,5.491,5.44,5.389,5.316,5.244,5.151,5.04,4.933,4.912,4.912,4.891,4.891,4.891,4.871,4.891,4.891,4.891,4.891,4.871,4.871,4.871,4.851,4.851,4.851,4.83,4.83,4.83,4.851,4.851,4.891,4.912,4.954,5.04,5.106,5.174,5.268,5.316,5.389,5.389,5.389,5.389,5.34,5.316,5.244,5.174,5.106,5.018,4.975,4.891,4.891,4.851,4.851,4.83,4.81,4.81,4.81,4.81,4.81,4.81,4.81,4.81,4.81,4.81,4.81,4.791,4.791,4.791,4.771,4.771,4.752,4.752,4.752,4.752,4.752,4.752,4.752,4.752,4.752,4.752,4.752,4.752,4.752,4.752,4.752,4.752,4.732,4.732,4.713,4.713,4.694,4.657,4.638,4.601,4.601,4.583,4.565,4.53,4.512,4.477,4.46,4.426,4.41,4.393,4.393,4.376,4.36,4.344,4.328,4.328,4.328,4.312,4.312,4.312,4.312,4.312,4.312,4.312,4.312,4.312,4.312,4.312,4.312,4.312,4.312,4.328,4.328,4.312,4.312,4.312,4.312,4.28,4.28,4.264,4.264,4.264,4.249,4.249,0.0,0.0,0.0,0.0
6.432,6.467,6.504,6.504,6.504,6.504,6.504,6.504,6.504,6.504,6.504,6.467,6.467,6.432,6.432,6.396,6.396,6.361,6.361,6.361,6.361,6.396,6.396,6.432,6.467,6.467,6.504,6.54,6.54,6.54,6.54,6.577,6.577,6.577,6.614,6.614,6.614,6.652,6.652,6.69,6.69,6.69,6.69,6.69,6.69,6.69,6.69,6.69,6.69,6.69,6.69,6.69,6.69,6.69,6.69,6.652,6.652,6.614,6.577,6.432,6.159,5.909,5.7212499999999995,5.465,5.244,4.975,4.871,4.81,4.694,4.41,4.328,4.28,4.249,4.203,4.173,4.128,4.085,4.07,4.07,4.07,4.085,4.114,4.114,4.128,4.128,4.128,4.128,4.128,4.114,4.085,4.07,4.07,4.056,4.028,3.987,3.973,3.946,3.933,3.92,3.893,3.868,3.868,3.855,3.842,3.817,3.804,3.792,3.767,3.743,3.731,3.707,3.707,3.707,3.696,3.707,3.707,3.707,3.707,3.707,3.707,3.707,3.707,3.707,3.707,3.743,3.743,3.755,3.78,3.792,3.804,3.817,3.829,3.829,3.829,3.829,3.829,3.817,3.817,3.817,3.817,3.817,3.817,3.817,3.829,3.842,3.855,3.868,3.88,3.906,3.92,3.933,3.946,3.973,3.987,4.028,4.07,4.085,4.128,4.173,4.188,4.249,4.296,4.393,4.525,4.657,4.851,5.05225,5.34,5.597,5.69725,5.763,6.001,6.259,6.259,6.259,6.225,6.225,6.225,6.127,6.095,6.032,6.001,5.939,5.939,5.939,5.909,5.909,5.939,5.939,6.032,6.080749999999999,6.127,6.159,6.259,6.259,6.327,6.327,6.327,6.361,6.361,6.327,6.327,6.259,6.225,6.225,6.159,6.159,6.127,6.095,6.032,6.032,6.001,6.001,6.001,6.001,6.001,6.001,6.001,6.001,6.001,6.032,6.032,6.032,6.032,6.032,6.032,6.001,6.001,6.032,6.032,6.032,6.032,6.032,6.032,6.095,6.095,6.095,6.127,6.159,6.225,6.259,6.327,6.396,6.467,6.54,6.577,6.614,6.652,6.69,6.768,6.798,6.848,6.971,7.098,7.231,7.368,7.511,7.659,7.709,7.709,7.659,7.559,7.368,7.322,6.848,6.808,6.729,6.69,6.69,6.614,6.614,6.614,6.614,6.614,6.614,6.614,6.577,6.54,6.54,6.504,6.432,6.396,6.361,6.327,6.225,6.159,6.159,6.159,6.225,6.259,6.396,6.504,6.614,6.729,6.888,7.231,7.395,7.559,7.919,8.084,8.084,8.141,8.198,8.198,8.256,8.256,8.256,8.141,8.084,7.973,7.511,7.231,6.888,6.729,6.69,6.614,6.614,6.577,6.577,6.577,6.577,6.577,6.577,6.577,6.614,6.614,6.614,6.614,6.614,6.577,6.54,6.39525,6.259,5.735,5.624,5.57,5.543,5.517,5.491,5.491,5.465,5.465,5.44,5.44,5.44,5.44,5.44,5.44,5.44,5.44,0.0,0.0,0.0,0.0,0.0,0.0,0.0,0.0,0.0,0.0,5.174,5.1625,5.151,5.151,5.151,5.151,5.151,5.174,5.197,5.22,5.22,5.244,5.268,5.316,5.34,5.389,5.389749999999999,5.415,5.415,5.44,5.465,5.465,5.465,5.44,5.415,5.389,5.389,5.34,5.34,5.316,5.34,5.34,5.316,5.34,5.389,5.415,5.44,5.44,5.465,5.465,5.491,5.465,5.44,5.389,5.316,5.22,5.151,5.04,4.996,4.912,4.891,4.891,4.871,4.851,4.851,4.851,4.851,4.851,4.851,4.851,4.851,4.851,4.851,4.83,4.83,4.83,4.81,4.81,4.81,4.83,4.83,4.851,4.851,4.891,4.912,4.933,4.975,4.996,5.018,5.04,5.084,5.106,5.106,5.084,5.084,5.018,4.996,4.954,4.933,4.912,4.871,4.851,4.851,4.83,4.83,4.81,4.81,4.81,4.81,4.81,4.81,4.791,4.791,4.791,4.791,4.771,4.771,4.752,4.752,4.732,4.732,4.732,4.732,4.732,4.732,4.732,4.713,4.713,4.713,4.713,4.732,4.732,4.732,4.732,4.732,4.752,4.732,4.732,4.713,4.694,4.694,4.657,4.638,4.601,4.601,4.583,4.565,4.53,4.512,4.477,4.46,4.46,4.426,4.41,4.41,4.393,4.393,4.36,4.344,4.328,4.328,4.328,4.328,4.328,4.312,4.312,4.312,4.312,4.312,4.312,4.312,4.312,4.312,4.312,4.312,4.312,4.312,4.312,4.312,4.312,4.312,4.296,4.28,4.28,4.264,4.264,4.264,4.249,4.249,0.0,0.0,0.0,0.0
6.432,6.432,6.467,6.504,6.504,6.504,6.504,6.54,6.54,6.54,6.54,6.504,6.504,6.467,6.467,6.432,6.432,6.396,6.396,6.396,6.396,6.396,6.396,6.432,6.467,6.467,6.504,6.54,6.54,6.54,6.54,6.577,6.577,6.577,6.614,6.614,6.614,6.652,6.652,6.652,6.69,6.69,6.69,6.69,6.69,6.69,6.69,6.69,6.69,6.69,6.69,6.69,6.69,6.652,6.652,6.614,6.614,6.577,6.54,6.327,6.032,5.735,5.624,5.268,5.018,4.851,4.81,4.713,4.477,4.36,4.296,4.264,4.218,4.188,4.128,4.085,4.056,4.014,4.014,4.014,4.014,4.028,4.056,4.056,4.056,4.056,4.056,4.056,4.028,4.014,4.014,3.987,3.973,3.946,3.933,3.92,3.906,3.893,3.868,3.868,3.855,3.842,3.829,3.817,3.804,3.78,3.767,3.731,3.696,3.672,3.661,3.661,3.661,3.661,3.661,3.661,3.672,3.672,3.672,3.696,3.672,3.672,3.696,3.707,3.731,3.743,3.755,3.78,3.78,3.804,3.817,3.817,3.829,3.829,3.829,3.817,3.817,3.817,3.804,3.804,3.817,3.817,3.817,3.829,3.829,3.855,3.868,3.88,3.893,3.906,3.933,3.946,3.973,3.987,4.028,4.07,4.085,4.128,4.158,4.188,4.233,4.264,4.344,4.47775,4.565,4.81,4.912,5.22,5.543,5.679,5.7940000000000005,5.909,6.159,6.259,6.259,6.225,6.225,6.225,6.159,6.127,6.095,6.095,6.032,6.095,6.095,6.095,6.095,6.095,6.127,6.127,6.225,6.259,6.361,6.396,6.432,6.432,6.432,6.432,6.432,6.432,6.396,6.396,6.361,6.361,6.225,6.159,6.127,6.095,6.032,6.001,6.001,5.939,5.939,5.939,5.939,5.939,5.939,5.939,5.939,5.939,5.939,5.939,5.939,5.939,5.939,5.939,5.939,6.001,6.001,6.001,6.001,6.032,6.032,6.095,6.127,6.127,6.127,6.159,6.225,6.259,6.327,6.361,6.432,6.504,6.54,6.577,6.614,6.69,6.729,6.7684999999999995,6.808,6.929,7.055,7.231,7.322,7.415,7.559,7.709,7.709,7.709,7.559,7.511,7.368,7.231,6.848,6.768,6.729,6.69,6.652,6.614,6.614,6.614,6.577,6.577,6.577,6.54,6.54,6.432,6.396,6.361,6.259,6.259,6.159,6.127,6.095,6.032,6.032,6.032,6.095,6.127,6.259,6.396,6.54,6.69,6.848,7.186,7.3485,7.511,7.919,8.084,8.198,8.198,8.256,8.256,8.315,8.315,8.256,8.198,8.084,8.028,7.866,7.322,6.971,6.768,6.69,6.652,6.614,6.577,6.577,6.577,6.54,6.54,6.577,6.577,6.577,6.577,6.614,6.577,6.577,6.504,6.432,6.259,5.909,5.707,5.597,5.57,5.543,5.517,5.491,5.465,5.44,5.44,5.415,5.415,5.415,5.415,5.415,5.415,0.0,0.0,0.0,0.0,0.0,0.0,0.0,0.0,0.0,0.0,0.0,0.0,0.0,0.0,5.1625,5.174,5.151,5.174,5.174,5.174,5.22,5.22,5.244,5.268,5.316,5.34,5.34,5.389,5.415,5.415,5.44,5.465,5.465,5.465,5.44,5.415,5.415,5.389,5.34,5.34,5.316,5.316,5.316,5.316,5.316,5.34,5.389,5.389,5.415,5.415,5.415,5.415,5.415,5.415,5.389,5.316,5.244,5.151,5.084,5.018,4.975,4.912,4.891,4.891,4.871,4.851,4.851,4.83,4.83,4.83,4.83,4.81,4.81,4.81,4.81,4.81,4.791,4.791,4.771,4.771,4.791,4.81,4.81,4.81,4.83,4.83,4.851,4.851,4.871,4.891,4.891,4.891,4.912,4.912,4.912,4.912,4.912,4.912,4.891,4.891,4.891,4.851,4.851,4.851,4.83,4.83,4.81,4.81,4.81,4.791,4.791,4.791,4.771,4.771,4.752,4.752,4.752,4.732,4.732,4.713,4.713,4.713,4.713,4.694,4.694,4.694,4.694,4.694,4.694,4.694,4.713,4.713,4.713,4.713,4.732,4.732,4.732,4.732,4.732,4.713,4.713,4.694,4.694,4.638,4.638,4.601,4.583,4.565,4.53,4.512,4.477,4.46,4.46,4.426,4.426,4.41,4.41,4.393,4.393,4.393,4.376,4.344,4.344,4.344,4.344,4.328,4.328,4.328,4.328,4.328,4.328,4.328,4.328,4.312,4.328,4.312,4.312,4.312,4.328,4.328,4.312,4.312,4.312,4.312,4.296,4.28,4.28,4.264,4.264,4.264,4.249,0.0,0.0,0.0,0.0
6.396,6.432,6.467,6.467,6.504,6.504,6.504,6.54,6.54,6.54,6.54,6.54,6.504,6.504,6.467,6.467,6.467,6.432,6.432,6.432,6.432,6.432,6.432,6.467,6.467,6.504,6.504,6.54,6.54,6.54,6.577,6.577,6.577,6.577,6.577,6.614,6.614,6.614,6.652,6.652,6.652,6.652,6.69,6.69,6.69,6.69,6.69,6.69,6.69,6.69,6.69,6.69,6.652,6.614,6.614,6.614,6.577,6.54,6.432,6.159,5.85,5.651,5.34,5.084,4.912,4.81,4.732,4.512,4.41,4.328,4.28,4.249,4.203,4.158,4.085,4.056,4.014,3.973,3.946,3.973,3.973,3.987,3.987,3.987,3.987,3.987,3.987,3.973,3.973,3.973,3.946,3.933,3.906,3.893,3.88,3.88,3.868,3.855,3.855,3.829,3.817,3.817,3.804,3.792,3.767,3.743,3.696,3.672,3.661,3.627,3.615,3.615,3.615,3.615,3.615,3.615,3.627,3.649,3.649,3.649,3.661,3.661,3.672,3.696,3.707,3.707,3.743,3.755,3.767,3.792,3.804,3.804,3.817,3.817,3.817,3.817,3.804,3.804,3.804,3.804,3.804,3.804,3.817,3.817,3.829,3.842,3.855,3.868,3.88,3.906,3.92,3.933,3.946,3.987,4.014,4.056,4.085,4.114,4.158,4.173,4.218,4.249,4.312,4.477,4.6145,4.752,4.891,5.084,5.465,5.624,5.7225,5.821,6.127,6.225,6.259,6.225,6.225,6.225,6.159,6.159,6.127,6.127,6.127,6.159,6.159,6.159,6.159,6.225,6.225,6.225,6.327,6.361,6.432,6.467,6.467,6.504,6.504,6.504,6.504,6.504,6.467,6.432,6.396,6.361,6.259,6.159,6.127,6.095,6.001,6.001,5.939,5.909,5.909,5.85,5.909,5.909,5.909,5.909,5.909,5.909,5.909,5.939,5.939,5.939,5.939,5.939,5.939,6.001,6.001,6.001,6.032,6.032,6.095,6.095,6.127,6.159,6.159,6.159,6.225,6.259,6.327,6.396,6.432,6.504,6.54,6.614,6.652,6.69,6.729,6.7885,6.848,6.929,7.098,7.231,7.368,7.511,7.559,7.659,7.709,7.659,7.511,7.415,7.231,7.098,6.848,6.768,6.729,6.69,6.652,6.614,6.577,6.577,6.54,6.577,6.54,6.504,6.467,6.361,6.327,6.259,6.225,6.095,6.032,5.939,5.909,5.85,5.85,5.85,5.909,6.001,6.127,6.259,6.467,6.577,6.729,6.971,7.241,7.511,7.919,8.141,8.256,8.256,8.256,8.315,8.375,8.375,8.375,8.198,8.141,8.028,7.919,7.368,6.971,6.768,6.69,6.614,6.577,6.577,6.577,6.54,6.54,0.0,0.0,0.0,0.0,6.577,6.54,6.54,6.467,6.361,6.225,5.909,5.763,5.679,5.597,5.543,5.517,5.491,5.465,5.44,5.415,5.389,5.389,5.34,5.34,5.34,5.389,5.34,0.0,0.0,0.0,0.0,0.0,0.0,0.0,0.0,0.0,0.0,0.0,0.0,0.0,0.0,5.174,5.174,5.174,5.174,5.174,5.174,5.22,5.22,5.244,5.268,5.316,5.316,5.34,5.34,5.389,5.389,5.415,5.415,5.389,5.415,5.415,5.389,5.34,5.34,5.316,5.316,5.316,5.316,5.316,5.316,5.316,5.316,5.34,5.34,5.389,5.389,5.389,5.389,5.34,5.316,5.268,5.22,5.151,5.084,5.018,4.975,4.933,4.891,4.891,4.871,4.851,4.83,4.83,4.81,4.81,4.791,4.771,4.771,4.752,4.732,4.732,4.732,4.732,4.713,4.713,4.713,4.713,4.732,4.752,4.752,4.771,4.771,4.771,4.791,4.81,4.81,4.81,4.81,4.81,4.83,4.83,4.83,4.83,4.83,4.83,4.83,4.83,4.83,4.83,4.81,4.81,4.791,4.791,4.771,4.771,4.752,4.752,4.752,4.732,4.732,4.732,4.732,4.713,4.713,4.694,4.657,4.657,4.657,4.657,4.657,4.657,4.657,4.657,4.694,4.694,4.694,4.694,4.713,4.713,4.732,4.732,4.732,4.732,4.732,4.732,4.713,4.713,4.694,4.657,4.638,4.601,4.583,4.565,4.53,4.53,4.512,4.477,4.46,4.46,4.426,4.426,4.41,4.41,4.41,4.41,4.393,4.393,4.376,4.36,4.36,4.36,4.36,4.344,4.344,4.344,4.344,4.344,4.344,4.328,4.328,4.328,4.328,4.328,4.328,4.328,4.328,4.328,4.328,4.312,4.312,4.296,4.28,4.28,4.264,4.264,4.264,4.264,0.0,0.0,0.0,0.0
6.396,6.432,6.432,6.467,6.504,6.504,6.54,6.54,6.54,6.54,6.54,6.54,6.54,6.54,6.54,6.54,6.504,6.467,6.467,6.467,6.467,6.467,6.467,6.467,6.504,6.504,6.54,6.54,6.54,6.54,6.54,6.577,6.577,6.577,6.577,6.614,6.614,6.614,6.614,6.652,6.652,6.652,6.652,6.652,6.69,6.69,6.652,6.69,6.69,6.69,6.69,6.652,6.614,6.614,6.614,6.577,6.54,6.504,6.327,6.032,5.735,5.44,5.174,4.954,4.851,4.732,4.601,4.41,4.36,4.312,4.28,4.233,4.173,4.128,4.056,4.014,3.973,3.933,3.92,3.92,3.92,3.92,3.933,3.92,3.92,3.92,3.92,3.906,3.906,3.906,3.893,3.88,3.868,3.855,3.855,3.842,3.829,3.817,3.804,3.804,3.792,3.78,3.767,3.743,3.696,3.672,3.649,3.627,3.615,3.593,3.582,3.56,3.56,3.56,3.582,3.582,3.582,3.593,3.615,3.627,3.627,3.649,3.661,3.649,3.661,3.696,3.707,3.731,3.755,3.767,3.792,3.792,3.804,3.804,3.804,3.804,3.804,3.804,3.792,3.792,3.804,3.804,3.804,3.817,3.817,3.829,3.855,3.868,3.868,3.893,3.906,3.92,3.946,3.973,4.014,4.028,4.07,4.114,4.158,4.173,4.203,4.249,4.296,4.426,4.5695,4.713,4.851,5.018,5.34,5.597,5.6945,5.792,6.095,6.159,6.225,6.159,6.225,6.225,6.225,6.225,6.225,6.225,6.225,6.225,6.259,6.259,6.327,6.327,6.259,6.361,6.396,6.467,6.467,6.504,6.504,6.54,6.54,6.54,6.54,6.54,6.504,6.504,6.432,6.396,6.259,6.159,6.127,6.032,6.001,5.939,5.85,5.85,5.85,5.85,5.85,5.85,5.85,5.85,5.85,5.85,5.909,5.909,5.939,5.939,5.939,5.909,5.939,6.001,6.001,6.032,6.095,6.095,6.127,6.127,6.159,6.159,6.159,6.225,6.259,6.327,6.327,6.396,6.467,6.54,6.54,6.614,6.652,6.69,6.729,6.7885,6.848,6.971,7.098,7.231,7.368,7.511,7.559,7.559,7.559,7.559,7.415,7.368,7.231,7.098,6.808,6.729,6.652,6.614,6.577,6.54,6.467,6.396,6.361,6.327,6.259,6.159,6.032,5.939,5.909,5.821,5.763,5.735,5.707,5.679,5.707,5.679,5.707,5.735,5.763,5.821,5.939,6.095,6.327,6.54,0.0,0.0,7.236,7.415,7.866,8.084,8.256,8.256,8.256,8.315,8.375,8.436,8.375,8.256,8.14125,8.084,7.973,7.813,0.0,0.0,0.0,6.614,6.577,6.54,6.54,6.54,6.286,0.0,0.0,0.0,0.0,0.0,6.504,6.432,6.361,6.225,6.095,5.792,5.707,5.651,5.57,5.543,5.491,5.44,5.415,5.389,5.34,5.316,5.316,5.316,5.268,5.316,5.316,5.279999999999999,0.0,0.0,0.0,0.0,0.0,0.0,0.0,0.0,0.0,0.0,0.0,0.0,0.0,5.151,5.174,5.151,5.174,5.174,5.174,5.174,5.22,5.22,5.244,5.268,5.268,5.316,5.316,5.34,5.34,5.34,5.34,5.34,5.316,5.316,5.316,5.34,5.316,5.316,5.268,5.268,5.268,5.244,5.268,5.268,5.268,5.268,5.268,5.268,5.316,5.268,5.268,5.268,5.244,5.244,5.174,5.106,5.04,5.018,4.975,4.933,4.912,4.891,4.871,4.851,4.83,4.83,4.81,4.81,4.791,4.771,4.732,4.732,4.713,4.713,4.694,4.657,4.657,4.638,4.638,4.638,4.657,4.657,4.694,4.694,4.694,4.694,4.694,4.694,4.694,4.713,4.694,4.694,4.713,4.713,4.732,4.752,4.752,4.771,4.771,4.791,4.791,4.791,4.791,4.771,4.771,4.752,4.732,4.732,4.713,4.713,4.694,4.694,4.713,4.694,4.694,4.694,4.694,4.657,4.657,4.657,4.657,4.638,4.638,4.638,4.638,4.657,4.657,4.657,4.694,4.694,4.694,4.694,4.713,4.732,4.732,4.732,4.732,4.732,4.732,4.713,4.694,4.694,4.657,4.638,4.601,4.583,4.565,4.53,4.512,4.477,4.46,4.46,4.46,4.426,4.426,4.426,4.426,4.41,4.41,4.426,4.41,4.393,4.393,4.393,4.393,4.393,4.393,4.376,4.376,4.376,4.376,4.376,4.36,4.344,4.344,4.344,4.344,4.344,4.344,4.344,4.328,4.328,4.328,4.312,4.312,4.296,4.28,4.28,4.264,4.264,4.264,0.0,0.0,0.0,0.0
6.396,6.432,6.432,6.467,6.504,6.504,6.54,6.54,6.54,6.54,6.54,6.54,6.54,6.54,6.54,6.54,6.54,6.504,6.504,6.504,6.504,6.504,6.504,6.504,6.504,6.54,6.54,6.54,6.54,6.54,6.54,6.577,6.577,6.577,6.577,6.614,6.614,6.614,6.614,6.614,6.652,6.652,6.652,6.652,6.652,6.652,6.652,6.652,6.652,6.652,6.652,6.614,6.614,6.614,6.577,6.577,6.54,6.396,6.127,5.821,5.624,5.22,4.954,4.851,4.752,4.46,4.393,4.328,4.312,4.28,4.249,4.203,4.128,4.07,4.014,3.973,3.906,3.88,3.88,3.868,3.868,3.868,3.868,3.868,3.88,3.868,3.868,3.868,3.855,3.855,3.855,3.842,3.829,3.817,3.817,3.804,3.792,3.78,3.767,3.743,3.743,3.731,3.672,3.661,3.649,3.627,3.593,3.582,3.56,3.549,3.538,3.538,3.538,3.538,3.538,3.549,3.56,3.56,3.582,3.582,3.56,3.582,3.593,3.615,3.649,3.661,3.672,3.696,3.731,3.743,3.767,3.78,3.78,3.792,3.792,3.792,3.792,3.792,3.78,3.78,3.792,3.804,3.804,3.804,3.817,3.829,3.842,3.855,3.868,3.868,3.893,3.906,3.92,3.946,3.973,4.014,4.056,4.085,4.128,4.158,4.188,4.249,4.296,4.41,4.552,4.694,4.83,4.975,5.268,5.543,5.6838750000000005,5.763,6.032,6.159,6.225,6.225,6.225,6.225,6.225,6.259,6.259,6.259,6.327,6.361,6.361,6.361,6.361,6.361,6.361,6.396,6.467,6.504,6.504,6.54,6.54,6.54,6.577,6.577,6.54,6.54,6.504,6.504,6.467,6.432,6.259,6.225,6.127,6.032,6.001,5.909,5.85,5.821,5.821,5.821,5.821,5.821,5.85,5.85,5.85,5.909,5.909,5.939,5.939,5.939,6.001,5.939,6.032,6.032,6.095,6.095,6.095,6.127,6.159,6.225,6.225,6.225,6.159,6.225,6.259,6.327,6.361,6.396,6.432,6.504,6.54,6.614,6.652,6.69,6.729,6.7833749999999995,6.848,6.929,7.055,7.186,7.322,7.368,7.415,7.511,7.511,7.415,7.368,7.231,7.186,6.808,6.729,6.614,6.504,6.432,6.327,6.127,6.095,6.001,5.939,5.85,5.85,5.792,5.735,5.679,5.651,5.624,5.57,5.57,5.543,5.57,5.57,5.57,5.57,5.597,5.597,5.651,5.707,5.821,6.032,6.361,0.0,0.0,7.231,7.496,7.761,8.084,8.198,8.256,8.256,8.315,8.375,8.375,8.315,8.198,8.084,8.028,7.973,7.709,0.0,0.0,0.0,6.54,6.3995,6.259,6.159,6.127,6.032,0.0,0.0,0.0,0.0,0.0,0.0,6.127,6.032,6.001,5.821,5.735,5.679,5.624,5.57,5.543,5.491,5.44,5.389,5.316,5.316,5.268,5.244,5.244,5.22,5.22,5.22,5.22,5.22,0.0,0.0,0.0,0.0,0.0,0.0,0.0,0.0,5.174,5.174,5.174,5.151,5.174,5.151,5.174,5.174,5.174,5.174,5.174,5.174,5.22,5.22,5.244,5.244,5.268,5.268,5.316,5.268,5.268,5.268,5.268,5.268,5.244,5.244,5.244,5.22,5.22,5.244,5.244,5.244,5.244,5.244,5.244,5.244,5.244,5.244,5.244,5.244,5.22,5.22,5.22,5.174,5.151,5.106,5.04,5.018,4.975,4.933,4.912,4.912,4.891,4.871,4.851,4.83,4.83,4.81,4.81,4.771,4.752,4.713,4.694,4.694,4.694,4.657,4.638,4.638,4.601,4.601,4.601,4.601,4.601,4.601,4.601,4.601,4.601,4.583,4.583,4.583,4.565,4.565,4.565,4.583,4.601,4.601,4.638,4.657,4.694,4.694,4.713,4.713,4.713,4.713,4.694,4.694,4.694,4.657,4.638,4.638,4.638,4.601,4.601,4.638,4.601,4.601,4.601,4.601,4.601,4.601,4.601,4.601,4.601,4.601,4.601,4.601,4.601,4.638,4.657,4.657,4.657,4.694,4.694,4.713,4.713,4.732,4.732,4.732,4.732,4.732,4.713,4.694,4.694,4.657,4.638,4.601,4.583,4.565,4.53,4.512,4.477,4.477,4.46,4.46,4.46,4.46,4.426,4.426,4.46,4.46,4.46,4.46,4.46,4.426,4.426,4.426,4.426,4.41,4.41,4.41,4.41,4.393,4.393,4.393,4.376,4.376,4.376,4.376,4.376,4.36,4.36,4.344,4.328,4.328,4.312,4.312,4.296,4.28,4.28,4.264,4.264,4.264,0.0,0.0,0.0,0.0
6.396,6.432,6.432,6.467,6.504,6.504,6.54,6.54,6.54,6.54,6.54,6.577,6.577,6.577,6.577,6.54,6.54,6.54,6.54,6.54,6.504,6.54,6.504,6.54,6.54,6.54,6.54,6.54,6.54,6.54,6.54,6.577,6.577,6.577,6.577,6.614,6.614,6.614,6.614,6.614,6.614,6.614,6.652,6.614,6.614,6.614,6.614,6.614,6.614,6.614,6.614,6.614,6.577,6.577,6.54,6.467,6.327,6.032,5.792,5.597,5.151,4.933,4.83,4.732,4.426,4.344,4.312,4.28,4.264,4.249,4.203,4.128,4.07,4.014,3.973,3.893,3.868,3.868,3.855,3.855,3.842,3.842,3.829,3.829,3.829,3.829,3.829,3.817,3.817,3.817,3.817,3.804,3.804,3.78,3.767,3.755,3.743,3.707,3.696,3.672,3.661,3.649,3.615,3.593,3.582,3.56,3.549,3.528,3.517,3.517,3.506,3.506,3.506,3.506,3.517,3.517,3.528,3.506,3.528,3.538,3.538,3.549,3.56,3.582,3.615,3.627,3.661,3.672,3.696,3.707,3.743,3.755,3.767,3.767,3.78,3.78,3.767,3.767,3.767,3.78,3.78,3.792,3.804,3.804,3.817,3.817,3.829,3.855,3.855,3.868,3.868,3.893,3.906,3.933,3.946,3.987,4.028,4.085,4.128,4.173,4.203,4.249,4.312,4.46,4.577,4.713,4.851,4.996,5.34,5.57,5.735,5.868,6.001,6.159,6.225,6.225,6.225,6.225,6.225,6.259,6.259,6.327,6.361,6.396,6.396,6.396,6.396,6.396,6.396,6.432,6.467,6.54,6.54,6.54,6.577,6.577,6.577,6.577,6.577,6.54,6.54,6.504,6.504,6.432,6.259,6.225,6.127,6.032,5.939,5.909,5.85,5.821,5.821,5.821,5.821,5.821,5.821,5.85,5.909,5.909,5.909,5.939,5.939,6.001,6.001,6.032,6.032,6.127,6.127,6.127,6.159,6.159,6.225,6.225,6.259,6.259,6.225,6.225,6.259,6.327,6.361,6.396,6.432,6.504,6.54,6.577,6.614,6.69,6.729,6.768,6.827999999999999,6.888,6.971,7.098,7.186,7.322,7.368,7.368,7.368,7.368,7.231,6.888,6.729,6.614,6.54,6.361,6.127,5.939,5.821,5.735,5.707,5.679,5.651,5.624,5.624,5.597,5.57,5.517,5.491,5.44,5.389,5.34,5.34,5.389,5.389,5.415,5.41125,5.44,5.465,5.543,5.57,5.651,5.735,6.001,6.361,0.0,0.0,0.0,7.415,7.973,8.084,8.198,8.198,8.256,8.256,8.256,8.256,8.141,8.028,7.973,7.415,6.888,6.69,6.504,6.2995,6.095,5.984375,5.792,5.792,5.707,0.0,0.0,0.0,0.0,0.0,0.0,0.0,5.821,5.821,5.763,5.735,5.679,5.651,5.597,5.543,5.491,5.44,5.389,5.316,5.268,5.244,5.244,5.22,5.174,5.151,5.151,5.174,5.174,5.174,5.174,5.174,5.174,5.174,5.174,5.22,5.22,5.174,5.174,5.151,5.174,5.151,5.151,5.151,5.174,5.151,5.174,5.174,5.174,5.174,5.22,5.22,5.22,5.244,5.244,5.244,5.244,5.244,5.244,5.22,5.22,5.22,5.22,5.174,5.174,5.174,5.174,5.174,5.174,5.22,5.22,5.22,5.22,5.22,5.22,5.22,5.22,5.174,5.174,5.174,5.151,5.106,5.084,5.04,5.018,4.975,4.933,4.912,4.912,4.891,4.871,4.871,4.851,4.83,4.81,4.81,4.791,4.752,4.732,4.694,4.694,4.657,4.657,4.638,4.601,4.601,4.583,4.583,4.583,4.565,4.565,4.565,4.565,4.565,4.565,4.53,4.53,4.512,4.512,4.512,4.512,4.512,4.512,4.53,4.565,4.583,4.583,4.601,4.601,4.638,4.601,4.601,4.583,4.583,4.565,4.565,4.53,4.53,4.53,4.53,4.53,4.53,4.53,4.565,4.565,4.565,4.565,4.565,4.565,4.583,4.565,4.583,4.583,4.601,4.601,4.638,4.638,4.657,4.657,4.657,4.694,4.694,4.713,4.713,4.713,4.732,4.732,4.713,4.713,4.694,4.694,4.657,4.638,4.601,4.583,4.565,4.53,4.512,4.512,4.477,4.477,4.46,4.46,4.46,4.477,4.477,4.477,4.477,4.477,4.512,4.512,4.512,4.477,4.477,4.477,4.46,4.46,4.46,4.426,4.426,4.41,4.41,4.41,4.393,4.393,4.393,4.393,4.376,4.376,4.36,4.344,4.328,4.328,4.312,4.312,4.296,4.28,4.28,4.264,4.264,0.0,0.0,0.0,0.0
6.396,6.432,6.432,6.467,6.504,6.504,6.54,6.54,6.54,6.54,6.54,6.577,6.577,6.577,6.577,6.577,6.577,6.54,6.54,6.54,6.54,6.54,6.54,6.54,6.54,6.54,6.54,6.54,6.54,6.54,6.577,6.577,6.577,6.577,6.577,6.577,6.577,6.577,6.614,6.614,6.614,6.614,6.614,6.614,6.614,6.614,6.614,6.577,6.577,6.577,6.577,6.577,6.54,6.467,6.327,6.095,5.85,5.679,5.316,5.018,4.891,4.81,4.694,4.376,4.328,4.28,4.264,4.249,4.218,4.188,4.128,4.07,4.014,3.973,3.88,3.868,3.855,3.829,3.829,3.817,3.817,3.817,3.817,3.804,3.804,3.792,3.792,3.792,3.78,3.767,3.767,3.755,3.743,3.731,3.707,3.696,3.672,3.661,3.627,3.615,3.593,3.582,3.56,3.549,3.538,3.528,3.506,3.496,3.496,3.496,3.485,3.485,3.485,3.496,3.485,3.485,3.496,3.496,3.496,3.506,3.517,3.538,3.549,3.56,3.582,3.615,3.627,3.661,3.672,3.696,3.731,3.743,3.743,3.755,3.755,3.755,3.755,3.755,3.767,3.767,3.78,3.78,3.792,3.804,3.804,3.817,3.829,3.829,3.842,3.855,3.868,3.868,3.893,3.92,3.933,3.973,4.028,4.07,4.158,4.203,4.249,4.296,4.376,4.4795,4.583,4.791,4.912,5.106,5.44,5.597,5.763,5.8975,6.032,6.127,6.225,6.159,6.159,6.159,6.159,6.225,6.259,6.259,6.361,6.361,6.396,6.396,6.396,6.396,6.396,6.432,6.467,6.467,6.54,6.54,6.54,6.54,6.54,6.54,6.54,6.54,6.54,6.504,6.467,6.432,6.259,6.159,6.095,6.001,5.939,5.85,5.85,5.821,5.792,5.792,5.821,5.821,5.821,5.85,5.909,5.909,5.939,6.001,6.032,6.095,6.095,6.127,6.159,6.259,6.259,6.327,6.327,6.327,6.327,6.327,6.327,6.259,6.225,6.225,6.259,6.327,6.361,6.396,6.432,6.504,6.54,6.577,6.614,6.652,6.69,6.729,6.773499999999999,6.808,6.888,6.929,7.055,7.098,7.186,7.186,7.231,7.231,6.808,6.69,6.577,6.396,6.127,5.85,5.679,5.624,5.597,5.543,5.543,5.517,5.491,5.44,5.415,5.268,5.22,5.174,5.106,5.084,5.04,5.04,5.04,5.106,5.106,5.174,5.22,5.244,5.316,5.415,5.4125,5.491,5.57,5.679,5.909,0.0,0.0,0.0,7.1515,7.562250000000001,7.973,8.028,8.084,8.084,8.141,8.141,8.084,7.973,7.813,7.098,6.808,6.614,6.396,6.127,5.945,5.763,5.651,5.624,5.624,5.597,0.0,0.0,0.0,0.0,0.0,5.679,5.679,5.707,5.679,5.679,5.679,5.624,5.597,5.57,5.517,5.465,5.415,5.34,5.316,5.244,5.22,5.174,5.174,5.174,5.174,5.151,5.174,5.151,5.174,5.174,5.151,5.174,5.174,5.174,5.174,5.174,5.174,5.174,5.174,5.174,5.151,5.174,5.151,5.174,5.174,5.151,5.174,5.174,5.174,5.22,5.22,5.22,5.22,5.22,5.22,5.22,5.174,5.174,5.174,5.151,5.151,5.151,5.151,5.151,5.151,5.151,5.151,5.151,5.151,5.151,5.151,5.174,5.174,5.174,5.174,5.151,5.151,5.151,5.106,5.106,5.084,5.018,4.996,4.975,4.954,4.912,4.912,4.891,4.891,4.871,4.851,4.83,4.83,4.81,4.791,4.771,4.732,4.713,4.694,4.657,4.638,4.638,4.601,4.583,4.565,4.565,4.565,4.53,4.53,4.53,4.53,4.53,4.53,4.512,4.477,4.477,4.46,4.426,4.426,4.426,4.426,4.46,4.46,4.477,4.477,4.477,4.512,4.512,4.512,4.512,4.477,4.46,4.46,4.46,4.426,4.426,4.426,4.426,4.426,4.46,4.46,4.477,4.477,4.512,4.512,4.512,4.53,4.53,4.565,4.565,4.565,4.583,4.583,4.601,4.638,4.638,4.638,4.657,4.657,4.694,4.713,4.713,4.713,4.713,4.732,4.732,4.713,4.694,4.694,4.657,4.638,4.601,4.601,4.583,4.565,4.53,4.512,4.512,4.512,4.512,4.512,4.512,4.512,4.512,4.512,4.53,4.53,4.53,4.53,4.53,4.53,4.53,4.512,4.512,4.477,4.477,4.477,4.46,4.46,4.426,4.426,4.41,4.41,4.41,4.393,4.393,4.393,4.376,4.36,4.36,4.344,4.328,4.328,4.312,4.296,4.296,4.28,4.28,0.0,0.0,0.0,0.0,0.0
6.396,6.432,6.432,6.432,6.467,6.504,6.504,6.54,6.54,6.54,6.54,6.577,6.577,6.577,6.577,6.577,6.577,6.577,6.577,6.54,6.54,6.54,6.54,6.54,6.54,6.54,6.54,6.54,6.54,6.54,6.54,6.54,6.54,6.54,6.577,6.577,6.577,6.577,6.577,6.577,6.577,6.577,6.577,6.577,6.577,6.577,6.577,6.577,6.577,6.577,6.54,6.432,6.259,6.032,5.792,5.651,5.543,5.084,4.912,4.83,4.732,4.583,4.344,4.296,4.264,4.233,4.203,4.173,4.128,4.085,4.028,3.987,3.933,3.88,3.855,3.842,3.829,3.817,3.804,3.804,3.792,3.78,3.78,3.767,3.755,3.743,3.743,3.731,3.731,3.731,3.707,3.696,3.672,3.661,3.661,3.649,3.593,3.582,3.56,3.56,3.549,3.538,3.528,3.517,3.506,3.496,3.496,3.485,3.485,3.475,3.475,3.454,3.454,3.465,3.465,3.465,3.475,3.485,3.496,3.496,3.506,3.517,3.528,3.549,3.56,3.593,3.615,3.649,3.661,3.672,3.696,3.707,3.731,3.743,3.743,3.743,3.743,3.743,3.755,3.755,3.767,3.78,3.792,3.792,3.804,3.804,3.817,3.829,3.829,3.842,3.855,3.868,3.868,3.893,3.92,3.973,4.028,4.114,4.203,4.249,4.28,4.344,4.477,4.576875,4.713,4.851,4.975,5.22,5.465,5.597,5.735,5.837,5.939,6.095,6.127,6.127,6.127,6.127,6.127,6.159,6.159,6.225,6.327,6.361,6.361,6.361,6.361,6.361,6.361,6.396,6.396,6.432,6.432,6.467,6.467,6.504,6.504,6.504,6.504,6.467,6.504,6.467,6.432,6.396,6.225,6.127,6.095,6.001,5.909,5.85,5.821,5.792,5.792,5.792,5.792,5.821,5.821,5.85,5.939,5.939,6.001,6.095,6.127,6.159,6.159,6.259,6.361,6.396,6.396,6.396,6.396,6.396,6.361,6.361,6.361,6.327,6.259,6.225,6.259,6.259,6.327,6.361,6.396,6.467,6.504,6.54,6.577,6.614,6.652,6.69,6.729,6.768,6.808,6.8285,6.848,6.848,6.888,6.929,6.848,6.729,6.614,6.504,6.225,5.85,5.679,5.478,5.372749999999999,5.316,5.244,5.22,5.2065,5.151,5.084,5.051,5.018,4.996,4.933,4.912,4.912,4.891,4.891,4.891,4.891,4.912,4.912,4.954,4.996,5.018,5.084,5.151,5.174,5.316,5.399249999999999,5.491,5.597,5.763,6.225,6.577,6.888,7.1783125000000005,7.415,7.709,7.813,7.973,7.919,7.919,7.415,7.23125,6.808,6.765000000000001,6.483499999999999,6.2615,6.0515,0.0,5.7575,5.6665,5.600874999999999,5.543,5.57,5.57,0.0,0.0,0.0,0.0,0.0,5.624,5.651,5.651,5.651,5.624,5.624,5.597,5.57,5.543,5.491,5.44,5.389,5.316,5.268,5.244,5.174,5.151,5.151,5.151,5.151,5.151,5.151,5.151,5.151,5.174,5.174,5.174,5.174,5.22,5.22,5.174,5.174,5.174,5.174,5.174,5.174,5.174,5.174,5.151,5.151,5.174,5.174,5.174,5.174,5.174,5.174,5.174,5.174,5.174,5.151,5.151,5.151,5.106,5.106,5.106,5.084,5.084,5.084,5.084,5.084,5.084,5.084,5.084,5.084,5.084,5.106,5.106,5.106,5.084,5.106,5.106,5.106,5.084,5.084,5.04,5.018,4.996,4.975,4.954,4.933,4.912,4.891,4.891,4.891,4.851,4.851,4.83,4.81,4.81,4.771,4.752,4.713,4.694,4.657,4.638,4.638,4.601,4.583,4.565,4.565,4.53,4.53,4.512,4.512,4.512,4.512,4.477,4.477,4.477,4.426,4.426,4.41,4.41,4.393,4.393,4.393,4.393,4.393,4.393,4.41,4.41,4.41,4.393,4.393,4.393,4.393,4.376,4.376,4.36,4.36,4.36,4.36,4.376,4.376,4.376,4.393,4.41,4.426,4.426,4.46,4.477,4.512,4.512,4.53,4.53,4.565,4.583,4.583,4.601,4.638,4.638,4.657,4.657,4.694,4.694,4.694,4.713,4.713,4.713,4.694,4.694,4.694,4.657,4.638,4.638,4.601,4.583,4.583,4.583,4.53,4.53,4.53,4.53,4.512,4.512,4.512,4.512,4.53,4.53,4.53,4.53,4.53,4.53,4.53,4.53,4.53,4.53,4.53,4.53,4.512,4.512,4.477,4.477,4.46,4.46,4.426,4.426,4.41,4.41,4.41,4.393,4.393,4.376,4.376,4.36,4.344,4.328,4.312,4.312,4.312,4.296,4.28,4.28,0.0,0.0,0.0,0.0,0.0
6.396,6.432,6.432,6.432,6.467,6.504,6.504,6.504,6.54,6.54,6.54,6.577,6.577,6.577,6.577,6.577,6.577,6.577,6.577,6.577,6.54,6.54,6.54,6.54,6.54,6.54,6.54,6.54,6.54,6.54,6.54,6.54,6.54,6.54,6.54,6.54,6.54,6.54,6.54,6.54,6.54,6.54,6.54,6.54,6.54,6.54,6.54,6.54,6.54,6.504,6.327,6.095,5.792,5.651,5.517,5.084,0.0,4.7805,4.62,4.5225,4.36,4.312,4.264,4.233,4.188,4.128,4.085,4.056,4.014,3.987,3.946,3.92,3.868,3.855,3.829,3.817,3.804,3.792,3.78,3.767,3.755,3.743,3.731,3.707,3.696,3.696,3.672,3.661,3.661,3.661,3.649,3.627,3.615,3.615,3.582,3.56,3.549,3.538,3.528,3.517,3.517,3.506,3.496,3.496,3.485,3.485,3.475,3.465,3.454,3.444,3.444,3.444,3.444,3.454,3.454,3.465,3.465,3.475,3.485,3.485,3.496,3.506,3.528,3.538,3.549,3.582,3.593,3.627,3.649,3.661,3.672,3.696,3.707,3.731,3.731,3.731,3.731,3.743,3.743,3.755,3.755,3.767,3.78,3.792,3.804,3.804,3.817,3.817,3.829,3.829,3.842,3.855,3.855,3.868,3.893,3.946,4.056,4.158,4.233,4.28,4.328,4.426,4.531000000000001,4.638,4.791,4.891,5.018,5.244,5.465,5.597,5.707,5.789249999999999,5.85,5.939,6.001,6.001,6.001,6.001,6.001,6.001,6.032,6.095,6.127,6.225,6.225,6.225,6.259,6.225,6.225,6.327,6.259,6.327,6.327,6.361,6.361,6.396,6.432,6.432,6.432,6.432,6.432,6.396,6.396,6.361,6.225,6.127,6.095,6.001,5.909,5.85,5.821,5.821,5.792,5.821,5.821,5.85,5.85,5.909,5.939,6.032,6.095,6.159,6.159,6.259,6.327,6.396,6.467,6.467,6.504,6.504,6.467,6.432,6.432,6.396,6.396,6.327,6.259,6.225,6.225,6.259,6.327,6.327,6.361,6.396,6.432,6.504,6.54,6.54,6.577,6.614,6.614,6.69,6.69,6.729,6.729,6.768,6.729,6.729,6.652,6.54,6.327,6.032,5.735,5.445,5.290750000000001,5.106,5.018,4.975,4.933,4.933,4.912,4.912,4.891,4.901,4.891,4.851,4.83,4.83,4.83,4.81,4.81,4.81,4.81,4.83,4.851,4.851,4.871,4.891,4.912,4.954,4.996,5.084,5.22,5.415,5.4745,5.57,5.763,6.225,6.5465,6.848,7.186,7.2677499999999995,7.368,7.511,7.511,7.231,6.929,6.729,6.577,6.432,6.159,5.909,5.707,5.6385000000000005,5.57,5.57,5.543,5.543,5.543,5.543,5.543,5.543,5.543,5.57,5.57,5.57,5.597,5.597,5.597,5.597,5.597,5.57,5.543,5.543,5.491,5.44,5.34,5.316,5.244,5.22,5.174,5.151,5.151,5.151,5.151,5.106,5.151,5.151,5.174,5.174,5.174,5.22,5.174,5.22,5.22,5.174,5.174,5.174,5.174,5.174,5.174,5.174,5.151,5.151,5.174,5.174,5.174,5.174,5.174,5.174,5.151,5.151,5.151,5.151,5.106,5.084,5.084,5.084,5.084,5.04,5.04,5.04,5.04,5.04,5.04,5.04,5.04,5.04,5.04,5.04,5.04,5.04,5.04,5.018,5.018,4.996,5.04,5.018,5.018,4.996,4.975,4.954,4.933,4.912,4.912,4.891,4.891,4.871,4.851,4.851,4.83,4.81,4.81,4.791,4.771,4.732,4.713,4.657,4.638,4.601,4.583,4.583,4.565,4.53,4.512,4.512,4.512,4.477,4.477,4.477,4.477,4.46,4.426,4.41,4.41,4.393,4.393,4.376,4.36,4.36,4.36,4.36,4.36,4.344,4.344,4.328,4.328,4.328,4.328,4.328,4.312,4.312,4.312,4.312,4.312,4.312,4.312,4.328,4.328,4.328,4.36,4.36,4.393,4.41,4.426,4.46,4.477,4.512,4.53,4.565,4.583,4.601,4.601,4.638,4.657,4.657,4.657,4.657,4.694,4.694,4.694,4.694,4.694,4.657,4.638,4.657,4.657,4.638,4.601,4.601,4.583,4.583,4.565,4.565,4.53,4.53,4.512,4.512,4.512,4.512,4.512,4.53,4.53,4.53,4.53,4.565,4.565,4.53,4.53,4.53,4.53,4.53,4.53,4.53,4.53,4.512,4.512,4.477,4.477,4.46,4.46,4.426,4.426,4.41,4.41,4.41,4.393,4.393,4.376,4.376,4.344,4.328,4.312,4.312,4.312,4.296,4.28,4.28,4.28,0.0,0.0,0.0,0.0
6.396,6.396,6.432,6.432,6.467,6.467,6.504,6.504,6.504,6.504,6.54,6.54,6.577,6.577,6.577,6.577,6.577,6.577,6.577,6.577,6.577,6.54,6.54,6.54,6.54,6.54,6.54,6.54,6.54,6.54,6.54,6.504,6.504,6.504,6.467,6.467,6.432,6.432,6.432,6.432,6.467,6.467,6.467,6.504,6.504,6.504,6.504,6.467,6.396,6.127,5.821,5.651,0.0,0.0,0.0,4.7219999999999995,4.5995,4.477,4.328,4.28,4.264,4.218,4.173,4.114,4.07,4.028,3.987,3.946,3.933,3.906,3.893,3.855,3.829,3.817,3.804,3.792,3.767,3.755,3.731,3.707,3.696,3.672,3.661,3.649,3.627,3.627,3.615,3.615,3.593,3.593,3.582,3.56,3.549,3.549,3.538,3.528,3.517,3.506,3.496,3.496,3.496,3.485,3.485,3.475,3.465,3.454,3.454,3.444,3.444,3.444,3.444,3.444,3.444,3.444,3.454,3.454,3.465,3.465,3.485,3.485,3.496,3.506,3.517,3.528,3.549,3.56,3.593,3.615,3.627,3.649,3.661,3.672,3.696,3.707,3.707,3.707,3.731,3.731,3.743,3.743,3.755,3.767,3.767,3.78,3.792,3.804,3.804,3.817,3.817,3.829,3.829,3.829,3.842,3.855,3.868,3.946,4.056,4.173,4.249,4.312,4.393,4.4785,4.583,4.752,4.851,4.912,5.084,5.244,5.465,5.57,5.679,5.763,5.821,5.85,5.85,5.85,5.85,5.85,5.85,5.85,5.909,5.94925,6.001,6.032,6.032,6.032,6.058999999999999,6.095,6.095,6.159,6.159,6.159,6.159,6.225,6.225,6.327,6.327,6.361,6.327,6.361,6.361,6.361,6.361,6.259,6.225,6.127,6.095,6.001,5.939,5.909,5.85,5.85,5.85,5.85,5.85,5.909,5.909,5.939,6.032,6.095,6.127,6.225,6.327,6.396,6.396,6.467,6.504,6.54,6.577,6.54,6.54,6.504,6.432,6.432,6.396,6.327,6.259,6.225,6.225,6.259,6.259,6.259,6.327,6.361,6.396,6.432,6.467,6.504,6.504,6.54,6.577,6.577,6.577,6.614,6.614,6.614,6.577,6.54,6.432,6.127,0.0,0.0,5.244,5.04,4.933,4.891,4.851,4.83,4.81,4.81,4.791,4.791,4.771,4.771,4.752,4.752,4.732,4.713,4.713,4.694,4.694,4.694,4.732,4.752,4.771,4.791,4.81,4.83,4.851,4.871,4.891,4.912,4.975,5.084,5.316,5.460999999999999,5.543,5.735,6.225,6.54,6.69,6.808,6.888,6.929,6.888,6.808,6.652,6.54,6.361,6.159,5.939,5.76725,5.624,5.57,5.57,5.543,5.517,5.491,5.491,5.491,5.491,5.491,5.517,5.543,5.543,5.57,5.57,5.57,5.57,5.57,5.57,5.57,5.543,5.517,5.465,5.415,5.34,5.316,5.268,5.22,5.22,5.174,5.174,5.151,5.151,5.151,5.151,5.151,5.174,5.174,5.174,5.22,5.174,5.174,5.174,5.174,5.174,5.174,5.174,5.174,5.151,5.151,5.174,5.174,5.174,5.151,5.174,5.174,5.174,5.151,5.151,5.106,5.106,5.106,5.084,5.084,5.04,5.018,5.018,5.018,5.018,5.018,5.018,5.018,5.018,5.018,5.018,5.018,5.018,5.018,5.018,5.018,5.018,4.996,4.996,4.975,4.954,4.933,4.933,4.933,4.933,4.912,4.912,4.891,4.891,4.871,4.871,4.851,4.851,4.83,4.83,4.81,4.791,4.771,4.732,4.713,4.694,4.638,4.601,4.583,4.565,4.53,4.53,4.477,4.477,4.477,4.46,4.46,4.426,4.426,4.426,4.426,4.41,4.393,4.376,4.376,4.36,4.36,4.344,4.328,4.328,4.328,4.328,4.312,4.312,4.312,4.296,4.28,4.28,4.28,4.264,4.264,4.264,4.264,4.264,4.28,4.28,4.28,4.296,4.312,4.328,4.344,4.36,4.393,4.41,4.46,4.477,4.512,4.565,4.583,4.601,4.601,4.638,4.657,4.694,4.694,4.694,4.713,4.713,4.694,4.694,4.694,4.638,4.638,4.601,4.601,4.601,4.583,4.565,4.565,4.565,4.565,4.565,4.53,4.53,4.512,4.512,4.512,4.512,4.512,4.512,4.512,4.512,4.53,4.53,4.53,4.53,4.53,4.565,4.565,4.565,4.53,4.53,4.53,4.53,4.512,4.512,4.512,4.477,4.477,4.46,4.426,4.426,4.41,4.41,4.41,4.41,4.393,4.393,4.376,4.36,4.328,4.328,4.312,4.312,4.312,4.296,4.28,4.28,0.0,0.0,0.0,0.0
6.396,6.396,6.432,6.432,6.467,6.467,6.467,6.504,6.504,6.504,6.54,6.54,6.54,6.54,6.577,6.577,6.577,6.577,6.577,6.577,6.577,6.54,6.54,6.54,6.54,6.54,6.54,6.54,6.54,6.504,6.504,6.467,6.467,6.432,6.396,6.396,6.361,6.361,6.361,6.327,6.327,6.361,6.361,6.361,6.396,6.396,6.361,6.159,6.001,5.679,5.543,0.0,0.0,0.0,0.0,4.36,4.264,4.249,4.203,4.173,4.128,4.07,4.028,3.987,3.973,3.933,3.92,3.893,3.88,3.868,3.842,3.817,3.804,3.804,3.767,3.755,3.731,3.696,3.661,3.649,3.627,3.627,3.615,3.593,3.582,3.582,3.56,3.549,3.549,3.538,3.528,3.528,3.517,3.506,3.506,3.496,3.496,3.485,3.485,3.485,3.475,3.465,3.465,3.454,3.454,3.454,3.444,3.444,3.444,3.444,3.444,3.444,3.444,3.444,3.454,3.454,3.465,3.465,3.485,3.485,3.496,3.506,3.517,3.528,3.549,3.56,3.593,3.615,3.627,3.649,3.661,3.672,3.696,3.696,3.707,3.707,3.731,3.731,3.743,3.743,3.755,3.755,3.767,3.767,3.78,3.792,3.792,3.804,3.804,3.817,3.817,3.817,3.829,3.842,3.868,3.933,4.07,4.203,0.0,4.369,4.4405,4.512,4.732,4.83,4.891,4.975,5.151,5.268,5.465,5.57,5.651,5.679,5.735,5.735,5.735,5.735,5.792,5.792,5.763,5.763,5.792,5.792,5.821,5.85,5.85,5.821,5.85,5.85,5.909,5.939,6.001,6.001,6.032,6.032,6.127,6.159,6.201499999999999,6.225,6.234500000000001,6.259,6.292999999999999,6.327,6.259,6.225,6.159,6.127,6.032,6.001,5.939,5.939,5.909,5.909,5.85,5.85,5.909,5.939,6.001,6.032,6.095,6.159,6.225,6.327,6.396,6.467,6.504,6.54,6.54,6.577,6.58625,6.577,6.54,6.54,6.467,6.432,6.396,6.327,6.259,6.225,6.225,6.225,6.225,6.225,6.259,6.327,6.327,6.327,6.361,6.396,6.396,6.432,6.467,6.467,6.467,6.504,6.504,6.467,6.361,6.159,5.939,0.0,0.0,0.0,4.912,4.851,4.81,4.732,4.657,4.638,4.601,4.583,4.583,4.565,4.565,4.565,4.565,4.565,4.53,4.53,4.565,4.565,4.565,4.565,4.583,4.638,4.694,4.713,4.732,4.752,4.791,4.81,4.83,4.851,4.891,4.954,5.106,5.415,5.4925,5.57,5.763,6.095,6.432,6.54,6.577,6.577,6.577,6.577,6.432,6.259,0.0,5.961,5.763,5.597,5.57,5.543,5.517,5.517,5.491,5.465,5.465,5.465,5.465,5.465,5.491,5.517,5.517,5.543,5.543,5.543,5.543,5.543,5.543,5.543,5.517,5.465,5.44,5.389,5.34,5.316,5.268,5.244,5.22,5.174,5.174,5.174,5.151,5.174,5.174,5.174,5.22,5.22,5.22,5.174,5.22,5.22,5.22,5.22,5.174,5.174,5.151,5.151,5.151,5.174,5.151,5.151,5.151,5.151,5.151,5.151,5.151,5.106,5.106,5.106,5.084,5.084,5.04,5.04,5.018,5.018,5.018,4.996,4.996,4.996,5.018,5.018,5.018,5.018,5.018,5.018,5.018,5.018,4.996,4.996,4.996,4.975,4.975,4.975,4.954,4.933,4.912,4.912,4.912,4.891,4.891,4.871,4.851,4.851,4.851,4.851,4.83,4.83,4.81,4.791,4.771,4.752,4.713,4.694,4.638,4.601,4.565,4.53,4.512,4.477,4.46,4.46,4.426,4.426,4.41,4.41,4.41,4.41,4.393,4.393,4.376,4.376,4.36,4.36,4.344,4.344,4.328,4.328,4.312,4.312,4.296,4.28,4.28,4.264,4.249,4.249,4.249,4.233,4.233,4.233,4.233,4.233,4.249,4.249,4.264,4.28,4.28,4.296,4.312,4.328,4.36,4.393,4.426,4.46,4.477,4.53,4.583,4.601,4.638,4.657,4.694,4.694,4.694,4.713,4.713,4.713,4.694,4.657,4.657,4.638,4.601,4.583,4.565,4.565,4.53,4.53,4.53,4.53,4.53,4.53,4.53,4.53,4.512,4.477,4.477,4.512,4.512,4.512,4.512,4.512,4.512,4.512,4.512,4.53,4.53,4.53,4.53,4.53,4.53,4.53,4.53,4.53,4.53,4.53,4.53,4.512,4.477,4.477,4.46,4.46,4.426,4.426,4.41,4.41,4.41,4.393,4.393,4.376,4.36,4.328,4.328,4.312,4.312,4.296,4.28,4.28,4.28,0.0,0.0,0.0,0.0
