0.516,0.516,0.516,0.516,0.516,0.515,0.514,0.513,0.512,0.511,0.51,0.509,0.509,0.509,0.509,0.508,0.507,0.507,0.506,0.504,0.503,0.503,0.502,0.502,0.501,0.499,0.499,0.498,0.498,0.496,0.496,0.496,0.496,0.496,0.496,0.496,0.495,0.495,0.495,0.495,0.495,0.495,0.495,0.495,0.495,0.495,0.494,0.493,0.492,0.49,0.489,0.488,0.488,0.488,0.488,0.487,0.487,0.486,0.485,0.485,0.484,0.484,0.483,0.483,0.483,0.482,0.482,0.482,0.481,0.481,0.48,0.478,0.478,0.477,0.476,0.476,0.476,0.476,0.475,0.475,0.475,0.475,0.475,0.475,0.475,0.474,0.473,0.473,0.472,0.472,0.471,0.47,0.47,0.47,0.47,0.47,0.469,0.469,0.469,0.468,0.468,0.467,0.466,0.465,0.464,0.463,0.463,0.463,0.463,0.463,0.463,0.463,0.462,0.462,0.462,0.461,0.46,0.46,0.46,0.46,0.459,0.458,0.458,0.457,0.457,0.457,0.456,0.456,0.456,0.456,0.456,0.457,0.457,0.457,0.457,0.456,0.455,0.455,0.454,0.453,0.453,0.452,0.452,0.452,0.452,0.451,0.451,0.451,0.45,0.45,0.449,0.448,0.447,0.447,0.447,0.447,0.446,0.446,0.446,0.446,0.445,0.444,0.444,0.443,0.443,0.442,0.442,0.442,0.441,0.441,0.441,0.441,0.441,0.441,0.441,0.44,0.44,0.44,0.438,0.438,0.437,0.437,0.437,0.43724999999999997,0.436,0.436,0.436,0.436,0.435,0.435,0.435,0.434,0.0,0.0,0.432,0.432,0.431,0.431,0.431,0.431,0.431,0.43,0.43,0.43,0.429,0.429,0.429,0.0,0.0,0.0,0.4255,0.425,0.425,0.425,0.424,0.424,0.424,0.424,0.424,0.424,0.423,0.423,0.422,0.422,0.421,0.421,0.421,0.42,0.42,0.42,0.42,0.42,0.42,0.419,0.419,0.419,0.418,0.417,0.417,0.416,0.416,0.416,0.416,0.415,0.415,0.415,0.415,0.415,0.415,0.415,0.415,0.415,0.415,0.415,0.0,0.0,0.0,0.412,0.412,0.411,0.411,0.41,0.409,0.409,0.408,0.408,0.408,0.408,0.407,0.407,0.407,0.407,0.406,0.406,0.406,0.406,0.405,0.405,0.404,0.404,0.404,0.403,0.403,0.402,0.402,0.402,0.402,0.401,0.401,0.401,0.401,0.401,0.4,0.4,0.4,0.4,0.399,0.399,0.399,0.398,0.398,0.398,0.397,0.397,0.397,0.397,0.396,0.396,0.0,0.0,0.396,0.396,0.396,0.396,0.395,0.394,0.394,0.394,0.393,0.393,0.392,0.391,0.391,0.391,0.39,0.391,0.391,0.39,0.389,0.389,0.389,0.389,0.389,0.389,0.388,0.388,0.387,0.386,0.385,0.385,0.385,0.385,0.385,0.385,0.385,0.385,0.385,0.385,0.385,0.384,0.384,0.383,0.383,0.383,0.382,0.381,0.381,0.381,0.381,0.381,0.38,0.38,0.379,0.379,0.379,0.378,0.378,0.378,0.378,0.378,0.377,0.377,0.377,0.377,0.376,0.376,0.375,0.375,0.374,0.374,0.374,0.374,0.373,0.373,0.373,0.373,0.373,0.373,0.373,0.372,0.372,0.372,0.372,0.372,0.371,0.371,0.371,0.371,0.371,0.37,0.37,0.369,0.369,0.369,0.367,0.367,0.366,0.366,0.366,0.366,0.366,0.366,0.366,0.366,0.365,0.365,0.365,0.362,0.362,0.362,0.361,0.361,0.361,0.361,0.361,0.361,0.361,0.36,0.36,0.36,0.359,0.359,0.359,0.359,0.359,0.359,0.359,0.0,0.0,0.0,0.358,0.358,0.357,0.357,0.357,0.357,0.356,0.355,0.355,0.355,0.355,0.355,0.355,0.355,0.355,0.355,0.354,0.354,0.354,0.353,0.352,0.352,0.352,0.352,0.352,0.352,0.352,0.352,0.352,0.352,0.352,0.352,0.351,0.0,0.0,0.0,0.0,0.348,0.348,0.348,0.348,0.347,0.0,0.0,0.346,0.346,0.345,0.345,0.345,0.345,0.345,0.344,0.345,0.344,0.344,0.344,0.344,0.344,0.344,0.344,0.344,0.344,0.344,0.343,0.343,0.343,0.342,0.342,0.341,0.341,0.341,0.0,0.0,0.0,0.0,0.0,0.0,0.0,0.0,0.0,0.0,0.0,0.0,0.0,0.0,0.0,0.0,0.0,0.0,0.0,0.0,0.0,0.0,0.0,0.0,0.0,0.0,0.0,0.0,0.0,0.0,0.0,0.0,0.0
0.515,0.514,0.514,0.512,0.511,0.51,0.51,0.51,0.509,0.509,0.508,0.508,0.507,0.507,0.506,0.504,0.503,0.502,0.502,0.502,0.501,0.501,0.5,0.498,0.497,0.496,0.495,0.495,0.495,0.495,0.495,0.495,0.495,0.495,0.494,0.494,0.494,0.493,0.493,0.493,0.493,0.493,0.493,0.493,0.492,0.491,0.489,0.489,0.489,0.488,0.487,0.486,0.485,0.485,0.484,0.484,0.483,0.483,0.482,0.482,0.482,0.482,0.482,0.482,0.481,0.481,0.48,0.479,0.478,0.477,0.477,0.476,0.476,0.475,0.475,0.475,0.474,0.474,0.474,0.473,0.473,0.473,0.473,0.473,0.472,0.472,0.471,0.47,0.469,0.469,0.469,0.469,0.468,0.468,0.468,0.468,0.467,0.467,0.466,0.465,0.464,0.464,0.464,0.463,0.462,0.462,0.462,0.462,0.462,0.461,0.461,0.46,0.46,0.46,0.459,0.459,0.458,0.458,0.458,0.458,0.457,0.457,0.456,0.456,0.455,0.454,0.453,0.453,0.452,0.453,0.452,0.452,0.452,0.453,0.45275000000000004,0.453,0.453,0.452,0.452,0.452,0.451,0.451,0.451,0.45,0.449,0.448,0.448,0.447,0.447,0.447,0.446,0.446,0.446,0.446,0.445,0.444,0.444,0.443,0.442,0.442,0.442,0.442,0.441,0.441,0.441,0.441,0.441,0.441,0.44,0.44,0.44,0.439,0.439,0.438,0.437,0.437,0.437,0.436,0.436,0.436,0.436,0.436,0.436,0.436,0.435,0.435,0.434,0.433,0.433,0.432,0.432,0.431,0.0,0.0,0.43,0.43,0.43,0.43,0.429,0.429,0.428,0.428,0.427,0.427,0.426,0.426,0.426,0.0,0.0,0.0,0.423,0.422,0.422,0.422,0.422,0.422,0.422,0.422,0.422,0.422,0.421,0.421,0.421,0.421,0.42,0.42,0.419,0.419,0.418,0.418,0.417,0.417,0.417,0.417,0.416,0.416,0.416,0.416,0.415,0.415,0.415,0.415,0.414,0.414,0.413,0.413,0.414,0.413,0.413,0.412,0.412,0.412,0.412,0.411,0.411,0.4105,0.41,0.41,0.409,0.409,0.408,0.40775,0.407,0.407,0.407,0.406,0.406,0.406,0.406,0.406,0.405,0.405,0.405,0.404,0.404,0.404,0.403,0.403,0.403,0.403,0.402,0.402,0.402,0.402,0.402,0.401,0.4,0.4,0.399,0.399,0.399,0.399,0.398,0.398,0.398,0.397,0.397,0.397,0.396,0.396,0.396,0.395,0.394,0.394,0.394,0.394,0.394,0.0,0.0,0.0,0.394,0.394,0.394,0.394,0.394,0.393,0.393,0.392,0.391,0.39,0.39,0.389,0.389,0.389,0.389,0.389,0.389,0.389,0.389,0.388,0.388,0.388,0.387,0.386,0.386,0.385,0.385,0.385,0.385,0.384,0.384,0.384,0.384,0.383,0.383,0.383,0.383,0.383,0.382,0.382,0.382,0.381,0.381,0.381,0.381,0.38,0.38,0.379,0.379,0.378,0.378,0.378,0.377,0.377,0.377,0.377,0.377,0.377,0.376,0.376,0.376,0.376,0.376,0.375,0.375,0.374,0.374,0.374,0.373,0.373,0.373,0.373,0.373,0.373,0.373,0.373,0.372,0.371,0.371,0.37,0.37,0.37,0.37,0.369,0.369,0.369,0.369,0.369,0.369,0.369,0.369,0.367,0.366,0.366,0.366,0.366,0.366,0.365,0.365,0.365,0.365,0.365,0.364,0.364,0.362,0.362,0.362,0.362,0.361,0.361,0.36,0.36,0.36,0.359,0.359,0.359,0.359,0.359,0.358,0.358,0.358,0.358,0.358,0.358,0.358,0.358,0.357,0.0,0.0,0.0,0.356,0.355,0.355,0.355,0.355,0.355,0.355,0.355,0.354,0.354,0.354,0.353,0.353,0.353,0.353,0.353,0.352,0.352,0.352,0.352,0.351,0.351,0.351,0.351,0.351,0.351,0.351,0.351,0.351,0.351,0.351,0.35,0.3495,0.0,0.0,0.0,0.0,0.347,0.346,0.346,0.346,0.345,0.345,0.345,0.345,0.345,0.345,0.345,0.344,0.344,0.344,0.343,0.343,0.343,0.343,0.343,0.343,0.0,0.0,0.343,0.343,0.343,0.342,0.342,0.342,0.341,0.341,0.3405,0.33975,0.339,0.338,0.0,0.0,0.0,0.0,0.0,0.0,0.0,0.0,0.0,0.0,0.0,0.0,0.0,0.0,0.0,0.0,0.0,0.0,0.0,0.0,0.0,0.0,0.0,0.0,0.0,0.0,0.0,0.0,0.0,0.0,0.0,0.0,0.0
0.51,0.509,0.509,0.509,0.509,0.508,0.508,0.508,0.507,0.506,0.505,0.504,0.503,0.503,0.502,0.502,0.502,0.501,0.5,0.499,0.498,0.497,0.496,0.495,0.494,0.494,0.493,0.493,0.492,0.492,0.492,0.492,0.492,0.491,0.491,0.491,0.49,0.49,0.49,0.49,0.489,0.489,0.489,0.489,0.488,0.488,0.487,0.486,0.485,0.484,0.483,0.482,0.482,0.482,0.482,0.482,0.482,0.482,0.481,0.481,0.481,0.481,0.48,0.479,0.478,0.478,0.477,0.477,0.476,0.475,0.475,0.475,0.474,0.474,0.473,0.473,0.472,0.472,0.471,0.471,0.471,0.471,0.47,0.471,0.47,0.47,0.469,0.469,0.468,0.467,0.467,0.465,0.465,0.465,0.465,0.464,0.464,0.464,0.464,0.4635,0.463,0.462,0.462,0.461,0.46,0.46,0.459,0.459,0.459,0.459,0.458,0.458,0.458,0.458,0.458,0.457,0.457,0.457,0.456,0.456,0.455,0.455,0.453,0.453,0.453,0.452,0.452,0.452,0.451,0.451,0.451,0.45,0.449,0.449,0.448,0.452,0.451,0.451,0.45,0.449,0.449,0.448,0.448,0.447,0.447,0.447,0.446,0.446,0.446,0.445,0.443,0.443,0.442,0.442,0.442,0.441,0.441,0.441,0.441,0.441,0.441,0.441,0.441,0.44,0.44,0.44,0.439,0.438,0.437,0.437,0.436,0.436,0.436,0.436,0.436,0.436,0.436,0.435,0.435,0.435,0.434,0.434,0.434,0.433,0.432,0.432,0.431,0.431,0.43,0.43,0.43,0.429,0.429,0.428,0.428,0.427,0.427,0.427,0.426,0.426,0.426,0.426,0.425,0.425,0.425,0.424,0.423,0.0,0.0,0.0,0.421,0.421,0.421,0.421,0.421,0.421,0.421,0.421,0.421,0.42,0.42,0.42,0.42,0.419,0.419,0.418,0.417,0.416,0.416,0.416,0.416,0.416,0.416,0.416,0.415,0.415,0.415,0.414,0.414,0.414,0.413,0.412,0.412,0.412,0.412,0.411,0.411,0.411,0.411,0.411,0.411,0.41,0.409,0.409,0.408,0.407,0.407,0.406,0.406,0.406,0.406,0.406,0.406,0.405,0.405,0.405,0.405,0.405,0.404,0.404,0.403,0.403,0.403,0.403,0.402,0.402,0.402,0.402,0.402,0.402,0.402,0.401,0.401,0.401,0.4,0.4,0.399,0.399,0.398,0.398,0.397,0.397,0.397,0.396,0.395,0.394,0.394,0.394,0.394,0.394,0.393,0.393,0.393,0.393,0.393,0.393,0.393,0.0,0.0,0.0,0.392,0.392,0.392,0.392,0.391,0.391,0.391,0.39,0.389,0.389,0.388,0.388,0.388,0.388,0.388,0.388,0.388,0.387,0.386,0.386,0.386,0.385,0.385,0.385,0.385,0.384,0.384,0.383,0.383,0.382,0.382,0.382,0.382,0.381,0.381,0.381,0.381,0.381,0.381,0.381,0.381,0.38,0.38,0.38,0.0,0.0,0.3785,0.377,0.377,0.377,0.377,0.377,0.377,0.376,0.376,0.376,0.376,0.375,0.375,0.375,0.374,0.374,0.374,0.374,0.374,0.373,0.373,0.373,0.373,0.373,0.372,0.371,0.371,0.371,0.37,0.37,0.37,0.369,0.369,0.369,0.369,0.369,0.369,0.368,0.368,0.368,0.368,0.368,0.367,0.367,0.366,0.366,0.366,0.366,0.365,0.365,0.365,0.364,0.364,0.363,0.363,0.362,0.361,0.361,0.361,0.361,0.361,0.36,0.36,0.359,0.359,0.359,0.359,0.359,0.359,0.358,0.358,0.358,0.358,0.357,0.357,0.356,0.356,0.356,0.356,0.356,0.355,0.355,0.0,0.0,0.355,0.355,0.355,0.355,0.354,0.354,0.353,0.353,0.352,0.352,0.352,0.352,0.352,0.352,0.352,0.351,0.351,0.351,0.351,0.351,0.35,0.35,0.349,0.349,0.349,0.35,0.35,0.35,0.35,0.349,0.349,0.348,0.348,0.0,0.0,0.0,0.0,0.345,0.345,0.345,0.345,0.345,0.345,0.344,0.344,0.344,0.344,0.344,0.34324999999999994,0.343,0.343,0.343,0.342,0.342,0.342,0.342,0.342,0.0,0.0,0.342,0.341,0.341,0.341,0.341,0.34,0.339,0.339,0.339,0.3379375,0.337,0.337,0.0,0.0,0.0,0.0,0.0,0.0,0.0,0.0,0.0,0.0,0.0,0.0,0.0,0.0,0.0,0.0,0.0,0.0,0.0,0.0,0.0,0.0,0.0,0.0,0.0,0.0,0.0,0.0,0.0,0.0,0.0,0.0,0.0
0.508,0.507,0.507,0.506,0.505,0.504,0.504,0.504,0.503,0.503,0.502,0.502,0.501,0.501,0.5,0.499,0.499,0.497,0.496,0.496,0.495,0.494,0.493,0.492,0.491,0.491,0.49,0.49,0.49,0.489,0.489,0.489,0.489,0.489,0.489,0.488,0.488,0.488,0.488,0.488,0.487,0.487,0.487,0.487,0.485,0.484,0.483,0.482,0.482,0.481,0.481,0.48,0.48,0.48,0.48,0.48,0.48,0.479,0.478,0.478,0.478,0.477,0.477,0.476,0.476,0.476,0.475,0.475,0.474,0.473,0.473,0.472,0.472,0.471,0.47,0.47,0.47,0.469,0.469,0.469,0.469,0.469,0.469,0.469,0.468,0.467,0.466,0.465,0.465,0.464,0.464,0.464,0.463,0.463,0.463,0.463,0.463,0.463,0.0,0.0,0.46,0.459,0.458,0.458,0.458,0.458,0.457,0.457,0.457,0.457,0.457,0.457,0.457,0.456,0.455,0.455,0.454,0.453,0.453,0.453,0.452,0.452,0.452,0.452,0.451,0.451,0.45,0.449,0.448,0.448,0.447,0.447,0.447,0.447,0.447,0.446,0.446,0.446,0.447,0.447,0.447,0.446,0.446,0.446,0.445,0.445,0.443,0.442,0.442,0.441,0.441,0.441,0.441,0.441,0.441,0.44,0.44,0.44,0.44,0.439,0.439,0.438,0.438,0.437,0.436,0.436,0.436,0.436,0.435,0.435,0.435,0.435,0.434,0.434,0.434,0.434,0.434,0.434,0.433,0.433,0.432,0.432,0.432,0.431,0.43,0.43,0.43,0.429,0.429,0.427,0.427,0.426,0.426,0.426,0.426,0.425,0.425,0.425,0.425,0.425,0.425,0.425,0.423,0.422,0.421,0.421,0.421,0.421,0.42,0.42,0.419,0.419,0.419,0.419,0.419,0.419,0.419,0.419,0.418,0.418,0.418,0.418,0.417,0.416,0.416,0.416,0.416,0.416,0.415,0.415,0.415,0.415,0.414,0.414,0.414,0.413,0.412,0.412,0.412,0.412,0.411,0.411,0.411,0.411,0.411,0.411,0.41,0.41,0.41,0.409,0.408,0.408,0.407,0.407,0.406,0.406,0.406,0.405,0.405,0.405,0.405,0.405,0.404,0.404,0.404,0.403,0.403,0.403,0.402,0.402,0.402,0.402,0.402,0.402,0.402,0.402,0.402,0.401,0.401,0.401,0.4,0.399,0.399,0.399,0.399,0.398,0.398,0.397,0.397,0.397,0.396,0.395,0.394,0.393,0.393,0.393,0.393,0.393,0.393,0.392,0.392,0.391,0.391,0.391,0.391,0.39,0.39,0.39,0.39,0.389,0.389,0.39,0.39,0.0,0.0,0.389,0.389,0.388,0.388,0.387,0.386,0.386,0.0,0.3865,0.386,0.386,0.385,0.385,0.385,0.385,0.385,0.385,0.384,0.384,0.383,0.383,0.382,0.382,0.381,0.381,0.381,0.381,0.381,0.381,0.38,0.38,0.38,0.38,0.38,0.379,0.379,0.378,0.378,0.3785,0.0,0.0,0.377,0.376,0.376,0.376,0.375,0.375,0.375,0.375,0.374,0.374,0.374,0.374,0.373,0.373,0.373,0.373,0.373,0.373,0.373,0.373,0.372,0.372,0.372,0.371,0.37,0.37,0.369,0.369,0.369,0.369,0.369,0.368,0.367,0.367,0.367,0.367,0.367,0.366,0.366,0.366,0.366,0.366,0.366,0.366,0.365,0.365,0.36449999999999994,0.364,0.364,0.363,0.363,0.362,0.362,0.361,0.36,0.36,0.36,0.359,0.359,0.359,0.359,0.359,0.359,0.358,0.358,0.358,0.358,0.358,0.358,0.357,0.0,0.0,0.356,0.356,0.356,0.355,0.355,0.355,0.355,0.355,0.354,0.354,0.354,0.354,0.353,0.353,0.353,0.353,0.353,0.352,0.352,0.352,0.351,0.351,0.351,0.351,0.351,0.351,0.351,0.35,0.349,0.349,0.349,0.349,0.349,0.348,0.348,0.348,0.348,0.348,0.34824999999999995,0.348,0.0,0.0,0.0,0.346,0.345,0.345,0.345,0.345,0.344,0.345,0.344,0.344,0.344,0.344,0.344,0.343,0.343,0.342,0.342,0.342,0.342,0.342,0.342,0.342,0.342,0.342,0.341,0.341,0.341,0.34,0.34,0.34,0.34,0.339,0.0,0.0,0.338,0.338,0.338,0.337,0.336,0.336,0.0,0.0,0.0,0.0,0.0,0.0,0.0,0.0,0.0,0.0,0.0,0.0,0.0,0.0,0.0,0.0,0.0,0.0,0.0,0.0,0.0,0.0,0.0,0.0,0.0,0.0,0.0,0.0,0.0,0.0,0.0,0.0,0.0,0.0
0.504,0.504,0.503,0.503,0.502,0.502,0.502,0.501,0.501,0.501,0.5,0.499,0.498,0.497,0.496,0.496,0.495,0.495,0.493,0.493,0.492,0.491,0.49,0.489,0.489,0.488,0.488,0.488,0.488,0.488,0.488,0.488,0.487,0.487,0.486,0.486,0.486,0.486,0.485,0.485,0.485,0.484,0.484,0.483,0.482,0.482,0.481,0.481,0.479,0.478,0.478,0.478,0.477,0.477,0.477,0.477,0.476,0.476,0.476,0.476,0.475,0.475,0.475,0.473,0.473,0.473,0.472,0.471,0.47,0.47,0.47,0.47,0.469,0.469,0.469,0.468,0.468,0.467,0.467,0.466,0.466,0.466,0.466,0.466,0.465,0.465,0.4645,0.464,0.463,0.463,0.463,0.462,0.462,0.461,0.461,0.46,0.459,0.459,0.0,0.0,0.457,0.457,0.457,0.456,0.456,0.456,0.456,0.455,0.455,0.455,0.454,0.454,0.453,0.453,0.453,0.452,0.452,0.452,0.451,0.451,0.451,0.44975000000000004,0.449,0.448,0.448,0.447,0.447,0.447,0.447,0.446,0.446,0.446,0.446,0.446,0.445,0.445,0.445,0.445,0.445,0.444,0.446,0.445,0.444,0.442,0.442,0.441,0.441,0.441,0.441,0.44,0.44,0.44,0.439,0.438,0.438,0.438,0.437,0.437,0.437,0.436,0.436,0.436,0.436,0.436,0.435,0.435,0.434,0.433,0.433,0.433,0.432,0.432,0.432,0.432,0.432,0.431,0.432,0.431,0.431,0.431,0.431,0.43,0.43,0.429,0.429,0.428,0.427,0.426,0.426,0.425,0.425,0.425,0.425,0.424,0.424,0.423,0.423,0.422,0.422,0.422,0.421,0.421,0.421,0.42,0.42,0.42,0.419,0.419,0.418,0.417,0.417,0.417,0.416,0.4165,0.416,0.416,0.416,0.416,0.416,0.416,0.416,0.416,0.415,0.415,0.415,0.415,0.415,0.414,0.414,0.413,0.412,0.412,0.412,0.412,0.411,0.411,0.411,0.411,0.411,0.411,0.41,0.41,0.41,0.409,0.409,0.409,0.409,0.408,0.40775,0.407,0.407,0.406,0.406,0.406,0.405,0.405,0.404,0.404,0.404,0.403,0.403,0.403,0.403,0.402,0.402,0.402,0.402,0.402,0.402,0.401,0.401,0.401,0.401,0.4,0.4,0.399,0.399,0.399,0.399,0.398,0.398,0.397,0.397,0.397,0.397,0.397,0.396,0.396,0.394,0.394,0.394,0.393,0.393,0.392,0.391,0.391,0.391,0.39,0.39,0.39,0.39,0.39,0.389,0.389,0.389,0.389,0.389,0.389,0.389,0.388,0.388,0.388,0.0,0.0,0.0,0.0,0.385,0.385,0.385,0.385,0.385,0.3845,0.38475000000000004,0.385,0.385,0.385,0.384,0.384,0.384,0.384,0.383,0.383,0.382,0.382,0.382,0.381,0.381,0.381,0.38,0.38,0.38,0.38,0.379,0.379,0.379,0.378,0.378,0.378,0.378,0.377,0.377,0.377,0.377,0.377,0.0,0.0,0.374,0.374,0.374,0.374,0.373,0.373,0.373,0.373,0.373,0.373,0.373,0.373,0.372,0.372,0.372,0.371,0.372,0.372,0.371,0.37,0.37,0.37,0.37,0.369,0.369,0.369,0.368,0.368,0.367,0.367,0.366,0.366,0.366,0.366,0.366,0.366,0.366,0.365,0.365,0.365,0.365,0.365,0.365,0.364,0.364,0.363,0.363,0.363,0.362,0.362,0.362,0.359,0.359,0.359,0.359,0.359,0.358,0.358,0.358,0.358,0.358,0.358,0.358,0.358,0.357,0.357,0.357,0.357,0.356,0.356,0.0,0.0,0.355,0.355,0.355,0.355,0.354,0.354,0.353,0.353,0.352,0.352,0.352,0.352,0.352,0.352,0.352,0.352,0.352,0.351,0.351,0.351,0.351,0.35,0.35,0.349,0.349,0.349,0.349,0.0,0.0,0.348,0.348,0.348,0.348,0.348,0.347,0.347,0.347,0.347,0.347,0.3465,0.0,0.0,0.0,0.344,0.344,0.343,0.343,0.343,0.343,0.343,0.342,0.342,0.342,0.342,0.342,0.342,0.341,0.341,0.341,0.341,0.341,0.341,0.341,0.341,0.341,0.34,0.34,0.339,0.339,0.339,0.338,0.338,0.338,0.0,0.0,0.0,0.336,0.336,0.336,0.336,0.335,0.3355,0.0,0.0,0.0,0.0,0.0,0.0,0.0,0.0,0.0,0.0,0.0,0.0,0.0,0.0,0.0,0.0,0.0,0.0,0.0,0.0,0.0,0.0,0.0,0.0,0.0,0.0,0.0,0.0,0.0,0.0,0.0,0.0,0.0,0.0
0.502,0.502,0.501,0.5,0.5,0.499,0.499,0.498,0.497,0.497,0.496,0.495,0.495,0.495,0.494,0.494,0.492,0.491,0.49,0.489,0.489,0.488,0.488,0.488,0.487,0.487,0.486,0.485,0.485,0.485,0.485,0.485,0.484,0.484,0.484,0.484,0.483,0.483,0.483,0.4835,0.482875,0.482,0.482,0.482,0.481,0.479,0.478,0.477,0.476,0.476,0.476,0.476,0.475,0.475,0.475,0.475,0.475,0.475,0.474,0.474,0.472,0.471,0.471,0.47,0.47,0.47,0.47,0.469,0.469,0.468,0.468,0.467,0.467,0.465,0.464,0.464,0.464,0.464,0.464,0.464,0.463,0.463,0.463,0.463,0.463,0.463,0.46125000000000005,0.461125,0.461,0.46,0.459,0.459,0.459,0.458,0.458,0.458,0.457,0.457,0.457,0.456,0.455,0.454,0.453,0.453,0.453,0.453,0.453,0.452,0.452,0.452,0.452,0.452,0.452,0.452,0.451,0.451,0.45,0.449,0.448,0.447,0.447,0.447,0.447,0.446,0.446,0.446,0.446,0.446,0.446,0.445,0.445,0.444,0.444,0.444,0.443,0.443,0.442,0.442,0.442,0.441,0.441,0.44,0.441,0.441,0.441,0.44,0.44,0.439,0.438,0.438,0.437,0.437,0.436,0.436,0.436,0.436,0.436,0.436,0.435,0.435,0.435,0.434,0.433,0.433,0.432,0.431,0.431,0.431,0.431,0.431,0.431,0.431,0.431,0.43,0.43,0.43,0.43,0.43,0.43,0.429,0.429,0.428,0.428,0.427,0.426,0.426,0.425,0.425,0.424,0.424,0.423,0.423,0.422,0.421,0.421,0.421,0.421,0.421,0.421,0.42,0.42,0.42,0.42,0.419,0.418,0.418,0.418,0.417,0.416,0.416,0.416,0.416,0.415,0.415,0.415,0.415,0.415,0.415,0.414,0.414,0.414,0.414,0.413,0.413,0.413,0.413,0.412,0.412,0.411,0.411,0.411,0.411,0.411,0.41,0.41,0.41,0.409,0.409,0.409,0.409,0.408,0.408,0.408,0.407,0.407,0.407,0.407,0.406,0.406,0.406,0.405,0.405,0.404,0.404,0.403,0.403,0.402,0.402,0.402,0.402,0.402,0.402,0.402,0.402,0.402,0.402,0.401,0.401,0.4,0.4,0.399,0.399,0.399,0.398,0.398,0.398,0.398,0.397,0.397,0.397,0.397,0.396,0.396,0.396,0.395,0.394,0.394,0.393,0.393,0.393,0.39175000000000004,0.391,0.39,0.39,0.389,0.389,0.389,0.389,0.389,0.389,0.389,0.389,0.388,0.388,0.388,0.388,0.387,0.387,0.386,0.386,0.386,0.385,0.0,0.0,0.0,0.0,0.384,0.384,0.384,0.384,0.384,0.383,0.383,0.383,0.383,0.382,0.382,0.382,0.382,0.382,0.382,0.381,0.381,0.381,0.381,0.381,0.38,0.379,0.379,0.378,0.378,0.378,0.378,0.377,0.377,0.377,0.377,0.377,0.377,0.377,0.376,0.376,0.376,0.374,0.3735,0.373,0.373,0.373,0.373,0.373,0.373,0.373,0.372,0.372,0.371,0.371,0.371,0.37,0.37,0.37,0.37,0.37,0.369,0.369,0.369,0.369,0.369,0.368,0.368,0.368,0.367,0.366,0.366,0.366,0.366,0.366,0.365,0.365,0.364,0.364,0.364,0.364,0.364,0.364,0.363,0.364,0.363,0.363,0.363,0.363,0.362,0.362,0.362,0.361,0.359,0.36,0.358,0.358,0.358,0.358,0.357,0.357,0.357,0.357,0.357,0.357,0.357,0.357,0.357,0.356,0.356,0.356,0.356,0.355,0.355,0.355,0.355,0.354,0.354,0.353,0.353,0.353,0.353,0.352,0.352,0.351,0.351,0.351,0.351,0.351,0.351,0.351,0.351,0.351,0.35,0.35,0.349,0.349,0.349,0.349,0.348,0.348,0.348,0.348,0.0,0.0,0.0,0.346,0.346,0.346,0.346,0.346,0.3455,0.345375,0.345,0.345,0.345,0.345,0.0,0.0,0.0,0.342,0.342,0.342,0.342,0.342,0.342,0.342,0.342,0.342,0.341,0.341,0.341,0.341,0.339,0.3395,0.34,0.34,0.34,0.34,0.34,0.34,0.34,0.339,0.339,0.338,0.338,0.337,0.337,0.336,0.336,0.0,0.0,0.0,0.335,0.335,0.335,0.335,0.335,0.335,0.0,0.0,0.0,0.0,0.0,0.0,0.0,0.0,0.0,0.0,0.0,0.0,0.0,0.0,0.0,0.0,0.0,0.0,0.0,0.0,0.0,0.0,0.0,0.0,0.0,0.0,0.0,0.0,0.0,0.0,0.0,0.0,0.0,0.0
0.499,0.498,0.497,0.497,0.496,0.496,0.495,0.495,0.495,0.495,0.494,0.492,0.491,0.491,0.49,0.489,0.489,0.488,0.488,0.487,0.487,0.486,0.486,0.485,0.484,0.483,0.483,0.483,0.483,0.483,0.483,0.482,0.482,0.482,0.482,0.482,0.482,0.482,0.482,0.482,0.481,0.481,0.478,0.477,0.476,0.476,0.476,0.475,0.475,0.474,0.474,0.473,0.473,0.473,0.472,0.472,0.471,0.471,0.471,0.47,0.47,0.47,0.469,0.469,0.468,0.468,0.467,0.466,0.0,0.465,0.464,0.464,0.463,0.463,0.463,0.462,0.462,0.462,0.462,0.462,0.461,0.461,0.462,0.461,0.461,0.46,0.458,0.458,0.458,0.458,0.457,0.457,0.457,0.457,0.456,0.456,0.455,0.454,0.453,0.452,0.452,0.452,0.452,0.452,0.452,0.451,0.451,0.451,0.451,0.451,0.45,0.449,0.449,0.449,0.448,0.448,0.447,0.446,0.446,0.446,0.446,0.446,0.445,0.445,0.444,0.444,0.444,0.444,0.443,0.442,0.442,0.442,0.442,0.441,0.441,0.441,0.441,0.441,0.44,0.439,0.439,0.438,0.437,0.437,0.439,0.438,0.437,0.436,0.436,0.436,0.436,0.435,0.435,0.435,0.434,0.434,0.434,0.433,0.433,0.432,0.432,0.431,0.431,0.431,0.43,0.43,0.43,0.429,0.429,0.429,0.429,0.429,0.429,0.428,0.428,0.428,0.428,0.428,0.427,0.427,0.426,0.426,0.426,0.425,0.425,0.425,0.424,0.423,0.0,0.422,0.421,0.421,0.421,0.421,0.42,0.42,0.42,0.419,0.419,0.418,0.418,0.418,0.417,0.417,0.4165,0.416,0.416,0.415,0.415,0.415,0.415,0.414,0.414,0.414,0.414,0.413,0.412,0.412,0.412,0.412,0.412,0.412,0.411,0.411,0.411,0.411,0.411,0.41,0.409,0.409,0.409,0.408,0.408,0.408,0.408,0.407,0.407,0.407,0.407,0.407,0.407,0.406,0.406,0.406,0.406,0.406,0.405,0.405,0.403,0.403,0.402,0.402,0.402,0.402,0.402,0.402,0.402,0.402,0.402,0.402,0.402,0.401,0.401,0.4,0.4,0.399,0.399,0.398,0.398,0.398,0.398,0.398,0.397,0.397,0.397,0.397,0.397,0.396,0.3955,0.0,0.0,0.394,0.394,0.394,0.393,0.393,0.393,0.0,0.391,0.39,0.389,0.389,0.389,0.389,0.388,0.388,0.388,0.388,0.388,0.387,0.387,0.386,0.386,0.386,0.386,0.385,0.385,0.385,0.385,0.385,0.385,0.384,0.384,0.384,0.384,0.383,0.383,0.383,0.382,0.382,0.382,0.382,0.382,0.381,0.381,0.381,0.381,0.381,0.381,0.381,0.381,0.381,0.38,0.379,0.379,0.378,0.378,0.378,0.377,0.377,0.377,0.377,0.377,0.377,0.376,0.376,0.376,0.376,0.375,0.374,0.373,0.373,0.373,0.373,0.373,0.373,0.372,0.372,0.371,0.371,0.371,0.371,0.37,0.37,0.37,0.369,0.369,0.369,0.369,0.369,0.369,0.369,0.3675,0.0,0.0,0.0,0.0,0.3665,0.366,0.366,0.365,0.36474999999999996,0.365,0.365,0.364,0.364,0.364,0.363,0.363,0.363,0.363,0.362,0.362,0.362,0.36175,0.362,0.362,0.362,0.362,0.362,0.361,0.359,0.359,0.358,0.358,0.356,0.356,0.356,0.356,0.356,0.356,0.356,0.356,0.356,0.356,0.356,0.356,0.356,0.355,0.355,0.355,0.355,0.355,0.355,0.353,0.353,0.353,0.352,0.352,0.352,0.352,0.352,0.351,0.351,0.351,0.351,0.351,0.35,0.35,0.35,0.0,0.0,0.0,0.348,0.348,0.348,0.348,0.348,0.348,0.348,0.347,0.347,0.346,0.345,0.0,0.0,0.0,0.344,0.344,0.344,0.344,0.344,0.344,0.344,0.344,0.343,0.342,0.342,0.342,0.342,0.342,0.341,0.341,0.341,0.341,0.342,0.341,0.0,0.0,0.0,0.3395,0.339,0.339,0.3395,0.3385,0.33875,0.339,0.339,0.339,0.339,0.34,0.34,0.0,0.0,0.0,0.337,0.337,0.335,0.335,0.335,0.335,0.334,0.334,0.334,0.333,0.334,0.333,0.334,0.334,0.0,0.0,0.0,0.0,0.0,0.0,0.0,0.0,0.0,0.0,0.0,0.0,0.0,0.0,0.0,0.0,0.0,0.0,0.0,0.0,0.0,0.0,0.0,0.0,0.0,0.0,0.0,0.0,0.0,0.0,0.0,0.0,0.0,0.0,0.0
0.496,0.495,0.495,0.495,0.495,0.494,0.493,0.493,0.491,0.49,0.489,0.489,0.488,0.488,0.488,0.487,0.487,0.486,0.485,0.484,0.483,0.483,0.482,0.482,0.482,0.482,0.482,0.482,0.481,0.481,0.481,0.481,0.481,0.481,0.481,0.481,0.481,0.48,0.48,0.479,0.477,0.476,0.475,0.475,0.475,0.474,0.473,0.472,0.471,0.471,0.47,0.47,0.47,0.47,0.47,0.47,0.47,0.469,0.469,0.469,0.469,0.468,0.467,0.466,0.465,0.464,0.463,0.4625,0.46225000000000005,0.462,0.461,0.461,0.46,0.46,0.459,0.459,0.459,0.459,0.458,0.458,0.458,0.458,0.458,0.458,0.457,0.0,0.0,0.0,0.456,0.455,0.455,0.455,0.455,0.454,0.453,0.452,0.452,0.452,0.451,0.451,0.45,0.449,0.449,0.449,0.449,0.448,0.448,0.448,0.447,0.447,0.447,0.446,0.446,0.446,0.446,0.446,0.445,0.444,0.444,0.443,0.443,0.443,0.442,0.442,0.442,0.442,0.441,0.441,0.441,0.441,0.44,0.44,0.44,0.439,0.439,0.438,0.438,0.437,0.437,0.436,0.436,0.436,0.436,0.435,0.434,0.433,0.436,0.435,0.434,0.434,0.433,0.433,0.432,0.432,0.432,0.431,0.431,0.431,0.431,0.431,0.43,0.43,0.43,0.429,0.428,0.427,0.427,0.427,0.427,0.427,0.426,0.426,0.426,0.426,0.426,0.426,0.425,0.425,0.425,0.425,0.425,0.425,0.424,0.423,0.422,0.421,0.421,0.42,0.42,0.42,0.42,0.42,0.42,0.419,0.419,0.418,0.418,0.417,0.417,0.416,0.416,0.416,0.416,0.415,0.415,0.415,0.415,0.414,0.414,0.413,0.413,0.412,0.412,0.412,0.412,0.411,0.411,0.411,0.411,0.411,0.411,0.41,0.41,0.41,0.41,0.409,0.408,0.407,0.407,0.407,0.407,0.406,0.406,0.406,0.406,0.406,0.406,0.406,0.406,0.406,0.406,0.406,0.405,0.405,0.404,0.404,0.403,0.402,0.402,0.402,0.401,0.401,0.401,0.401,0.4,0.4,0.4,0.4,0.4,0.4,0.399,0.399,0.398,0.398,0.398,0.398,0.397,0.396,0.396,0.396,0.396,0.395,0.395,0.394,0.394,0.394,0.394,0.394,0.394,0.0,0.0,0.393,0.392,0.392,0.392,0.391,0.0,0.0,0.389,0.389,0.388,0.388,0.387,0.386,0.386,0.386,0.386,0.386,0.385,0.385,0.385,0.385,0.385,0.385,0.385,0.385,0.385,0.384,0.384,0.384,0.383,0.383,0.382,0.382,0.382,0.382,0.382,0.381,0.381,0.381,0.381,0.381,0.381,0.38,0.38,0.379,0.379,0.379,0.379,0.379,0.0,0.0,0.0,0.377,0.377,0.377,0.377,0.377,0.377,0.377,0.377,0.376,0.376,0.376,0.3745,0.374375,0.374,0.373,0.373,0.373,0.372,0.372,0.371,0.371,0.371,0.37,0.37,0.369,0.369,0.369,0.369,0.369,0.369,0.369,0.369,0.369,0.369,0.368,0.368,0.367,0.367,0.366,0.366,0.0,0.0,0.0,0.0,0.365,0.364,0.364,0.363,0.363,0.363,0.363,0.363,0.363,0.362,0.362,0.362,0.362,0.362,0.361,0.36049999999999993,0.36,0.36,0.36,0.36,0.361,0.361,0.359,0.359,0.358,0.358,0.356,0.355,0.355,0.355,0.355,0.355,0.355,0.355,0.355,0.355,0.355,0.355,0.355,0.355,0.355,0.355,0.354,0.354,0.354,0.353,0.352,0.352,0.352,0.352,0.351,0.351,0.351,0.351,0.351,0.351,0.35,0.35,0.349,0.349,0.349,0.3485,0.3485,0.0,0.0,0.0,0.347,0.347,0.346,0.346,0.346,0.346,0.345,0.345,0.345,0.345,0.344,0.343,0.0,0.0,0.342,0.342,0.342,0.342,0.342,0.342,0.342,0.342,0.341,0.341,0.341,0.341,0.341,0.341,0.341,0.341,0.341,0.341,0.341,0.34,0.0,0.0,0.0,0.338,0.338,0.338,0.338,0.338,0.337375,0.33759375,0.338,0.338,0.339,0.339,0.339,0.0,0.0,0.0,0.336,0.335,0.335,0.335,0.334,0.333,0.333,0.333,0.333,0.332,0.332,0.333,0.0,0.0,0.0,0.0,0.0,0.0,0.0,0.0,0.0,0.0,0.0,0.0,0.0,0.0,0.0,0.0,0.0,0.0,0.0,0.0,0.0,0.0,0.0,0.0,0.0,0.0,0.0,0.0,0.0,0.0,0.0,0.0,0.0,0.0,0.0,0.0,0.0
0.494,0.493,0.493,0.492,0.491,0.49,0.489,0.489,0.488,0.488,0.488,0.487,0.487,0.486,0.485,0.484,0.483,0.482,0.482,0.482,0.482,0.482,0.481,0.481,0.481,0.48,0.48,0.479,0.479,0.478,0.478,0.478,0.479,0.479,0.479,0.479,0.477,0.477,0.476,0.476,0.475,0.474,0.472,0.471,0.471,0.47,0.47,0.469,0.469,0.469,0.469,0.469,0.46799999999999997,0.468,0.468,0.468,0.468,0.468,0.467,0.466,0.465,0.465,0.464,0.463,0.463,0.462,0.461,0.459,0.458,0.458,0.458,0.458,0.458,0.457,0.457,0.457,0.457,0.457,0.457,0.457,0.456,0.456,0.455,0.455,0.0,0.0,0.0,0.0,0.453,0.453,0.453,0.453,0.453,0.452,0.452,0.451,0.45,0.449,0.448,0.447,0.447,0.447,0.447,0.447,0.446,0.446,0.446,0.446,0.446,0.445,0.445,0.444,0.444,0.444,0.443,0.443,0.442,0.442,0.441,0.441,0.441,0.441,0.441,0.441,0.441,0.44,0.44,0.439,0.439,0.438,0.437,0.437,0.436,0.436,0.436,0.436,0.436,0.435,0.435,0.435,0.435,0.433,0.433,0.432,0.432,0.431,0.431,0.431,0.43,0.431,0.431,0.431,0.431,0.431,0.43,0.43,0.43,0.43,0.429,0.429,0.429,0.427,0.427,0.427,0.426,0.426,0.426,0.425,0.425,0.425,0.425,0.425,0.424,0.424,0.42374999999999996,0.424,0.423,0.423,0.423,0.423,0.422,0.421,0.421,0.421,0.42,0.42,0.419,0.419,0.418,0.418,0.418,0.418,0.417,0.417,0.417,0.416,0.416,0.415,0.415,0.415,0.414,0.414,0.414,0.4135,0.413,0.413,0.412,0.412,0.412,0.412,0.411,0.411,0.411,0.411,0.411,0.41,0.409,0.408,0.408,0.408,0.407,0.407,0.407,0.407,0.407,0.407,0.406,0.406,0.406,0.405,0.405,0.405,0.404,0.404,0.404,0.404,0.404,0.403,0.404,0.404,0.404,0.404,0.403,0.403,0.402,0.402,0.402,0.401,0.4,0.4,0.399,0.399,0.399,0.399,0.398,0.398,0.398,0.398,0.398,0.398,0.397,0.397,0.3965,0.396,0.395,0.395,0.394,0.394,0.394,0.394,0.394,0.393,0.393,0.393,0.393,0.393,0.393,0.393,0.392,0.391,0.39,0.39,0.39,0.389,0.389,0.389,0.3885,0.388,0.387,0.386,0.386,0.386,0.385,0.385,0.385,0.385,0.385,0.385,0.384,0.384,0.384,0.384,0.384,0.383,0.383,0.0,0.0,0.382,0.382,0.382,0.381,0.381,0.381,0.381,0.381,0.381,0.381,0.381,0.38,0.379,0.379,0.379,0.379,0.378,0.378,0.377,0.377,0.377,0.377,0.377,0.0,0.0,0.0,0.3755,0.376,0.376,0.376,0.376,0.376,0.376,0.376,0.375,0.374,0.373,0.373,0.373,0.373,0.372,0.371,0.371,0.37,0.37,0.37,0.37,0.369,0.369,0.369,0.368,0.368,0.368,0.368,0.368,0.367,0.367,0.367,0.367,0.367,0.366,0.366,0.366,0.366,0.365,0.364,0.364,0.364,0.3635,0.363,0.363,0.362,0.362,0.362,0.362,0.362,0.362,0.362,0.362,0.362,0.362,0.361,0.361,0.36,0.359,0.359,0.359,0.359,0.359,0.358,0.358,0.358,0.358,0.358,0.356,0.35575,0.355,0.354,0.354,0.354,0.353,0.353,0.353,0.353,0.353,0.353,0.353,0.353,0.354,0.354,0.354,0.353,0.353,0.352,0.352,0.352,0.352,0.351,0.351,0.351,0.351,0.351,0.35,0.35,0.349,0.348,0.348,0.348,0.348,0.348,0.348,0.347,0.347,0.0,0.0,0.0,0.345,0.345,0.345,0.345,0.345,0.345,0.344,0.344,0.343,0.342,0.342,0.342,0.341,0.341,0.341,0.341,0.341,0.341,0.341,0.341,0.34075,0.341,0.341,0.34,0.34,0.34,0.34,0.34,0.339,0.339,0.339,0.339,0.339,0.339,0.0,0.0,0.337,0.336,0.336,0.336,0.336,0.336,0.336,0.336,0.336,0.337,0.338,0.338,0.0,0.0,0.0,0.0,0.335,0.335,0.334,0.334,0.333,0.333,0.332,0.332,0.332,0.332,0.332,0.332,0.0,0.0,0.0,0.0,0.0,0.0,0.0,0.0,0.0,0.0,0.0,0.0,0.0,0.0,0.0,0.0,0.0,0.0,0.0,0.0,0.0,0.0,0.0,0.0,0.0,0.0,0.0,0.0,0.0,0.0,0.0,0.0,0.0,0.0,0.0,0.0,0.0
0.49,0.489,0.489,0.489,0.488,0.488,0.487,0.487,0.486,0.486,0.485,0.484,0.483,0.482,0.482,0.482,0.481,0.481,0.481,0.48,0.48,0.479,0.479,0.478,0.478,0.477,0.477,0.476,0.476,0.476,0.476,0.476,0.477,0.477,0.476,0.476,0.476,0.475,0.475,0.473,0.471,0.47,0.47,0.469,0.469,0.468,0.468,0.468,0.467,0.467,0.466,0.466,0.465,0.465,0.465,0.464,0.464,0.464,0.464,0.463,0.463,0.462,0.461,0.46,0.459,0.458,0.458,0.457,0.457,0.456,0.455,0.455,0.455,0.455,0.455,0.454,0.454,0.454,0.454,0.454,0.453,0.4535,0.453,0.452,0.0,0.0,0.452,0.452,0.452,0.452,0.452,0.451,0.451,0.45,0.449,0.448,0.447,0.447,0.446,0.446,0.446,0.445,0.444,0.444,0.444,0.443,0.443,0.443,0.443,0.442,0.442,0.442,0.441,0.441,0.441,0.441,0.441,0.44,0.44,0.44,0.44,0.439,0.439,0.438,0.438,0.437,0.437,0.437,0.436,0.436,0.436,0.435,0.435,0.435,0.434,0.434,0.434,0.433,0.432,0.432,0.431,0.431,0.431,0.431,0.43,0.43,0.43,0.429,0.429,0.429,0.428,0.43,0.429,0.429,0.428,0.428,0.427,0.427,0.426,0.426,0.426,0.425,0.425,0.425,0.425,0.425,0.424,0.424,0.423,0.423,0.422,0.422,0.421,0.421,0.421,0.421,0.421,0.421,0.421,0.4205,0.0,0.0,0.419,0.419,0.418,0.417,0.417,0.417,0.416,0.416,0.416,0.416,0.416,0.415,0.415,0.415,0.414,0.414,0.413,0.412,0.412,0.412,0.411,0.411375,0.411,0.411,0.411,0.411,0.411,0.41,0.41,0.41,0.41,0.408,0.407,0.407,0.407,0.407,0.406,0.406,0.406,0.40575000000000006,0.406,0.406,0.406,0.405,0.404,0.404,0.403,0.403,0.403,0.402,0.402,0.402,0.402,0.402,0.402,0.402,0.402,0.402,0.402,0.402,0.402,0.402,0.402,0.401,0.4,0.399,0.399,0.398,0.398,0.398,0.398,0.398,0.397,0.397,0.397,0.397,0.397,0.396,0.0,0.0,0.0,0.394,0.39325000000000004,0.393,0.3925,0.3925,0.39237500000000003,0.393,0.392,0.391,0.39125,0.392,0.391,0.39,0.39,0.39,0.389,0.389,0.389,0.388,0.388,0.388,0.388,0.387,0.386,0.386,0.385,0.385,0.385,0.385,0.385,0.384,0.384,0.384,0.384,0.383,0.383,0.382,0.382,0.382,0.382,0.381,0.381,0.0,0.0,0.381,0.381,0.381,0.38,0.38,0.38,0.38,0.38,0.379,0.379,0.379,0.378,0.377,0.377,0.377,0.377,0.377,0.377,0.377,0.376,0.376,0.376,0.375,0.0,0.0,0.374,0.374,0.374,0.374,0.375,0.375,0.375,0.375,0.374,0.374,0.373,0.373,0.372,0.371,0.371,0.37,0.37,0.369,0.369,0.369,0.368,0.368,0.368,0.367,0.367,0.0,0.0,0.0,0.366,0.366,0.366,0.366,0.366,0.366,0.366,0.36475,0.364,0.364,0.364,0.363,0.363,0.363,0.363,0.362,0.362,0.362,0.362,0.362,0.362,0.362,0.361,0.361,0.361,0.361,0.36,0.359,0.359,0.359,0.358,0.358,0.358,0.358,0.356,0.356,0.356,0.356,0.0,0.0,0.0,0.0,0.354,0.353,0.3525,0.352375,0.352,0.352,0.352,0.352,0.352,0.352,0.352,0.352,0.352,0.352,0.352,0.352,0.352,0.3515,0.351,0.351,0.351,0.351,0.0,0.0,0.35,0.349,0.349,0.348,0.348,0.348,0.348,0.347,0.347,0.347,0.346,0.346,0.346,0.345,0.345,0.345,0.345,0.344,0.344,0.344,0.344,0.343,0.343,0.342,0.342,0.342,0.341,0.341,0.341,0.34,0.34,0.34,0.339,0.339,0.34,0.34,0.339,0.339,0.339,0.339,0.339,0.339,0.339,0.339,0.338,0.338,0.338,0.338,0.337,0.337,0.336,0.0,0.0,0.335,0.335,0.335,0.335,0.335,0.335,0.335,0.334,0.0,0.0,0.0,0.0,0.0,0.0,0.0,0.0,0.0,0.333,0.332,0.332,0.332,0.332,0.332,0.332,0.331,0.331,0.331,0.331,0.0,0.0,0.0,0.0,0.0,0.0,0.0,0.0,0.0,0.0,0.0,0.0,0.0,0.0,0.0,0.0,0.0,0.0,0.0,0.0,0.0,0.0,0.0,0.0,0.0,0.0,0.0,0.0,0.0,0.0,0.0,0.0,0.0,0.0,0.0,0.0,0.0
0.488,0.488,0.487,0.487,0.486,0.485,0.484,0.483,0.483,0.482,0.482,0.481,0.481,0.48,0.48,0.479,0.479,0.478,0.478,0.478,0.477,0.477,0.476,0.476,0.476,0.476,0.476,0.475,0.475,0.475,0.475,0.475,0.475,0.475,0.475,0.475,0.474,0.473,0.471,0.47,0.469,0.469,0.468,0.467,0.467,0.466,0.466,0.465,0.465,0.464,0.464,0.464,0.464,0.464,0.463,0.463,0.462,0.462,0.461,0.46,0.459,0.458,0.458,0.457,0.457,0.456,0.454,0.453,0.453,0.452,0.452,0.452,0.452,0.452,0.452,0.452,0.452,0.452,0.452,0.452,0.45175,0.452,0.4505,0.45,0.0,0.0,0.451,0.45,0.45,0.449,0.449,0.448,0.448,0.447,0.447,0.446,0.446,0.445,0.443,0.442,0.442,0.442,0.441,0.441,0.441,0.441,0.441,0.441,0.441,0.441,0.441,0.44,0.44,0.44,0.439,0.438,0.437,0.437,0.437,0.437,0.437,0.436,0.436,0.436,0.436,0.436,0.436,0.435,0.435,0.434,0.434,0.433,0.432,0.432,0.431,0.431,0.431,0.431,0.431,0.43,0.43,0.43,0.43,0.429,0.429,0.428,0.428,0.427,0.426,0.426,0.426,0.426,0.425,0.426,0.426,0.426,0.425,0.425,0.425,0.425,0.424,0.424,0.423,0.423,0.422,0.422,0.422,0.421,0.421,0.421,0.42,0.42,0.42,0.42,0.419,0.419,0.419,0.419,0.419,0.418,0.0,0.0,0.417,0.416,0.416,0.416,0.416,0.416,0.415,0.415,0.414,0.414,0.0,0.0,0.412,0.412,0.412,0.411,0.411,0.411,0.411,0.411,0.41,0.41,0.41,0.409,0.409,0.408,0.408,0.408,0.407,0.407,0.407,0.406,0.406,0.406,0.405,0.405,0.405,0.404,0.404,0.404,0.0,0.0,0.403,0.402,0.402,0.402,0.402,0.402,0.402,0.402,0.401,0.401,0.401,0.401,0.401,0.4,0.401,0.401,0.4,0.4,0.3995,0.399,0.399,0.398,0.398,0.397,0.397,0.397,0.397,0.397,0.396,0.396,0.395,0.395,0.394,0.394,0.394,0.3935,0.0,0.0,0.0,0.3915,0.391,0.391,0.391,0.391,0.39,0.39,0.389,0.389,0.389,0.389,0.389,0.389,0.388,0.388,0.388,0.387,0.386,0.386,0.386,0.386,0.385,0.385,0.385,0.384,0.384,0.384,0.384,0.384,0.383,0.383,0.382,0.382,0.382,0.381,0.381,0.381,0.381,0.381,0.381,0.381,0.38,0.38,0.38,0.38,0.38,0.38,0.379,0.379,0.378,0.378,0.378,0.3775,0.377,0.377,0.0,0.0,0.376,0.376,0.376,0.376,0.376,0.0,0.3745,0.373,0.373,0.373,0.373,0.373,0.373,0.373,0.373,0.373,0.373,0.3735,0.373,0.373,0.373,0.372,0.371,0.37,0.37,0.369,0.369,0.369,0.369,0.368,0.368,0.367,0.366,0.366,0.366,0.366,0.365,0.0,0.0,0.0,0.365,0.365,0.364,0.364,0.364,0.364,0.3635,0.363,0.363,0.362,0.362,0.362,0.362,0.362,0.362,0.362,0.361,0.361,0.361,0.36,0.36,0.36,0.36,0.359,0.359,0.0,0.359,0.359,0.358,0.358,0.358,0.355,0.355,0.355,0.355,0.355,0.355,0.0,0.0,0.0,0.0,0.0,0.352,0.352,0.351,0.351,0.351,0.351,0.351,0.351,0.351,0.351,0.351,0.3505,0.3505,0.0,0.3505,0.35,0.35,0.35,0.35,0.35,0.349,0.349,0.0,0.0,0.348,0.348,0.348,0.347,0.347,0.347,0.346,0.346,0.345,0.345,0.345,0.345,0.345,0.344,0.343,0.343,0.343,0.342,0.343,0.342,0.342,0.342,0.342,0.342,0.341,0.34,0.34,0.339,0.339,0.339,0.339,0.339,0.339,0.339,0.339,0.339,0.338,0.338,0.338,0.338,0.338,0.338,0.337,0.33725,0.337,0.337,0.336,0.336,0.335,0.335,0.335,0.333,0.333,0.333,0.333,0.333,0.333,0.333,0.333,0.0,0.0,0.0,0.0,0.0,0.0,0.0,0.0,0.0,0.0,0.0,0.331,0.331,0.331,0.0,0.0,0.0,0.33,0.33,0.33,0.33,0.0,0.0,0.0,0.0,0.0,0.0,0.0,0.0,0.0,0.0,0.0,0.0,0.0,0.0,0.0,0.0,0.0,0.0,0.0,0.0,0.0,0.0,0.0,0.0,0.0,0.0,0.0,0.0,0.0,0.0,0.0,0.0,0.0,0.0,0.0,0.0,0.0,0.0
0.485,0.485,0.484,0.483,0.483,0.482,0.482,0.482,0.481,0.48,0.479,0.478,0.477,0.477,0.477,0.476,0.476,0.476,0.476,0.476,0.476,0.475,0.475,0.475,0.474,0.474,0.474,0.473,0.473,0.473,0.473,0.473,0.474,0.473,0.472,0.472,0.471,0.47,0.469,0.469,0.467,0.465,0.465,0.465,0.464,0.464,0.464,0.464,0.463,0.463,0.463,0.463,0.462,0.461,0.46,0.459,0.459,0.458,0.458,0.458,0.457,0.457,0.456,0.454,0.453,0.453,0.452,0.452,0.452,0.452,0.452,0.452,0.452,0.452,0.451,0.451,0.451,0.451,0.451,0.45,0.45,0.449,0.448,0.448,0.448,0.448,0.448,0.447,0.447,0.447,0.447,0.447,0.446,0.446,0.445,0.443,0.442,0.442,0.441,0.441,0.441,0.441,0.44,0.44,0.44,0.439,0.439,0.439,0.438,0.438,0.437,0.437,0.436,0.436,0.436,0.436,0.436,0.435,0.435,0.436,0.436,0.435,0.435,0.435,0.435,0.434,0.434,0.432,0.431,0.431,0.431,0.431,0.431,0.43,0.43,0.43,0.43,0.429,0.429,0.429,0.428,0.427,0.427,0.427,0.427,0.426,0.425,0.425,0.425,0.425,0.425,0.424,0.424,0.423,0.423,0.422,0.424,0.423,0.423,0.422,0.422,0.421,0.421,0.421,0.421,0.421,0.421,0.42,0.42,0.42,0.419,0.419,0.418,0.418,0.417,0.417,0.417,0.417,0.416,0.416,0.416,0.4155,0.415,0.415,0.415,0.415,0.415,0.414,0.414,0.413,0.412,0.412,0.0,0.0,0.4105,0.411,0.41,0.41,0.41,0.409,0.409,0.408,0.408,0.408,0.407,0.407,0.407,0.407,0.407,0.407,0.406,0.406,0.406,0.405,0.404,0.404,0.403,0.403,0.403,0.402,0.402,0.402,0.0,0.0,0.402,0.401,0.401,0.401,0.401,0.4,0.4,0.4,0.399,0.399,0.399,0.399,0.398,0.398,0.398,0.398,0.0,0.0,0.0,0.397,0.397,0.397,0.396,0.395,0.395,0.395,0.39475000000000005,0.394,0.394,0.394,0.393,0.393,0.393,0.393,0.392,0.391,0.0,0.0,0.389,0.389,0.389,0.389,0.389,0.389,0.389,0.388,0.388,0.388,0.388,0.387,0.387,0.386,0.386,0.386,0.386,0.385,0.385,0.385,0.385,0.384,0.385,0.384,0.383,0.383,0.382,0.382,0.382,0.382,0.381,0.381,0.381,0.381,0.381,0.38,0.38,0.38,0.379,0.379,0.378,0.378,0.378,0.378,0.378,0.377,0.377,0.377,0.377,0.37725000000000003,0.377,0.376,0.376,0.376,0.375,0.375,0.0,0.0,0.3745,0.374,0.374,0.374,0.373,0.373,0.373,0.373,0.372,0.372,0.371,0.371,0.371,0.372,0.372,0.373,0.373,0.373,0.373,0.372,0.371,0.37,0.369,0.369,0.368,0.368,0.367,0.367,0.367,0.366,0.366,0.366,0.366,0.365,0.365,0.364,0.363,0.363,0.363,0.363,0.363,0.363,0.362,0.362,0.362,0.362,0.36212500000000003,0.362,0.362,0.362,0.362,0.361,0.361,0.361,0.36,0.359,0.359,0.359,0.359,0.359,0.359,0.359,0.359,0.358,0.358,0.358,0.358,0.35675,0.355,0.355,0.355,0.355,0.354,0.354,0.353,0.353,0.353,0.0,0.0,0.0,0.0,0.0,0.35,0.35,0.35,0.35,0.349,0.349,0.349,0.349,0.349,0.349,0.349,0.349,0.349,0.349,0.349,0.348,0.348,0.348,0.348,0.348,0.348,0.0,0.0,0.0,0.347,0.347,0.346,0.345,0.345,0.345,0.345,0.345,0.344,0.344,0.344,0.343,0.343,0.342,0.342,0.342,0.342,0.342,0.342,0.342,0.342,0.341,0.34,0.34,0.339,0.339,0.339,0.339,0.338,0.338,0.338,0.338,0.338,0.338,0.338,0.338,0.337,0.336,0.336,0.336,0.336,0.336,0.336,0.336,0.336,0.335,0.335,0.335,0.335,0.333,0.333,0.333,0.332,0.332,0.332,0.332,0.332,0.332,0.3325,0.0,0.0,0.0,0.0,0.0,0.0,0.0,0.0,0.0,0.0,0.329,0.329,0.0,0.0,0.0,0.0,0.0,0.329,0.329,0.329,0.0,0.0,0.0,0.0,0.0,0.0,0.0,0.0,0.0,0.0,0.0,0.0,0.0,0.0,0.0,0.0,0.0,0.0,0.0,0.0,0.0,0.0,0.0,0.0,0.0,0.0,0.0,0.0,0.0,0.0,0.0,0.0,0.0,0.0,0.0,0.0,0.0,0.0,0.0
0.483,0.482,0.482,0.482,0.481,0.48,0.479,0.478,0.477,0.477,0.476,0.476,0.475,0.475,0.475,0.475,0.474,0.474,0.474,0.473,0.473,0.473,0.472,0.472,0.472,0.472,0.472,0.471,0.471,0.471,0.471,0.471,0.471,0.471,0.47,0.47,0.469,0.467,0.465,0.465,0.464,0.463,0.463,0.463,0.463,0.463,0.463,0.462,0.462,0.46,0.46,0.459,0.459,0.458,0.458,0.458,0.457,0.457,0.457,0.456,0.455,0.453,0.453,0.452,0.452,0.452,0.451,0.451,0.45,0.45,0.449,0.449,0.449,0.449,0.449,0.449,0.448,0.448,0.448,0.447,0.447,0.447,0.446,0.446,0.446,0.446,0.446,0.446,0.446,0.446,0.445,0.445,0.444,0.442,0.441,0.441,0.441,0.441,0.44,0.44,0.439,0.438,0.438,0.437,0.437,0.436,0.436,0.436,0.436,0.436,0.436,0.435,0.435,0.435,0.435,0.434,0.434,0.433,0.434,0.434,0.433,0.433,0.433,0.432,0.431,0.431,0.431,0.43,0.43,0.43,0.429,0.429,0.429,0.428,0.427,0.427,0.427,0.426,0.426,0.426,0.425,0.425,0.425,0.425,0.424,0.424,0.423,0.423,0.422,0.422,0.421,0.421,0.421,0.421,0.421,0.421,0.42,0.42,0.421,0.421,0.421,0.42,0.42,0.42,0.42,0.42,0.419,0.419,0.418,0.418,0.417,0.417,0.416,0.416,0.416,0.416,0.415,0.415,0.415,0.415,0.415,0.414,0.413,0.414,0.414,0.414,0.413,0.412,0.412,0.411,0.411,0.411,0.41,0.41,0.409,0.408,0.408,0.408,0.407,0.407,0.407,0.406,0.406,0.406,0.406,0.406,0.406,0.406,0.406,0.406,0.405,0.404,0.404,0.403,0.403,0.402,0.402,0.402,0.401,0.401,0.4,0.4,0.4,0.399,0.399,0.399,0.399,0.399,0.398,0.398,0.398,0.398,0.398,0.398,0.398,0.397,0.397,0.397,0.397,0.397,0.0,0.0,0.0,0.395,0.394,0.394,0.394,0.394,0.394,0.393,0.393,0.393,0.393,0.393,0.392,0.392,0.391,0.389,0.389,0.389,0.389,0.389,0.388,0.388,0.387,0.387,0.387,0.387,0.386,0.386,0.385,0.385,0.385,0.385,0.385,0.385,0.385,0.385,0.385,0.385,0.384,0.383,0.383,0.383,0.383,0.382,0.382,0.381,0.381,0.381,0.381,0.381,0.381,0.38,0.38,0.379,0.379,0.378,0.378,0.377,0.377,0.377,0.377,0.377,0.377,0.377,0.377,0.376,0.376,0.376,0.376,0.376,0.375,0.374,0.374,0.373,0.373,0.373,0.0,0.0,0.373,0.373,0.372,0.373,0.372,0.372,0.371,0.37,0.37,0.37,0.37,0.37,0.37,0.369,0.0,0.0,0.37,0.37,0.37,0.369,0.369,0.368,0.367,0.367,0.366,0.366,0.366,0.366,0.365,0.365,0.365,0.364,0.363,0.363,0.362,0.362,0.362,0.362,0.362,0.362,0.362,0.362,0.362,0.362,0.362,0.361,0.361,0.361,0.361,0.361,0.36,0.36,0.359,0.359,0.359,0.358,0.358,0.358,0.358,0.358,0.358,0.358,0.358,0.358,0.358,0.35624999999999996,0.355,0.355,0.354,0.354,0.354,0.354,0.353,0.352,0.352,0.352,0.351,0.351,0.0,0.0,0.349,0.349,0.349,0.349,0.349,0.349,0.349,0.348,0.348,0.348,0.348,0.348,0.348,0.348,0.348,0.348,0.3475,0.347,0.347,0.346,0.346,0.345,0.34550000000000003,0.0,0.0,0.345,0.345,0.345,0.345,0.345,0.344,0.344,0.344,0.343,0.343,0.343,0.342,0.342,0.342,0.342,0.342,0.342,0.342,0.341,0.341,0.341,0.34,0.34,0.339,0.339,0.339,0.338,0.338,0.338,0.338,0.338,0.338,0.337,0.337,0.337,0.337,0.336,0.336,0.335,0.335,0.335,0.335,0.335,0.335,0.335,0.335,0.335,0.334,0.334,0.333,0.332,0.332,0.332,0.332,0.332,0.331,0.331,0.332,0.332,0.332,0.0,0.0,0.0,0.0,0.0,0.0,0.0,0.0,0.0,0.0,0.328,0.328,0.0,0.0,0.0,0.0,0.0,0.328,0.328,0.328,0.0,0.0,0.0,0.0,0.0,0.0,0.0,0.0,0.0,0.0,0.0,0.0,0.0,0.0,0.0,0.0,0.0,0.0,0.0,0.0,0.0,0.0,0.0,0.0,0.0,0.0,0.0,0.0,0.0,0.0,0.0,0.0,0.0,0.0,0.0,0.0,0.0,0.0,0.0
0.481,0.481,0.48,0.479,0.478,0.477,0.477,0.476,0.476,0.475,0.475,0.474,0.473,0.472,0.472,0.471,0.471,0.471,0.471,0.47,0.47,0.47,0.47,0.47,0.47,0.47,0.47,0.469,0.469,0.469,0.469,0.468,0.468,0.468,0.468,0.466,0.465,0.464,0.463,0.463,0.462,0.462,0.461,0.461,0.46,0.46,0.459,0.459,0.458,0.458,0.458,0.458,0.457,0.457,0.457,0.456,0.455,0.454,0.453,0.452,0.452,0.452,0.452,0.451,0.451,0.45,0.449,0.448,0.448,0.447,0.447,0.447,0.447,0.447,0.447,0.447,0.447,0.447,0.446,0.446,0.446,0.445,0.445,0.444,0.444,0.444,0.444,0.444,0.443,0.443,0.442,0.441,0.441,0.441,0.44,0.439,0.439,0.438,0.437,0.437,0.436,0.436,0.436,0.436,0.436,0.435,0.435,0.435,0.435,0.434,0.434,0.434,0.433,0.433,0.432,0.432,0.431,0.431,0.431,0.431,0.431,0.431,0.43,0.43,0.43,0.429,0.428,0.427,0.427,0.426,0.426,0.426,0.426,0.426,0.425,0.425,0.425,0.425,0.425,0.424,0.423,0.423,0.423,0.422,0.421,0.421,0.421,0.421,0.42,0.42,0.42,0.42,0.419,0.419,0.419,0.418,0.418,0.418,0.417,0.417,0.419,0.418,0.418,0.418,0.418,0.417,0.417,0.416,0.416,0.416,0.415,0.415,0.415,0.415,0.415,0.415,0.414,0.414,0.414,0.413,0.412,0.412,0.411,0.411,0.411,0.411,0.411,0.411,0.411,0.41,0.409,0.409,0.407,0.407,0.406,0.406,0.406,0.406,0.406,0.406,0.406,0.405,0.405,0.405,0.404,0.404,0.404,0.404,0.404,0.404,0.403,0.402,0.402,0.402,0.401,0.401,0.4,0.399,0.399,0.398,0.398,0.398,0.398,0.398,0.397,0.397,0.397,0.397,0.397,0.397,0.397,0.397,0.397,0.397,0.397,0.396,0.395,0.395,0.394,0.3945,0.0,0.0,0.0,0.393,0.393,0.393,0.393,0.393,0.393,0.392,0.391,0.391,0.391,0.391,0.39,0.389,0.389,0.389,0.388,0.387,0.386,0.386,0.386,0.385,0.385,0.385,0.385,0.385,0.385,0.385,0.384,0.384,0.384,0.384,0.384,0.384,0.384,0.383,0.383,0.383,0.382,0.382,0.381,0.381,0.381,0.381,0.381,0.381,0.381,0.38,0.38,0.38,0.379,0.379,0.378,0.377,0.377,0.377,0.377,0.377,0.376,0.376,0.376,0.376,0.376,0.376,0.375,0.375,0.374,0.374,0.374,0.373,0.373,0.372,0.371,0.371,0.371,0.37,0.37,0.37,0.37,0.37,0.37,0.37,0.37,0.369,0.369,0.369,0.369,0.368,0.369,0.369,0.369,0.0,0.0,0.0,0.0,0.369,0.3675,0.367,0.3665,0.366,0.3655,0.365,0.365,0.365,0.364,0.364,0.364,0.363,0.362,0.362,0.362,0.362,0.361,0.361,0.361,0.361,0.361,0.361,0.36,0.36,0.36,0.36,0.36,0.36,0.359,0.359,0.359,0.359,0.359,0.358,0.358,0.358,0.3575,0.356875,0.357,0.0,0.0,0.3565,0.357,0.356,0.356,0.355,0.355,0.354,0.354,0.353,0.352,0.352,0.352,0.352,0.351,0.351,0.35,0.35,0.349,0.349,0.348,0.348,0.348,0.348,0.348,0.348,0.348,0.348,0.348,0.348,0.348,0.348,0.348,0.348,0.347,0.347,0.347,0.346,0.345875,0.345,0.345,0.345,0.344,0.344,0.343,0.343,0.343,0.343,0.342,0.342,0.342,0.342,0.342,0.342,0.342,0.342,0.0,0.0,0.342,0.341,0.341,0.341,0.341,0.341,0.34,0.34,0.339,0.339,0.339,0.339,0.338,0.338,0.338,0.337,0.337,0.337,0.337,0.336,0.336,0.336,0.336,0.336,0.336,0.335,0.335,0.335,0.335,0.334,0.334,0.334,0.334,0.333,0.333,0.333,0.332,0.332,0.332,0.332,0.331,0.331,0.331,0.331,0.33,0.33,0.33,0.331,0.33,0.33,0.329,0.329,0.328,0.328,0.327,0.327,0.327,0.327,0.326,0.3265,0.326,0.326,0.326,0.3265,0.327,0.327,0.327,0.327,0.327,0.327,0.0,0.0,0.0,0.0,0.0,0.0,0.0,0.0,0.0,0.0,0.0,0.0,0.0,0.0,0.0,0.0,0.0,0.0,0.0,0.0,0.0,0.0,0.0,0.0,0.0,0.0,0.0,0.0,0.0,0.0,0.0,0.0,0.0,0.0,0.0,0.0,0.0,0.0
0.478,0.477,0.477,0.476,0.476,0.476,0.475,0.475,0.474,0.473,0.471,0.471,0.47,0.47,0.47,0.47,0.469,0.469,0.469,0.469,0.469,0.469,0.469,0.469,0.468,0.468,0.468,0.467,0.467,0.465,0.464,0.464,0.464,0.463,0.4635,0.463,0.463,0.462,0.461,0.46,0.459,0.458,0.458,0.458,0.458,0.458,0.457,0.457,0.457,0.457,0.456,0.456,0.455,0.45425000000000004,0.453,0.452,0.452,0.452,0.452,0.451,0.451,0.45,0.449,0.448,0.448,0.447,0.447,0.446,0.446,0.446,0.446,0.446,0.446,0.446,0.446,0.446,0.446,0.445,0.445,0.444,0.444,0.443,0.442,0.442,0.442,0.441,0.441,0.441,0.441,0.441,0.44,0.44,0.439,0.438,0.437,0.437,0.436,0.436,0.436,0.435,0.435,0.435,0.434,0.434,0.434,0.433,0.433,0.433,0.432,0.432,0.432,0.432,0.431,0.431,0.431,0.431,0.431,0.43,0.43,0.43,0.43,0.0,0.0,0.428,0.427,0.426,0.426,0.425,0.425,0.425,0.425,0.425,0.424,0.424,0.423,0.423,0.422,0.422,0.421,0.0,0.421,0.4205,0.42,0.42,0.42,0.42,0.419,0.418,0.418,0.418,0.417,0.417,0.417,0.417,0.416,0.416,0.416,0.416,0.416,0.415,0.415,0.415,0.414,0.416,0.416,0.0,0.0,0.415,0.414,0.414,0.414,0.413,0.413,0.413,0.412,0.412,0.412,0.412,0.412,0.411,0.411,0.411,0.411,0.41,0.41,0.41,0.0,0.0,0.0,0.407,0.407,0.406,0.406,0.406,0.405,0.405,0.405,0.405,0.404,0.404,0.403,0.403,0.403,0.403,0.402,0.402,0.402,0.402,0.402,0.402,0.401,0.401,0.4,0.399,0.399,0.398,0.398,0.398,0.397,0.397,0.397,0.397,0.397,0.396,0.396,0.396,0.396,0.397,0.396,0.396,0.395,0.395,0.394,0.394,0.3945000000000001,0.394,0.393,0.393,0.393,0.392,0.392,0.392,0.391,0.391,0.391,0.391,0.391,0.391,0.391,0.39,0.389,0.389,0.389,0.389,0.389,0.388,0.388,0.386,0.386,0.385,0.385,0.385,0.385,0.385,0.385,0.385,0.384,0.384,0.384,0.384,0.383,0.383,0.383,0.382,0.382,0.382,0.382,0.381,0.381,0.381,0.381,0.381,0.381,0.381,0.38,0.38,0.38,0.379,0.379,0.378,0.378,0.378,0.377,0.377,0.377,0.376,0.376,0.376,0.376,0.375,0.375,0.375,0.375,0.375,0.374,0.374,0.374,0.373,0.373,0.373,0.372,0.372,0.371,0.37,0.37,0.369,0.369,0.369,0.369,0.369,0.369,0.369,0.369,0.369,0.369,0.368,0.367,0.367,0.367,0.366,0.366,0.366,0.0,0.0,0.0,0.0,0.0,0.366,0.365,0.365,0.364,0.364,0.364,0.363,0.362,0.362,0.362,0.36224999999999996,0.362,0.362,0.362,0.362,0.361,0.361,0.36,0.36,0.359,0.359,0.359,0.359,0.359,0.359,0.359,0.359,0.358,0.358,0.358,0.358,0.358,0.357,0.357,0.357,0.356,0.356,0.356,0.355,0.355,0.0,0.0,0.355,0.354,0.354,0.353,0.353,0.353,0.353,0.352,0.351,0.351,0.351,0.351,0.351,0.35,0.349,0.348,0.348,0.348,0.348,0.348,0.347,0.347,0.347,0.347,0.347,0.347,0.347,0.347,0.347,0.347,0.347,0.346,0.346,0.345,0.345,0.345,0.345,0.345,0.344,0.344,0.343,0.342,0.342,0.342,0.342,0.342,0.342,0.341,0.341,0.341,0.341,0.341,0.341,0.341,0.341,0.0,0.0,0.34,0.339,0.339,0.339,0.339,0.339,0.339,0.338,0.0,0.0,0.0,0.0,0.337,0.337,0.336,0.336,0.336,0.336,0.336,0.336,0.336,0.335,0.335,0.335,0.335,0.334,0.334,0.333,0.333,0.332,0.332,0.332,0.332,0.332,0.332,0.332,0.3315,0.331,0.331,0.33,0.33,0.33,0.33,0.33,0.329,0.329,0.329,0.329,0.329,0.329,0.328,0.0,0.0,0.326,0.326,0.0,0.0,0.0,0.325,0.326,0.325,0.325,0.325,0.325,0.325,0.326,0.326,0.326,0.326,0.0,0.0,0.0,0.0,0.0,0.0,0.0,0.0,0.0,0.0,0.0,0.0,0.0,0.0,0.0,0.0,0.0,0.0,0.0,0.0,0.0,0.0,0.0,0.0,0.0,0.0,0.0,0.0,0.0,0.0,0.0,0.0,0.0,0.0,0.0,0.0,0.0,0.0,0.0
0.476,0.475,0.475,0.474,0.474,0.473,0.473,0.471,0.47,0.47,0.47,0.469,0.469,0.469,0.468,0.468,0.468,0.467,0.467,0.467,0.466,0.466,0.467,0.467,0.466,0.466,0.464,0.464,0.463,0.4625,0.462,0.461,0.46,0.46,0.46,0.459,0.458,0.458,0.458,0.457,0.457,0.457,0.456,0.456,0.456,0.455,0.455,0.455,0.454,0.454,0.453,0.453,0.452,0.452,0.452,0.451,0.451,0.45,0.449,0.448,0.448,0.448,0.447,0.447,0.446,0.446,0.446,0.445,0.445,0.445,0.445,0.445,0.445,0.444,0.444,0.444,0.444,0.444,0.443,0.442,0.442,0.442,0.441,0.441,0.441,0.44,0.44,0.44,0.439,0.438,0.437,0.436,0.436,0.436,0.436,0.435,0.435,0.435,0.434,0.433,0.433,0.432,0.432,0.432,0.432,0.431,0.431,0.431,0.431,0.431,0.431,0.431,0.431,0.431,0.43,0.43,0.429,0.429,0.429,0.428,0.427,0.0,0.0,0.426,0.425,0.425,0.425,0.423,0.423,0.423,0.422,0.422,0.421,0.421,0.421,0.421,0.42,0.42,0.42,0.4195,0.419,0.418,0.417,0.417,0.417,0.417,0.416,0.416,0.416,0.416,0.416,0.416,0.416,0.415,0.415,0.415,0.414,0.414,0.414,0.413,0.413,0.412,0.412,0.411,0.411,0.0,0.0,0.413,0.412,0.411,0.411,0.411,0.411,0.411,0.411,0.0,0.0,0.411,0.411,0.411,0.411,0.41,0.409,0.409,0.409,0.408,0.0,0.0,0.0,0.406,0.406,0.405,0.405,0.404,0.403,0.403,0.403,0.402,0.402,0.0,0.4015,0.402,0.402,0.402,0.401,0.401,0.401,0.39975000000000005,0.399,0.399,0.398,0.398,0.398,0.398,0.397,0.397,0.397,0.397,0.396,0.396,0.396,0.396,0.395,0.395,0.3945,0.39437500000000003,0.394,0.395,0.394,0.394,0.394,0.393,0.393,0.393,0.393,0.392,0.391,0.391,0.39,0.39,0.39,0.39,0.389,0.389,0.389,0.389,0.389,0.389,0.389,0.389,0.389,0.388,0.388,0.387,0.387,0.386,0.386,0.385,0.385,0.385,0.385,0.384,0.383,0.0,0.0,0.382,0.38225,0.382,0.382,0.382,0.381,0.381,0.381,0.381,0.381,0.381,0.381,0.38,0.381,0.38,0.38,0.379,0.379,0.379,0.378,0.378,0.377,0.377,0.377,0.377,0.377,0.377,0.376,0.376,0.375,0.375,0.375,0.374,0.374,0.374,0.373,0.373,0.373,0.373,0.373,0.373,0.372,0.372,0.371,0.371,0.37,0.37,0.369,0.369,0.369,0.369,0.369,0.369,0.369,0.369,0.368,0.367,0.367,0.367,0.367,0.366,0.366,0.366,0.366,0.366,0.365,0.365,0.0,0.0,0.0,0.0,0.0,0.363,0.363,0.362,0.362,0.362,0.362,0.362,0.362,0.361,0.361,0.361,0.361,0.36,0.36,0.359,0.359,0.359,0.359,0.359,0.359,0.359,0.359,0.358,0.358,0.358,0.358,0.358,0.357,0.357,0.3565,0.3565,0.0,0.0,0.0,0.355,0.355,0.355,0.354,0.354,0.354,0.352,0.352,0.352,0.352,0.352,0.352,0.352,0.351,0.351,0.351,0.349,0.349,0.349,0.349,0.348,0.348,0.348,0.348,0.348,0.348,0.347,0.347,0.346,0.346,0.346,0.346,0.346,0.346,0.345,0.345,0.345,0.345,0.345,0.345,0.345,0.345,0.345,0.344,0.344,0.343,0.343,0.342,0.342,0.341,0.341,0.341,0.341,0.341,0.0,0.0,0.0,0.3395,0.34,0.339,0.339,0.339,0.339,0.339,0.339,0.338,0.338,0.338,0.338,0.338,0.338,0.337,0.0,0.0,0.0,0.0,0.0,0.335,0.335,0.335,0.335,0.335,0.335,0.335,0.335,0.335,0.335,0.334,0.334,0.333,0.332,0.332,0.332,0.331,0.332,0.331,0.332,0.331,0.331,0.0,0.0,0.0,0.0,0.33,0.329,0.329,0.329,0.329,0.329,0.329,0.329,0.329,0.329,0.328,0.328,0.0,0.0,0.0,0.326,0.326,0.0,0.0,0.0,0.324,0.324,0.324,0.324,0.324,0.324,0.324,0.324,0.324,0.0,0.0,0.0,0.0,0.0,0.0,0.0,0.0,0.0,0.0,0.0,0.0,0.0,0.0,0.0,0.0,0.0,0.0,0.0,0.0,0.0,0.0,0.0,0.0,0.0,0.0,0.0,0.0,0.0,0.0,0.0,0.0,0.0,0.0,0.0,0.0,0.0,0.0,0.0,0.0,0.0
0.473,0.472,0.47,0.47,0.47,0.47,0.47,0.469,0.469,0.468,0.468,0.467,0.467,0.466,0.466,0.465,0.465,0.465,0.465,0.464,0.464,0.464,0.464,0.463,0.463,0.463,0.462,0.461,0.4605,0.45925,0.458,0.458,0.457,0.457,0.457,0.457,0.457,0.456,0.455,0.455,0.454,0.453,0.453,0.453,0.453,0.453,0.452,0.452,0.452,0.452,0.452,0.451,0.45,0.449,0.449,0.448,0.448,0.448,0.447,0.447,0.447,0.447,0.446,0.446,0.445,0.445,0.444,0.444,0.443,0.443,0.443,0.443,0.443,0.443,0.442,0.442,0.442,0.442,0.441,0.441,0.441,0.44,0.44,0.439,0.439,0.438,0.437,0.437,0.436,0.436,0.435,0.435,0.435,0.434,0.433,0.433,0.432,0.432,0.432,0.431,0.431,0.431,0.431,0.431,0.431,0.431,0.43,0.43,0.43,0.43,0.43,0.43,0.43,0.43,0.429,0.428,0.428,0.427,0.426,0.426,0.425,0.0,0.0,0.424,0.422,0.422,0.421,0.421,0.421,0.421,0.421,0.42,0.42,0.42,0.42,0.419,0.418,0.417,0.417,0.416,0.416,0.416,0.416,0.415,0.415,0.415,0.415,0.415,0.415,0.414,0.414,0.414,0.414,0.413,0.412,0.412,0.412,0.412,0.411,0.411,0.411,0.411,0.411,0.41,0.409,0.409,0.409,0.411,0.41,0.41,0.41,0.41,0.41,0.41,0.0,0.0,0.0,0.0,0.409,0.409,0.409,0.408,0.407,0.407,0.406,0.406,0.0,0.0,0.0,0.403,0.403,0.403,0.403,0.402,0.402,0.402,0.402,0.402,0.401,0.4005,0.4,0.4,0.399,0.399,0.398,0.398,0.398,0.397,0.39675,0.397,0.396,0.396,0.396,0.396,0.395,0.394,0.394,0.394,0.394,0.394,0.394,0.394,0.393,0.393,0.393,0.393,0.393,0.393,0.393,0.393,0.393,0.392,0.392,0.391,0.391,0.39,0.389,0.389,0.389,0.389,0.389,0.389,0.389,0.389,0.389,0.389,0.389,0.388,0.388,0.388,0.387,0.386,0.386,0.386,0.385,0.385,0.385,0.384,0.383,0.383,0.382,0.382,0.382,0.0,0.0,0.381,0.381,0.381,0.381,0.381,0.38,0.38,0.38,0.379,0.379,0.379,0.378,0.378,0.378,0.0,0.378,0.377,0.377,0.377,0.377,0.377,0.376,0.376,0.376,0.375,0.375,0.374,0.374,0.373,0.373,0.373,0.373,0.373,0.373,0.373,0.373,0.373,0.373,0.373,0.372,0.3715,0.371,0.37,0.37,0.369,0.369,0.369,0.369,0.368,0.368,0.367,0.367,0.367,0.367,0.367,0.366,0.366,0.366,0.366,0.366,0.365,0.365,0.365,0.365,0.364,0.364,0.363,0.363,0.362,0.362,0.362,0.361,0.361,0.362,0.362,0.361,0.361,0.36,0.36,0.36,0.359,0.359,0.359,0.359,0.359,0.358,0.358,0.358,0.358,0.358,0.358,0.358,0.358,0.357,0.357,0.0,0.0,0.3565,0.356,0.355,0.355,0.355,0.355,0.0,0.0,0.0,0.353,0.353,0.352,0.351,0.351,0.351,0.351,0.351,0.351,0.351,0.351,0.351,0.351,0.35,0.349,0.0,0.0,0.348,0.34775,0.348,0.348,0.347,0.347,0.347,0.347,0.346,0.346,0.345,0.345,0.345,0.345,0.345,0.345,0.345,0.34474999999999995,0.345,0.345,0.345,0.345,0.344,0.344,0.344,0.343,0.342,0.342,0.341,0.341,0.341,0.34,0.34,0.34,0.339,0.339,0.339,0.0,0.0,0.0,0.338,0.338,0.338,0.338,0.338,0.338,0.337,0.337,0.337,0.337,0.336,0.337,0.336,0.336,0.336,0.0,0.0,0.0,0.0,0.335,0.335,0.335,0.335,0.335,0.335,0.335,0.335,0.335,0.334,0.333,0.333,0.333,0.332,0.331,0.3305,0.33037500000000003,0.33,0.33,0.33,0.33,0.33,0.33,0.0,0.0,0.0,0.0,0.329,0.329,0.329,0.329,0.328,0.328,0.328,0.0,0.0,0.327,0.327,0.327,0.0,0.0,0.325,0.3245,0.3245,0.0,0.0,0.0,0.324,0.324,0.324,0.324,0.323,0.324,0.323,0.324,0.324,0.0,0.0,0.0,0.0,0.0,0.0,0.0,0.0,0.0,0.0,0.0,0.0,0.0,0.0,0.0,0.0,0.0,0.0,0.0,0.0,0.0,0.0,0.0,0.0,0.0,0.0,0.0,0.0,0.0,0.0,0.0,0.0,0.0,0.0,0.0,0.0,0.0,0.0,0.0,0.0,0.0
0.465,0.469,0.468,0.468,0.468,0.468,0.467,0.466,0.465,0.465,0.464,0.464,0.464,0.464,0.463,0.463,0.463,0.463,0.462,0.462,0.462,0.462,0.462,0.461,0.461,0.0,0.0,0.458,0.458,0.456,0.456,0.455,0.455,0.454,0.454,0.454,0.454,0.453,0.453,0.452,0.452,0.452,0.452,0.452,0.451,0.451,0.451,0.451,0.45,0.449,0.449,0.448,0.447,0.447,0.447,0.447,0.446,0.446,0.446,0.446,0.446,0.446,0.444,0.443,0.443,0.442,0.442,0.442,0.442,0.441,0.441,0.441,0.441,0.441,0.441,0.441,0.441,0.44,0.439,0.438,0.438,0.437,0.437,0.436,0.436,0.436,0.435,0.435,0.435,0.433,0.432,0.432,0.432,0.431,0.431,0.431,0.431,0.431,0.431,0.43,0.43,0.43,0.43,0.43,0.43,0.43,0.429,0.429,0.429,0.429,0.429,0.429,0.429,0.428,0.428,0.427,0.426,0.426,0.425,0.425,0.422,0.421,0.421,0.421,0.42,0.42,0.42,0.42,0.42,0.42,0.419,0.419,0.418,0.41775,0.417,0.416,0.416,0.415,0.415,0.415,0.414,0.414,0.413,0.413,0.413,0.413,0.412,0.412,0.412,0.412,0.411,0.411,0.411,0.411,0.411,0.411,0.411,0.411,0.41,0.41,0.409,0.409,0.408,0.408,0.407,0.407,0.407,0.407,0.407,0.407,0.408,0.408,0.409,0.408,0.0,0.0,0.0,0.0,0.407,0.407,0.406,0.406,0.405,0.40449999999999997,0.404,0.404,0.403,0.402,0.402,0.402,0.402,0.402,0.402,0.402,0.4,0.4,0.399,0.399,0.399,0.39875000000000005,0.3984375,0.398,0.397,0.397,0.397,0.396,0.396,0.394,0.394,0.394,0.393,0.3935,0.393,0.393,0.393,0.393,0.393,0.393,0.393,0.393,0.393,0.393,0.392,0.392,0.391,0.391,0.392,0.392,0.392,0.391,0.39,0.39,0.39,0.389,0.389,0.389,0.388,0.388,0.388,0.388,0.388,0.388,0.388,0.387,0.387,0.386,0.386,0.386,0.386,0.385,0.385,0.385,0.385,0.384,0.384,0.382,0.382,0.381,0.381,0.381,0.381,0.381,0.381,0.381,0.38,0.38,0.38,0.379,0.379,0.379,0.378,0.37775,0.377,0.377,0.377,0.377,0.377,0.377,0.376,0.376,0.376,0.3755,0.375,0.375,0.375,0.374,0.374,0.374,0.374,0.373,0.373,0.373,0.373,0.373,0.372,0.371,0.371,0.371,0.371,0.371,0.37,0.371,0.37,0.37,0.37,0.3695,0.369,0.369,0.369,0.368,0.368,0.368,0.367,0.367,0.366,0.366,0.366,0.366,0.366,0.366,0.366,0.365,0.365,0.365,0.364,0.364,0.363,0.363,0.363,0.362,0.362,0.362,0.361,0.361,0.361,0.36,0.359,0.359,0.36,0.36,0.359,0.359,0.359,0.358,0.358,0.358,0.358,0.358,0.358,0.357,0.357,0.357,0.357,0.357,0.357,0.356,0.356,0.356,0.356,0.356,0.0,0.0,0.355,0.355,0.355,0.355,0.354,0.353,0.352,0.352,0.352,0.3515,0.351,0.351,0.351,0.35,0.35,0.35,0.35,0.35,0.3495,0.349,0.349,0.348,0.0,0.0,0.0,0.0,0.347,0.346,0.346,0.346,0.346,0.346,0.346,0.345,0.345,0.345,0.345,0.345,0.345,0.344,0.344,0.344,0.344,0.344,0.3435,0.343375,0.343,0.343,0.342,0.342,0.342,0.341,0.341,0.341,0.34,0.34,0.339,0.339,0.339,0.339,0.339,0.338,0.338,0.338,0.337,0.337,0.337,0.337,0.336,0.336,0.336,0.336,0.336,0.336,0.336,0.335,0.335,0.335,0.335,0.335,0.334,0.334,0.333,0.333,0.333,0.333,0.333,0.333,0.333,0.333,0.333,0.334,0.334,0.333,0.333,0.332,0.332,0.331,0.33,0.33,0.329,0.329,0.329,0.329,0.329,0.329,0.329,0.329,0.329,0.328,0.328,0.328,0.328,0.328,0.328,0.327,0.327,0.327,0.0,0.0,0.0,0.326,0.326,0.326,0.0,0.0,0.324,0.323,0.323,0.323,0.323,0.323,0.323,0.323,0.323,0.323,0.3225,0.323,0.32275,0.323,0.323,0.0,0.0,0.0,0.0,0.0,0.0,0.0,0.0,0.0,0.0,0.0,0.0,0.0,0.0,0.0,0.0,0.0,0.0,0.0,0.0,0.0,0.0,0.0,0.0,0.0,0.0,0.0,0.0,0.0,0.0,0.0,0.0,0.0,0.0,0.0,0.0,0.0,0.0,0.0,0.0,0.0
0.463,0.463,0.462,0.462,0.461,0.461,0.46,0.46,0.459,0.459,0.459,0.462,0.461,0.461,0.461,0.46,0.46,0.46,0.459,0.459,0.459,0.459,0.458,0.458,0.0,0.0,0.0,0.456,0.454,0.453,0.453,0.452,0.452,0.452,0.452,0.452,0.452,0.452,0.452,0.451,0.45,0.449,0.449,0.448,0.448,0.447,0.447,0.447,0.447,0.447,0.447,0.446,0.446,0.446,0.445,0.445,0.444,0.443,0.443,0.443,0.442,0.442,0.442,0.441,0.441,0.441,0.441,0.441,0.441,0.44,0.44,0.44,0.44,0.438,0.438,0.438,0.437,0.437,0.436,0.436,0.436,0.436,0.435,0.435,0.434,0.432,0.432,0.431,0.431,0.431,0.4305,0.43,0.43,0.43,0.43,0.43,0.43,0.429,0.429,0.429,0.429,0.429,0.428,0.428,0.428,0.428,0.428,0.428,0.428,0.428,0.428,0.427,0.427,0.426,0.426,0.425,0.425,0.424,0.423,0.421,0.421,0.42,0.42,0.42,0.419,0.419,0.418,0.418,0.417,0.417,0.417,0.416,0.41624999999999995,0.416,0.415,0.415,0.414,0.414,0.413,0.413,0.412,0.412,0.411,0.411,0.411,0.411,0.411,0.411,0.411,0.41,0.41,0.41,0.41,0.409,0.409,0.409,0.408,0.408,0.408,0.407,0.407,0.407,0.407,0.406,0.406,0.406,0.406,0.406,0.405,0.405,0.405,0.405,0.407,0.407,0.406,0.406,0.405,0.406,0.406,0.405,0.404,0.0,0.0,0.402,0.402,0.402,0.401,0.4,0.399,0.39975000000000005,0.4,0.4,0.3995,0.399,0.398,0.398,0.398,0.397,0.397,0.397,0.397,0.396,0.395,0.394,0.394,0.394,0.393,0.393,0.393,0.393,0.392,0.392,0.392,0.392,0.392,0.392,0.391,0.391,0.391,0.391,0.391,0.39,0.39,0.39,0.389,0.389,0.39,0.389,0.389,0.0,0.0,0.388,0.388,0.388,0.387,0.386,0.386,0.386,0.386,0.386,0.386,0.386,0.386,0.386,0.386,0.385,0.385,0.385,0.385,0.385,0.384,0.384,0.382,0.382,0.381,0.381,0.38049999999999995,0.38,0.38,0.379,0.379,0.379,0.379,0.378,0.378,0.377,0.377,0.377,0.377,0.3765,0.37625,0.376,0.376,0.376,0.376,0.375,0.375,0.375,0.374,0.374,0.3745,0.37375,0.373,0.373,0.373,0.373,0.373,0.373,0.373,0.373,0.372,0.371,0.371,0.37,0.37,0.37,0.37,0.369,0.369,0.369,0.369,0.369,0.369,0.369,0.368,0.36787499999999995,0.368,0.367,0.366,0.366,0.366,0.366,0.366,0.366,0.366,0.366,0.366,0.365,0.365,0.365,0.364,0.0,0.363,0.363,0.363,0.362,0.362,0.362,0.362,0.361,0.361,0.36,0.36,0.359,0.359,0.359,0.359,0.359,0.359,0.359,0.359,0.358,0.358,0.358,0.357,0.357,0.357,0.356,0.356,0.356,0.356,0.356,0.356,0.356,0.355,0.355,0.355,0.355,0.355,0.355,0.355,0.354,0.354,0.353,0.352,0.352,0.352,0.351,0.351,0.35,0.35,0.35,0.35,0.35,0.349,0.349,0.349,0.348,0.348,0.348,0.348,0.348,0.348,0.3465,0.0,0.0,0.346,0.345,0.345,0.345,0.345,0.345,0.345,0.345,0.345,0.345,0.345,0.344,0.344,0.344,0.343,0.343,0.343,0.342,0.342,0.342,0.342,0.342,0.342,0.341,0.341,0.341,0.34,0.34,0.339,0.339,0.339,0.339,0.338,0.338,0.338,0.337,0.337,0.336,0.336,0.336,0.336,0.335,0.335,0.335,0.335,0.335,0.335,0.335,0.335,0.335,0.335,0.334,0.334,0.334,0.333,0.333,0.332,0.332,0.332,0.332,0.332,0.332,0.332,0.332,0.332,0.332,0.332,0.3325,0.0,0.0,0.0,0.331,0.33,0.33,0.329,0.329,0.328,0.328,0.328,0.328,0.327,0.327,0.327,0.327,0.327,0.327,0.327,0.327,0.326,0.327,0.327,0.326,0.326,0.3255,0.0,0.0,0.324,0.324,0.324,0.0,0.0,0.0,0.323,0.322,0.322,0.322,0.322,0.322,0.322,0.322,0.323,0.322,0.322,0.322,0.322,0.322,0.322,0.0,0.0,0.0,0.0,0.0,0.0,0.0,0.0,0.0,0.0,0.0,0.0,0.0,0.0,0.0,0.0,0.0,0.0,0.0,0.0,0.0,0.0,0.0,0.0,0.0,0.0,0.0,0.0,0.0,0.0,0.0,0.0,0.0,0.0,0.0,0.0,0.0,0.0,0.0,0.0,0.0
0.459,0.459,0.458,0.458,0.458,0.458,0.458,0.458,0.457,0.457,0.457,0.457,0.457,0.457,0.457,0.456,0.456,0.455,0.457,0.457,0.457,0.457,0.457,0.455,0.0,0.0,0.453,0.452,0.452,0.452,0.452,0.451,0.451,0.451,0.451,0.451,0.451,0.45,0.448,0.448,0.447,0.447,0.447,0.446,0.446,0.446,0.446,0.446,0.446,0.445,0.445,0.444,0.443,0.442,0.442,0.441,0.441,0.441,0.441,0.441,0.441,0.44,0.44,0.44,0.44,0.44,0.439,0.439,0.439,0.438,0.437,0.436,0.436,0.436,0.436,0.436,0.436,0.435,0.435,0.434,0.433,0.433,0.431,0.431,0.43,0.43,0.43,0.43,0.429,0.429,0.429,0.428,0.428,0.428,0.428,0.427,0.427,0.427,0.427,0.426,0.426,0.426,0.426,0.426,0.427,0.427,0.427,0.427,0.427,0.426,0.426,0.426,0.425,0.425,0.424,0.423,0.421,0.421,0.421,0.42,0.42,0.419,0.419,0.418,0.417,0.417,0.417,0.416,0.416,0.415,0.415,0.415,0.415,0.414,0.414,0.413,0.412,0.412,0.412,0.411,0.411,0.411,0.411,0.411,0.41,0.41,0.409,0.409,0.409,0.408,0.408,0.408,0.407,0.407,0.407,0.407,0.406,0.406,0.406,0.0,0.0,0.405,0.405,0.404,0.404,0.404,0.404,0.404,0.404,0.403,0.403,0.403,0.403,0.402,0.402,0.403,0.403,0.403,0.402,0.402,0.0,0.0,0.0,0.4,0.4,0.399,0.398,0.398,0.398,0.398,0.398,0.398,0.3975,0.397,0.397,0.396,0.396,0.395,0.395,0.395,0.394,0.393,0.393,0.393,0.39275,0.393,0.393,0.391,0.391,0.39075000000000004,0.39,0.391,0.39,0.39,0.39,0.389,0.38925000000000004,0.389,0.38925000000000004,0.389,0.389,0.389,0.388,0.388,0.388,0.388,0.388,0.388,0.0,0.0,0.0,0.0,0.386,0.385,0.385,0.385,0.385,0.385,0.385,0.38475,0.385,0.385,0.385,0.385,0.385,0.385,0.384,0.384,0.384,0.384,0.382,0.381,0.381,0.381,0.38,0.38,0.379,0.378,0.378,0.377,0.377,0.377,0.377,0.377,0.376,0.376,0.376,0.376,0.375,0.374,0.374625,0.37440625000000005,0.374,0.374,0.373,0.373,0.373,0.373,0.373,0.373,0.373,0.372,0.372,0.372,0.372,0.372,0.371,0.371,0.371,0.37,0.37,0.37,0.369,0.369,0.369,0.369,0.369,0.369,0.369,0.368,0.368,0.367,0.366,0.366,0.366,0.366,0.366,0.365,0.365,0.365,0.365,0.365,0.365,0.365,0.365,0.364,0.364,0.364,0.363,0.363,0.3625,0.36175,0.361,0.361,0.361,0.361,0.361,0.361,0.36,0.359,0.359,0.359,0.359,0.359,0.358,0.358,0.0,0.0,0.0,0.358,0.358,0.357,0.356,0.356,0.35575,0.355,0.355,0.355,0.355,0.355,0.355,0.355,0.355,0.355,0.355,0.355,0.354,0.354,0.354,0.353,0.352,0.352,0.352,0.351,0.351,0.351,0.35,0.35,0.35,0.349,0.349,0.349,0.349,0.348,0.348,0.348,0.348,0.348,0.347,0.347,0.346,0.346,0.346,0.345,0.345,0.345,0.345,0.345,0.344,0.344,0.344,0.344,0.344,0.344,0.344,0.343,0.0,0.0,0.0,0.342,0.342,0.342,0.342,0.341,0.341,0.341,0.341,0.34,0.34,0.339,0.339,0.339,0.339,0.338,0.338,0.338,0.338,0.337,0.337,0.337,0.336,0.336,0.336,0.335,0.335,0.335,0.335,0.335,0.334,0.334,0.334,0.334,0.335,0.334,0.334,0.334,0.3335,0.333,0.3325,0.33237500000000003,0.332,0.332,0.331,0.331,0.331,0.331,0.331,0.33,0.3305,0.331,0.331,0.331,0.331,0.331,0.0,0.0,0.0,0.0,0.329,0.329,0.328,0.327,0.327,0.327,0.327,0.326,0.326,0.326,0.326,0.326,0.326,0.326,0.326,0.326,0.326,0.326,0.326,0.326,0.325,0.324,0.324,0.323,0.323,0.323,0.323,0.0,0.0,0.0,0.3215,0.321,0.321,0.321,0.321,0.321,0.321,0.321,0.0,0.0,0.0,0.0,0.32,0.32,0.0,0.0,0.0,0.0,0.0,0.0,0.0,0.0,0.0,0.0,0.0,0.0,0.0,0.0,0.0,0.0,0.0,0.0,0.0,0.0,0.0,0.0,0.0,0.0,0.0,0.0,0.0,0.0,0.0,0.0,0.0,0.0,0.0,0.0,0.0,0.0,0.0,0.0,0.0,0.0,0.0,0.0
0.457,0.457,0.457,0.457,0.456,0.456,0.456,0.455,0.455,0.455,0.454,0.454,0.453,0.453,0.453,0.453,0.453,0.452,0.452,0.452,0.452,0.451,0.451,0.452,0.452,0.452,0.451,0.451,0.45,0.45,0.449,0.449,0.449,0.448,0.448,0.448,0.447,0.447,0.447,0.4465,0.446,0.446,0.445,0.444,0.444,0.444,0.443,0.443,0.442,0.442,0.441,0.441,0.441,0.441,0.44,0.439,0.438,0.0,0.0,0.438,0.437,0.437,0.437,0.437,0.437,0.437,0.437,0.437,0.436,0.436,0.436,0.436,0.435,0.435,0.435,0.434,0.433,0.433,0.431,0.431,0.43,0.43,0.429,0.429,0.428,0.427,0.427,0.427,0.426,0.426,0.426,0.426,0.426,0.426,0.425,0.425,0.425,0.425,0.425,0.425,0.425,0.425,0.425,0.425,0.425,0.425,0.425,0.425,0.425,0.424,0.424,0.0,0.0,0.0,0.0,0.0,0.42,0.419,0.418,0.418,0.418,0.417,0.417,0.417,0.416,0.416,0.415,0.415,0.414,0.413,0.413,0.412,0.412,0.412,0.411,0.411,0.411,0.411,0.411,0.41,0.409,0.409,0.408,0.408,0.408,0.407,0.407,0.407,0.407,0.407,0.407,0.407,0.406,0.406,0.405,0.405,0.404,0.404,0.0,0.0,0.0,0.403,0.403,0.402,0.402,0.402,0.402,0.402,0.402,0.402,0.402,0.402,0.402,0.401,0.401,0.398,0.398,0.401,0.4,0.4,0.0,0.0,0.0,0.398,0.398,0.398,0.397,0.397,0.397,0.397,0.397,0.396,0.0,0.0,0.394,0.393,0.393,0.393,0.393,0.393,0.393,0.392,0.392,0.392,0.391,0.391,0.391,0.39,0.389,0.389,0.389,0.389,0.389,0.389,0.389,0.388,0.388,0.388,0.388,0.387,0.387,0.387,0.387,0.386,0.386,0.386,0.386,0.385,0.0,0.0,0.0,0.0,0.384,0.384,0.384,0.383,0.383,0.383,0.383,0.383,0.383,0.383,0.383,0.383,0.383,0.383,0.382,0.382,0.382,0.381,0.381,0.38,0.38,0.379,0.378,0.378,0.377,0.377,0.377,0.377,0.376,0.376,0.376,0.376,0.375,0.374,0.374,0.373,0.373,0.373,0.373,0.373,0.373,0.373,0.372,0.372,0.372,0.371,0.371,0.371,0.37,0.37,0.37,0.37,0.37,0.37,0.37,0.37,0.369,0.369,0.369,0.369,0.369,0.368,0.368,0.368,0.367,0.367,0.366,0.366,0.366,0.365,0.365,0.365,0.364,0.364,0.364,0.364,0.363,0.364,0.364,0.364,0.364,0.364,0.363,0.363,0.362,0.362,0.362,0.361,0.361,0.36,0.36,0.36,0.359,0.359,0.359,0.359,0.359,0.358,0.358,0.358,0.358,0.358,0.358,0.358,0.0,0.0,0.0,0.356,0.356,0.355,0.355,0.355,0.355,0.354,0.354,0.354,0.354,0.354,0.354,0.353,0.354,0.353,0.353,0.353,0.353,0.352,0.352,0.352,0.351,0.351,0.351,0.35,0.35,0.35,0.349,0.349,0.349,0.349,0.348,0.348,0.348,0.348,0.347,0.347,0.346,0.346,0.345,0.345,0.345,0.345,0.345,0.345,0.344,0.344,0.343,0.343,0.343,0.343,0.343,0.343,0.342,0.342,0.342,0.0,0.0,0.0,0.0,0.341,0.34,0.34,0.34,0.34,0.34,0.339,0.339,0.339,0.338,0.338,0.338,0.338,0.338,0.337,0.337,0.336,0.336,0.336,0.336,0.335,0.335,0.335,0.335,0.335,0.335,0.334,0.333,0.333,0.333,0.333,0.333,0.333,0.333,0.333,0.332,0.0,0.0,0.332,0.331,0.331,0.331,0.33,0.0,0.0,0.329,0.33,0.32975,0.329,0.329,0.329,0.329,0.329,0.329,0.329,0.0,0.0,0.0,0.0,0.3275,0.327,0.326,0.326,0.326,0.326,0.326,0.326,0.326,0.326,0.325,0.325,0.325,0.325,0.325,0.325,0.325,0.325,0.324,0.324,0.323,0.323,0.323,0.322,0.321,0.321,0.321,0.321,0.0,0.0,0.32,0.3205,0.321,0.321,0.321,0.321,0.321,0.321,0.0,0.0,0.0,0.0,0.3185,0.318,0.0,0.0,0.0,0.0,0.0,0.0,0.0,0.0,0.0,0.0,0.0,0.0,0.0,0.0,0.0,0.0,0.0,0.0,0.0,0.0,0.0,0.0,0.0,0.0,0.0,0.0,0.0,0.0,0.0,0.0,0.0,0.0,0.0,0.0,0.0,0.0,0.0,0.0,0.0,0.0,0.0,0.0
0.455,0.454,0.454,0.453,0.453,0.453,0.453,0.452,0.452,0.452,0.452,0.452,0.452,0.452,0.452,0.452,0.451,0.451,0.451,0.45,0.449,0.449,0.448,0.447,0.447,0.447,0.447,0.446,0.448,0.447,0.447,0.447,0.447,0.447,0.447,0.446,0.446,0.446,0.446,0.444625,0.444,0.444,0.443,0.442,0.441,0.441,0.441,0.441,0.441,0.44,0.44,0.439,0.438,0.437,0.436,0.436,0.436,0.0,0.0,0.435,0.435,0.436,0.436,0.436,0.436,0.436,0.436,0.436,0.435,0.435,0.4335,0.433375,0.433,0.432,0.432,0.431,0.43,0.43,0.43,0.429,0.428,0.427,0.426,0.426,0.426,0.425,0.425,0.425,0.425,0.425,0.424,0.424,0.424,0.424,0.424,0.424,0.424,0.424,0.424,0.424,0.424,0.423,0.423,0.423,0.423,0.423,0.423,0.422,0.421,0.421,0.4205,0.0,0.0,0.0,0.0,0.0,0.417,0.416,0.416,0.416,0.416,0.416,0.416,0.415,0.414,0.414,0.413,0.412,0.412,0.411,0.411,0.411,0.411,0.41,0.41,0.409,0.409,0.408,0.408,0.407,0.407,0.407,0.407,0.406,0.406,0.406,0.406,0.406,0.406,0.406,0.405,0.405,0.403,0.403,0.402,0.402,0.402,0.402,0.0,0.0,0.0,0.402,0.402,0.401,0.401,0.401,0.401,0.401,0.401,0.4,0.4,0.399,0.399,0.398,0.398,0.397,0.397,0.396,0.395,0.395,0.394,0.396,0.396,0.396,0.396,0.396,0.0,0.0,0.395,0.394,0.394,0.394,0.0,0.0,0.392,0.392,0.392,0.392,0.392,0.392,0.391,0.39,0.39,0.389,0.389,0.389,0.389,0.388,0.388,0.388,0.388,0.387,0.386,0.386,0.386,0.386,0.386,0.386,0.385,0.385,0.385,0.385,0.385,0.385,0.385,0.385,0.384,0.384,0.384,0.383,0.383,0.382,0.382,0.381,0.381,0.381,0.381,0.381,0.381,0.38125000000000003,0.381,0.381,0.381,0.381,0.381,0.381,0.381,0.381,0.38,0.379,0.379,0.378,0.377,0.377,0.377,0.376,0.376,0.376,0.375,0.375,0.375,0.375,0.374,0.374,0.373,0.373,0.373,0.373,0.372,0.372,0.371,0.371,0.37,0.37,0.37,0.37,0.37,0.37,0.37,0.369,0.369,0.369,0.369,0.369,0.369,0.369,0.369,0.369,0.368,0.368,0.367,0.367,0.36675,0.366,0.366,0.366,0.366,0.366,0.365,0.365,0.364,0.364,0.363,0.363,0.363,0.363,0.362,0.362,0.362,0.363,0.362,0.363,0.363,0.363,0.362,0.362,0.361,0.361,0.36,0.36,0.359,0.359,0.359,0.358,0.358,0.358,0.358,0.358,0.358,0.358,0.357,0.357,0.357,0.356,0.356,0.356,0.0,0.0,0.0,0.355,0.355,0.354,0.354,0.354,0.353,0.352,0.352,0.352,0.352,0.352,0.352,0.352,0.352,0.352,0.352,0.352,0.352,0.352,0.351,0.351,0.351,0.349,0.349,0.34875,0.348,0.348,0.348,0.348,0.348,0.348,0.348,0.348,0.348,0.347,0.346,0.345,0.345,0.345,0.345,0.345,0.344,0.344,0.344,0.344,0.343,0.343,0.343,0.342,0.342,0.342,0.342,0.342,0.342,0.341,0.341,0.0,0.0,0.0,0.339,0.339,0.339,0.339,0.339,0.339,0.339,0.338,0.338,0.338,0.338,0.337,0.336,0.336,0.336,0.335,0.335,0.335,0.335,0.335,0.335,0.335,0.335,0.334,0.334,0.333,0.333,0.333,0.332,0.332,0.332,0.332,0.332,0.332,0.332,0.33125,0.331,0.0,0.0,0.0,0.3295,0.329,0.329,0.329,0.0,0.0,0.3285,0.329,0.329,0.329,0.329,0.3285,0.328,0.328,0.328,0.327,0.0,0.0,0.0,0.0,0.326,0.326,0.326,0.326,0.326,0.326,0.326,0.325,0.325,0.325,0.324,0.324,0.324,0.324,0.324,0.324,0.324,0.324,0.323,0.323,0.323,0.322,0.321,0.321,0.32,0.32,0.32,0.32,0.0,0.0,0.32,0.32,0.32,0.32,0.32,0.32,0.32,0.319,0.0,0.0,0.0,0.0,0.317,0.0,0.0,0.0,0.0,0.0,0.0,0.0,0.0,0.0,0.0,0.0,0.0,0.0,0.0,0.0,0.0,0.0,0.0,0.0,0.0,0.0,0.0,0.0,0.0,0.0,0.0,0.0,0.0,0.0,0.0,0.0,0.0,0.0,0.0,0.0,0.0,0.0,0.0,0.0,0.0,0.0,0.0,0.0
0.452,0.452,0.452,0.452,0.452,0.452,0.452,0.452,0.451,0.451,0.451,0.451,0.451,0.45,0.45,0.449,0.449,0.448,0.448,0.448,0.447,0.447,0.446,0.446,0.446,0.446,0.445,0.445,0.445,0.445,0.445,0.445,0.444,0.446,0.445,0.445,0.444,0.444,0.443,0.442,0.442,0.441,0.441,0.441,0.441,0.44,0.44,0.439,0.438,0.437,0.437,0.436,0.436,0.435,0.434,0.434,0.433,0.432,0.433,0.433,0.433,0.433,0.4335,0.434,0.434,0.434,0.434,0.433,0.43224999999999997,0.432,0.431,0.431,0.43,0.43,0.429,0.429,0.428,0.427,0.427,0.426,0.426,0.425,0.425,0.425,0.424,0.423,0.423,0.422,0.422,0.422,0.422,0.422,0.422,0.422,0.422,0.421,0.421,0.421,0.421,0.421,0.421,0.421,0.421,0.421,0.421,0.421,0.42,0.42,0.419,0.418,0.417,0.416,0.416,0.416,0.415,0.415,0.415,0.415,0.414,0.414,0.413,0.413,0.412,0.412,0.4115,0.411,0.411,0.411,0.41,0.41,0.409,0.408,0.408,0.407,0.407,0.407,0.407,0.406,0.406,0.406,0.406,0.405,0.405,0.405,0.405,0.405,0.405,0.404,0.404,0.403,0.403,0.402,0.402,0.401,0.401,0.4,0.4,0.399,0.399,0.399,0.399,0.399,0.399,0.399,0.399,0.399,0.399,0.399,0.398,0.0,0.0,0.397,0.397,0.397,0.396,0.395,0.394,0.394,0.393,0.393,0.393,0.393,0.392,0.394,0.394,0.394,0.0,0.0,0.393,0.393,0.392,0.391,0.391,0.391,0.39,0.39,0.39,0.39,0.39,0.389,0.389,0.389,0.389,0.388,0.388,0.387,0.386,0.386,0.386,0.386,0.385,0.385,0.385,0.385,0.385,0.385,0.385,0.385,0.385,0.384,0.384,0.384,0.384,0.384,0.384,0.383,0.382,0.382,0.381,0.381,0.381,0.381,0.381,0.381,0.38,0.38,0.38,0.379,0.379,0.38,0.38,0.38,0.38,0.38,0.38,0.38,0.38,0.379,0.378,0.377,0.377,0.377,0.376,0.376,0.375,0.375,0.374,0.374,0.373,0.3735,0.373,0.373,0.373,0.373,0.373,0.372,0.372,0.37,0.37,0.37,0.37,0.37,0.369,0.369,0.369,0.369,0.369,0.369,0.369,0.369,0.368,0.368,0.367,0.367,0.367,0.367,0.367,0.366,0.366,0.366,0.3655,0.365,0.365,0.365,0.365,0.364,0.364,0.364,0.0,0.3635,0.363,0.362,0.362,0.362,0.362,0.362,0.362,0.362,0.362,0.362,0.362,0.362,0.362,0.362,0.361,0.36,0.359,0.359,0.359,0.358,0.358,0.358,0.358,0.358,0.358,0.358,0.357,0.356,0.355,0.355,0.355,0.355,0.355,0.355,0.355,0.355,0.354,0.354,0.353,0.353,0.352,0.352,0.352,0.352,0.351,0.351,0.351,0.351,0.351,0.351,0.351,0.351,0.351,0.351,0.351,0.351,0.351,0.349,0.35,0.349,0.34875,0.348,0.348,0.348,0.348,0.348,0.348,0.348,0.0,0.0,0.0,0.347,0.346,0.345,0.345,0.345,0.34375,0.343,0.343,0.343,0.343,0.343,0.343,0.342,0.342,0.342,0.342,0.342,0.342,0.341,0.341,0.341,0.341,0.34,0.339,0.339,0.339,0.338,0.338,0.338,0.338,0.338,0.338,0.338,0.338,0.337,0.336,0.336,0.336,0.335,0.335,0.335,0.335,0.335,0.335,0.334,0.334,0.333,0.333,0.333,0.333,0.332,0.332,0.332,0.332,0.332,0.332,0.331,0.331,0.331,0.33,0.33,0.33,0.329,0.329,0.329,0.329,0.3285,0.328,0.329,0.328,0.328,0.328,0.328,0.328,0.328,0.327,0.327,0.327,0.32725000000000004,0.3268125,0.326,0.326,0.326,0.0,0.0,0.0,0.324,0.324,0.325,0.325,0.325,0.325,0.325,0.324,0.324,0.324,0.323,0.323,0.323,0.323,0.323,0.323,0.323,0.323,0.323,0.322,0.322,0.321,0.321,0.321,0.32,0.319,0.319,0.319,0.319,0.319,0.319,0.319,0.319,0.319,0.0,0.0,0.0,0.318,0.318,0.0,0.0,0.0,0.315,0.315,0.0,0.0,0.0,0.0,0.0,0.0,0.0,0.0,0.0,0.0,0.0,0.0,0.0,0.0,0.0,0.0,0.0,0.0,0.0,0.0,0.0,0.0,0.0,0.0,0.0,0.0,0.0,0.0,0.0,0.0,0.0,0.0,0.0,0.0,0.0,0.0,0.0,0.0,0.0,0.0,0.0,0.0,0.0
0.451,0.451,0.45,0.45,0.449,0.449,0.449,0.449,0.449,0.449,0.449,0.448,0.448,0.448,0.448,0.447,0.447,0.447,0.447,0.446,0.446,0.445,0.444,0.444,0.443,0.443,0.443,0.443,0.443,0.442,0.442,0.442,0.442,0.441,0.441,0.441,0.441,0.44,0.441,0.441,0.44,0.439,0.439,0.438,0.438,0.437,0.436,0.436,0.436,0.435,0.435,0.434,0.433,0.432,0.431,0.431,0.431,0.431,0.431,0.431,0.431,0.431,0.431,0.431,0.431,0.431,0.431,0.431,0.429,0.4285,0.428,0.427,0.427,0.426,0.426,0.426,0.425,0.425,0.425,0.424,0.423,0.422,0.422,0.421,0.421,0.421,0.421,0.421,0.421,0.421,0.42,0.42,0.421,0.42,0.42,0.42,0.42,0.42,0.42,0.42,0.42,0.419,0.419,0.419,0.418,0.418,0.417,0.416,0.416,0.416,0.415,0.413,0.412,0.412,0.412,0.412,0.412,0.411,0.411,0.411,0.411,0.411,0.411,0.0,0.0,0.0,0.4085,0.408,0.408,0.407,0.407,0.407,0.407,0.406,0.406,0.406,0.406,0.405,0.405,0.404,0.404,0.404,0.404,0.404,0.403,0.403,0.403,0.402,0.402,0.402,0.401,0.401,0.4,0.399,0.398,0.398,0.398,0.398,0.398,0.398,0.398,0.398,0.398,0.398,0.398,0.398,0.397,0.397,0.397,0.0,0.0,0.394,0.394,0.394,0.393,0.393,0.393,0.393,0.392,0.392,0.392,0.391,0.391,0.39,0.39,0.3915,0.39125,0.391,0.391,0.39,0.39,0.389,0.389,0.389,0.389,0.389,0.389,0.389,0.388,0.388,0.386,0.386,0.386,0.386,0.385,0.3855,0.385125,0.385,0.385,0.385,0.384,0.384,0.384,0.384,0.384,0.384,0.383,0.383,0.383,0.383,0.383,0.383,0.383,0.382,0.382,0.381,0.381,0.381,0.381,0.381,0.38,0.38,0.379,0.379,0.378,0.378,0.377,0.377,0.377,0.378,0.378,0.378,0.378,0.378,0.378,0.378,0.377,0.377,0.377,0.0,0.0,0.374,0.374,0.374,0.373,0.373,0.373,0.373,0.373,0.373,0.372,0.372,0.371,0.37,0.37,0.37,0.369,0.369,0.369,0.369,0.369,0.369,0.369,0.368,0.368,0.368,0.368,0.367,0.367,0.366,0.366,0.366,0.366,0.366,0.366,0.366,0.365,0.365,0.365,0.364,0.364,0.363,0.363,0.363,0.363,0.363,0.363,0.362,0.362,0.362,0.362,0.362,0.361,0.361,0.361,0.361,0.361,0.361,0.361,0.36074999999999996,0.361,0.361,0.36,0.359,0.0,0.0,0.0,0.358,0.358,0.357,0.357,0.357,0.356,0.3555,0.355,0.355,0.355,0.355,0.355,0.354,0.354,0.354,0.354,0.353,0.353,0.353,0.352,0.351,0.351,0.351,0.351,0.351,0.351,0.351,0.35,0.35,0.35,0.349,0.35,0.35,0.35,0.349,0.349,0.349,0.349,0.349,0.347,0.0,0.0,0.347,0.347,0.347,0.347,0.347,0.347,0.346,0.346,0.0,0.0,0.0,0.0,0.0,0.345,0.344,0.343,0.343,0.342,0.342,0.342,0.342,0.342,0.342,0.342,0.342,0.342,0.341,0.341,0.341,0.341,0.341,0.34,0.339,0.339,0.339,0.338,0.338,0.337,0.337,0.336,0.336,0.336,0.336,0.336,0.336,0.336,0.335,0.335,0.335,0.335,0.335,0.335,0.335,0.334,0.333,0.333,0.333,0.332,0.332,0.332,0.332,0.331,0.331,0.331,0.33,0.33,0.33,0.33,0.33,0.33,0.329,0.329,0.329,0.329,0.328,0.328,0.0,0.3275,0.327,0.327,0.327,0.327,0.327,0.327,0.327,0.327,0.326,0.326,0.326,0.326,0.326,0.326,0.326,0.325,0.325,0.324,0.324,0.324,0.323,0.323,0.323,0.323,0.324,0.324,0.323,0.323,0.323,0.323,0.322,0.322,0.322,0.321,0.321,0.321,0.321,0.321,0.0,0.0,0.321,0.32,0.319,0.319,0.319,0.319,0.318,0.318,0.318,0.318,0.318,0.318,0.318,0.318,0.0,0.0,0.0,0.316,0.315,0.315,0.315,0.315,0.314,0.314,0.0,0.0,0.0,0.0,0.0,0.0,0.0,0.0,0.0,0.0,0.0,0.0,0.0,0.0,0.0,0.0,0.0,0.0,0.0,0.0,0.0,0.0,0.0,0.0,0.0,0.0,0.0,0.0,0.0,0.0,0.0,0.0,0.0,0.0,0.0,0.0,0.0,0.0,0.0,0.0,0.0,0.0,0.0
0.448,0.448,0.448,0.447,0.447,0.447,0.447,0.447,0.447,0.447,0.447,0.447,0.447,0.447,0.447,0.446,0.446,0.446,0.445,0.444,0.443,0.443,0.442,0.442,0.441,0.441,0.441,0.441,0.441,0.441,0.441,0.441,0.441,0.44,0.439,0.438,0.438,0.437,0.437,0.436,0.436,0.437,0.436,0.436,0.436,0.436,0.435,0.435,0.433,0.432,0.432,0.431,0.431,0.43,0.43,0.43,0.429,0.429,0.429,0.428,0.428,0.429,0.429,0.429,0.428,0.428,0.427,0.426,0.426,0.425,0.425,0.425,0.424,0.424,0.423,0.423,0.423,0.422,0.422,0.421,0.421,0.421,0.42,0.42,0.42,0.42,0.42,0.419,0.419,0.419,0.419,0.419,0.419,0.419,0.418,0.418,0.418,0.418,0.418,0.418,0.417,0.417,0.416,0.416,0.416,0.416,0.415,0.414,0.413,0.412,0.411,0.411,0.411,0.411,0.411,0.411,0.411,0.41,0.41,0.409,0.409,0.409,0.408,0.0,0.0,0.0,0.406,0.406,0.406,0.406,0.406,0.405,0.405,0.404,0.404,0.404,0.404,0.403,0.403,0.402,0.402,0.402,0.402,0.402,0.402,0.402,0.402,0.401,0.401,0.4,0.399,0.398,0.398,0.398,0.397,0.397,0.396,0.396,0.396,0.396,0.396,0.396,0.397,0.396,0.396,0.396,0.395,0.394,0.394,0.0,0.0,0.392,0.392,0.391,0.391,0.391,0.391,0.391,0.391,0.39,0.39,0.389,0.389,0.389,0.389,0.389,0.388,0.388,0.386,0.389,0.389,0.388,0.388,0.388,0.388,0.387,0.386,0.386,0.386,0.385,0.385,0.0,0.384,0.384,0.384,0.384,0.384,0.384,0.38325,0.383,0.383,0.382,0.383,0.382,0.382,0.382,0.382,0.382,0.381,0.381,0.381,0.381,0.381,0.381,0.381,0.38,0.38,0.38,0.38,0.379,0.378,0.378,0.378,0.37775,0.377,0.377,0.377,0.376,0.376,0.377,0.377,0.376,0.376,0.376,0.376,0.376,0.375,0.374,0.3745,0.0,0.0,0.373,0.373,0.373,0.373,0.372,0.372,0.371,0.37,0.37,0.37,0.369,0.369,0.369,0.369,0.369,0.368,0.368,0.368,0.368,0.367,0.367,0.367,0.367,0.366,0.366,0.366,0.366,0.366,0.365,0.365,0.365,0.365,0.365,0.365,0.364,0.364,0.364,0.363,0.363,0.363,0.362,0.362,0.362,0.362,0.362,0.362,0.362,0.362,0.361,0.36,0.36,0.359,0.359,0.359,0.359,0.359,0.359,0.359,0.359,0.359,0.359,0.359,0.358,0.0,0.0,0.0,0.356,0.356,0.355,0.355,0.355,0.0,0.0,0.355,0.354,0.354,0.354,0.353,0.353,0.353,0.352,0.352,0.352,0.351,0.351,0.351,0.35,0.35,0.35,0.35,0.349,0.349,0.349,0.349,0.349,0.348,0.348,0.348,0.348,0.348,0.348,0.3465,0.3465,0.3465,0.346,0.0,0.0,0.0,0.0,0.0,0.0,0.0,0.346,0.346,0.0,0.0,0.0,0.0,0.0,0.0,0.0,0.342,0.342,0.342,0.342,0.341,0.341,0.341,0.341,0.341,0.341,0.341,0.0,0.0,0.0,0.34,0.339,0.339,0.339,0.339,0.339,0.338,0.338,0.337,0.336,0.336,0.335,0.335,0.335,0.335,0.335,0.335,0.335,0.335,0.334,0.334,0.334,0.334,0.334,0.333,0.333,0.333,0.332,0.332,0.332,0.331,0.331,0.33,0.33,0.33,0.33,0.329,0.329,0.329,0.329,0.329,0.329,0.329,0.329,0.0,0.0,0.327,0.327,0.327,0.3265,0.326,0.326,0.326,0.326,0.326,0.326,0.326,0.326,0.326,0.326,0.326,0.326,0.326,0.325,0.325,0.324,0.324,0.324,0.324,0.323,0.323,0.322,0.322,0.322,0.322,0.322,0.322,0.322,0.321,0.321,0.321,0.321,0.321,0.321,0.321,0.32,0.32,0.32,0.0,0.0,0.0,0.319,0.318,0.318,0.318,0.318,0.318,0.318,0.318,0.318,0.318,0.318,0.318,0.318,0.318,0.0,0.0,0.0,0.315,0.315,0.314,0.314,0.314,0.313,0.313,0.313,0.0,0.0,0.0,0.0,0.0,0.0,0.0,0.0,0.0,0.0,0.0,0.0,0.0,0.0,0.0,0.0,0.0,0.0,0.0,0.0,0.0,0.0,0.0,0.0,0.0,0.0,0.0,0.0,0.0,0.0,0.0,0.0,0.0,0.0,0.0,0.0,0.0,0.0,0.0,0.0,0.0,0.0
0.447,0.447,0.446,0.446,0.446,0.446,0.446,0.446,0.446,0.446,0.446,0.446,0.446,0.446,0.446,0.446,0.446,0.444,0.443,0.442,0.441,0.441,0.441,0.441,0.44,0.44,0.44,0.44,0.44,0.439,0.438,0.438,0.437,0.437,0.437,0.436,0.436,0.436,0.436,0.435,0.435,0.433,0.432,0.431,0.431,0.432,0.432,0.431,0.431,0.43,0.43,0.43,0.429,0.428,0.428,0.427,0.427,0.427,0.426,0.426,0.426,0.426,0.426,0.426,0.425,0.425,0.425,0.424,0.423,0.422,0.421,0.421,0.421,0.421,0.421,0.421,0.421,0.421,0.42,0.42,0.42,0.42,0.419,0.419,0.418,0.418,0.417,0.417,0.417,0.416,0.416,0.417,0.416,0.416,0.0,0.0,0.416,0.416,0.416,0.416,0.416,0.416,0.415,0.415,0.415,0.414,0.412,0.412,0.411,0.411,0.411,0.41,0.41,0.41,0.41,0.409,0.409,0.409,0.408,0.407,0.407,0.406,0.406,0.406,0.4055,0.405,0.404,0.404,0.404,0.403,0.404,0.403,0.403,0.402,0.402,0.402,0.402,0.402,0.402,0.402,0.401,0.401,0.401,0.401,0.4,0.4,0.399,0.399,0.398,0.398,0.398,0.397,0.397,0.396,0.396,0.395,0.395,0.395,0.395,0.395,0.394,0.394,0.394,0.394,0.394,0.394,0.393,0.393,0.391,0.391,0.39,0.389,0.389,0.389,0.389,0.389,0.389,0.389,0.389,0.389,0.389,0.389,0.388,0.388,0.387,0.386,0.385,0.385,0.385,0.385,0.385,0.385,0.386,0.385,0.385,0.385,0.385,0.385,0.385,0.384,0.384,0.383,0.382,0.382,0.382,0.382,0.382,0.382,0.381,0.381,0.381,0.381,0.381,0.381,0.381,0.381,0.381,0.381,0.381,0.381,0.381,0.38,0.38,0.38,0.379,0.0,0.0,0.378,0.378,0.377,0.377,0.377,0.377,0.377,0.376,0.375,0.375,0.375,0.375,0.375,0.374,0.374,0.0,0.0,0.374,0.373,0.373,0.373,0.372,0.372,0.372,0.372,0.371,0.371,0.37,0.37,0.37,0.369,0.369,0.369,0.369,0.368,0.368,0.368,0.368,0.367,0.367,0.366,0.366,0.366,0.366,0.366,0.366,0.365,0.365,0.365,0.365,0.364,0.36424999999999996,0.364,0.364,0.363,0.363,0.363,0.363,0.363,0.363,0.362,0.362,0.362,0.362,0.362,0.361,0.36,0.36024999999999996,0.36,0.36,0.359,0.359,0.359,0.359,0.358,0.358,0.358,0.358,0.358,0.0,0.0,0.0,0.357,0.358,0.357,0.357,0.0,0.0,0.355,0.355,0.355,0.355,0.355,0.355,0.0,0.0,0.0,0.0,0.352,0.352,0.352,0.352,0.352,0.351,0.351,0.351,0.35,0.35,0.35,0.349,0.349,0.349,0.348,0.348,0.348,0.348,0.348,0.348,0.348,0.348,0.345,0.345,0.345,0.345,0.34475,0.344,0.344,0.344,0.343,0.0,0.0,0.0,0.0,0.0,0.0,0.0,0.345,0.0,0.0,0.0,0.0,0.0,0.0,0.0,0.341,0.341,0.3405,0.34,0.34,0.34,0.339,0.339,0.339,0.339,0.339,0.339,0.0,0.0,0.0,0.338,0.338,0.338,0.338,0.3375,0.337,0.336,0.336,0.335,0.335,0.335,0.334,0.334,0.0,0.0,0.334,0.33375000000000005,0.334,0.333,0.333,0.333,0.333,0.333,0.332,0.332,0.332,0.332,0.331,0.331,0.33,0.33,0.33,0.329,0.329,0.329,0.329,0.329,0.328,0.328,0.328,0.328,0.328,0.327,0.327,0.0,0.0,0.326,0.326,0.326,0.326,0.326,0.326,0.326,0.326,0.326,0.326,0.325,0.325,0.325,0.325,0.325,0.325,0.324,0.324,0.324,0.324,0.323,0.323,0.323,0.322,0.321,0.0,0.0,0.0,0.321,0.321,0.0,0.0,0.0,0.32,0.32,0.32,0.32,0.32,0.319,0.319,0.319,0.0,0.0,0.0,0.0,0.3175,0.317,0.317,0.317,0.317,0.317,0.317,0.317,0.318,0.318,0.318,0.317,0.317,0.316,0.316,0.315,0.314,0.314,0.313,0.313,0.313,0.312,0.3125,0.313,0.312,0.313,0.0,0.0,0.0,0.0,0.0,0.0,0.0,0.0,0.0,0.0,0.0,0.0,0.0,0.0,0.0,0.0,0.0,0.0,0.0,0.0,0.0,0.0,0.0,0.0,0.0,0.0,0.0,0.0,0.0,0.0,0.0,0.0,0.0,0.0,0.0,0.0,0.0,0.0,0.0,0.0,0.0
0.446,0.445,0.445,0.444,0.444,0.444,0.444,0.445,0.445,0.446,0.446,0.446,0.446,0.445,0.445,0.445,0.443,0.442,0.441,0.441,0.44,0.44,0.439,0.438,0.437,0.437,0.437,0.437,0.436,0.436,0.436,0.436,0.436,0.436,0.435,0.435,0.434,0.434,0.433,0.433,0.431,0.431,0.431,0.43,0.429,0.429,0.428,0.427,0.426,0.428,0.427,0.426,0.426,0.426,0.426,0.426,0.425,0.425,0.425,0.425,0.425,0.424,0.424,0.423,0.422,0.421,0.421,0.421,0.42,0.42,0.42,0.42,0.42,0.42,0.42,0.42,0.419,0.419,0.419,0.419,0.418,0.418,0.418,0.417,0.416,0.416,0.416,0.416,0.416,0.415,0.415,0.415,0.415,0.415,0.0,0.0,0.4145,0.415,0.415,0.415,0.414,0.414,0.413,0.411,0.411,0.411,0.41,0.41,0.41,0.41,0.41,0.409,0.409,0.409,0.408,0.408,0.407,0.407,0.406,0.405,0.405,0.404,0.404,0.403,0.402,0.402,0.402,0.402,0.402,0.402,0.402,0.402,0.401,0.401,0.401,0.401,0.401,0.4,0.4,0.399,0.399,0.399,0.399,0.398,0.398,0.398,0.397,0.397,0.397,0.396,0.395,0.394,0.394,0.394,0.394,0.394,0.394,0.393,0.393,0.393,0.393,0.393,0.393,0.393,0.393,0.392,0.392,0.39,0.389,0.389,0.389,0.388,0.388,0.388,0.388,0.388,0.388,0.388,0.388,0.388,0.387,0.387,0.386,0.385,0.385,0.385,0.385,0.384,0.384,0.384,0.384,0.384,0.384,0.383,0.382,0.384,0.384,0.383,0.383,0.382,0.38175,0.381,0.381,0.381,0.381,0.381,0.381,0.381,0.38,0.38,0.38,0.38,0.38,0.381,0.38,0.38,0.38,0.38,0.38,0.379,0.379,0.379,0.378,0.378,0.378,0.0,0.0,0.0,0.377,0.376,0.376,0.376,0.376,0.375,0.37450000000000006,0.374,0.374,0.373,0.373,0.373,0.373,0.373,0.0,0.0,0.3715,0.372,0.37,0.37,0.37,0.37,0.37,0.369,0.369,0.369,0.369,0.369,0.369,0.369,0.368,0.368,0.367,0.367,0.366,0.366,0.366,0.366,0.366,0.365,0.365,0.365,0.365,0.365,0.365,0.364,0.364,0.364,0.363,0.363,0.363,0.362,0.362,0.362,0.362,0.362,0.362,0.362,0.362,0.361,0.361,0.361,0.36,0.36,0.36,0.359,0.359,0.359,0.359,0.358,0.358,0.358,0.358,0.357,0.357,0.357,0.357,0.357,0.0,0.0,0.0,0.355,0.355,0.355,0.355,0.0,0.0,0.353,0.353,0.352,0.352,0.352,0.352,0.0,0.0,0.0,0.0,0.351,0.351,0.351,0.35,0.35,0.35,0.35,0.349,0.349,0.349,0.348,0.348,0.348,0.348,0.348,0.348,0.347,0.347,0.346,0.345,0.345,0.345,0.344,0.344,0.344,0.343,0.342,0.342,0.342,0.341,0.3415,0.0,0.0,0.0,0.0,0.0,0.0,0.0,0.0,0.0,0.0,0.0,0.0,0.34,0.34,0.34,0.34,0.339,0.339,0.339,0.339,0.338,0.338,0.338,0.338,0.337,0.3375,0.0,0.0,0.0,0.0,0.336,0.336,0.336,0.336,0.0,0.0,0.0,0.334,0.334,0.334,0.333,0.333,0.333,0.0,0.0,0.333,0.332,0.333,0.332,0.332,0.332,0.332,0.332,0.331,0.331,0.3305,0.33,0.3295,0.329,0.329,0.329,0.329,0.328,0.328,0.328,0.328,0.327,0.327,0.327,0.327,0.327,0.327,0.326,0.326,0.326,0.326,0.325,0.325,0.325,0.325,0.324,0.324,0.324,0.325,0.325,0.325,0.324,0.324,0.324,0.324,0.323,0.323,0.323,0.323,0.323,0.323,0.322,0.321,0.321,0.321,0.0,0.0,0.0,0.0,0.32,0.319,0.0,0.0,0.0,0.319,0.319,0.319,0.318,0.318,0.318,0.318,0.318,0.0,0.0,0.0,0.316,0.316,0.316,0.316,0.317,0.317,0.317,0.317,0.317,0.317,0.317,0.317,0.316,0.316,0.315,0.315,0.314,0.312,0.312,0.312,0.312,0.312,0.312,0.312,0.312,0.312,0.311,0.0,0.0,0.0,0.0,0.0,0.0,0.0,0.0,0.0,0.0,0.0,0.0,0.0,0.0,0.0,0.0,0.0,0.0,0.0,0.0,0.0,0.0,0.0,0.0,0.0,0.0,0.0,0.0,0.0,0.0,0.0,0.0,0.0,0.0,0.0,0.0,0.0,0.0,0.0,0.0,0.0
0.443,0.443,0.442,0.44225,0.442,0.442,0.443,0.443,0.443,0.4435,0.444,0.444,0.444,0.444,0.444,0.444,0.442,0.442,0.441,0.44,0.439,0.436,0.436,0.436,0.436,0.435,0.435,0.435,0.435,0.435,0.435,0.435,0.434,0.434,0.433,0.432,0.431,0.431,0.431,0.43,0.43,0.429,0.428,0.427,0.427,0.426,0.425,0.425,0.425,0.424,0.424,0.424,0.425,0.425,0.425,0.425,0.425,0.424,0.424,0.423,0.422,0.422,0.421,0.421,0.42,0.42,0.42,0.42,0.419,0.418,0.418,0.418,0.417,0.417,0.417,0.417,0.417,0.417,0.417,0.416,0.416,0.416,0.416,0.415,0.415,0.415,0.415,0.414,0.414,0.414,0.413,0.413,0.413,0.413,0.413,0.413,0.413,0.413,0.412,0.412,0.411,0.411,0.41,0.41,0.409,0.408,0.408,0.408,0.408,0.407,0.407,0.407,0.407,0.407,0.407,0.406,0.405,0.404,0.404,0.403,0.402,0.402,0.402,0.402,0.401,0.401,0.4,0.4,0.4,0.4,0.4,0.399,0.399,0.399,0.399,0.399,0.398,0.398,0.398,0.398,0.397,0.397,0.397,0.397,0.397,0.395,0.395,0.394,0.394,0.394,0.393,0.393,0.393,0.393,0.393,0.393,0.392,0.392,0.392,0.392,0.392,0.391,0.391,0.391,0.39,0.389,0.389,0.389,0.388,0.388,0.387,0.387,0.386,0.386,0.386,0.386,0.386,0.386,0.0,0.386,0.385,0.385,0.385,0.385,0.384,0.384,0.383,0.382,0.382,0.382,0.382,0.382,0.381,0.381,0.381,0.381,0.38,0.38,0.381,0.381,0.38,0.38,0.38,0.38,0.38,0.38,0.38,0.379,0.379,0.379,0.379,0.379,0.379,0.379,0.379,0.378,0.378,0.378,0.378,0.378,0.377,0.377,0.377,0.377,0.377,0.0,0.0,0.0,0.374,0.374,0.373,0.373,0.373,0.373,0.373,0.373,0.373,0.372,0.372,0.372,0.372,0.371,0.0,0.0,0.369,0.369,0.369,0.369,0.369,0.36874999999999997,0.369,0.368,0.368,0.368,0.368,0.368,0.367,0.367,0.366,0.366,0.366,0.366,0.365,0.365,0.364,0.364,0.364,0.363,0.364,0.363,0.364,0.363,0.363,0.363,0.362,0.362,0.362,0.362,0.362,0.361,0.361,0.361,0.361,0.361,0.361,0.36,0.359,0.0,0.0,0.359,0.359,0.359,0.359,0.358,0.358,0.358,0.358,0.357,0.357,0.356,0.356,0.356,0.356,0.355,0.355,0.355,0.355,0.355,0.355,0.354,0.353,0.353,0.353,0.352,0.352,0.352,0.351,0.351,0.351,0.351,0.351,0.351,0.35,0.35,0.349,0.349,0.349,0.349,0.349,0.348,0.34824999999999995,0.348,0.348,0.348,0.348,0.347,0.347,0.347,0.347,0.346,0.345,0.345,0.345,0.345,0.344,0.344,0.343,0.343,0.3425,0.342,0.341,0.341,0.341,0.34,0.34,0.34,0.0,0.0,0.0,0.34,0.34,0.3405,0.341,0.0,0.0,0.0,0.0,0.0,0.339,0.339,0.339,0.339,0.338,0.338,0.338,0.338,0.337,0.337,0.336,0.336,0.336,0.336,0.0,0.0,0.0,0.0,0.335,0.335,0.335,0.0,0.0,0.0,0.0,0.0,0.332,0.332,0.332,0.332,0.332,0.332,0.332,0.332,0.332,0.332,0.331,0.331,0.331,0.331,0.331,0.33,0.33,0.32875,0.3285,0.328,0.328,0.327,0.327,0.327,0.327,0.327,0.327,0.327,0.326,0.326,0.326,0.326,0.326,0.326,0.326,0.325,0.324,0.324,0.324,0.323,0.323,0.324,0.3235,0.323,0.323,0.323,0.3235,0.323,0.323,0.323,0.323,0.323,0.323,0.323,0.323,0.322,0.321,0.321,0.321,0.32,0.32,0.319,0.0,0.0,0.0,0.318,0.318,0.318,0.318,0.318,0.318,0.318,0.318,0.318,0.318,0.317,0.317,0.316,0.316,0.316,0.315,0.315,0.315,0.315,0.315,0.3155,0.316,0.316,0.316,0.316,0.316,0.316,0.316,0.315,0.315,0.315,0.314,0.313,0.312,0.312,0.312,0.312,0.312,0.312,0.311,0.311,0.0,0.0,0.0,0.0,0.0,0.0,0.0,0.0,0.0,0.0,0.0,0.0,0.0,0.0,0.0,0.0,0.0,0.0,0.0,0.0,0.0,0.0,0.0,0.0,0.0,0.0,0.0,0.0,0.0,0.0,0.0,0.0,0.0,0.0,0.0,0.0,0.0,0.0,0.0,0.0,0.0,0.0,0.0,0.0
0.441,0.441,0.441,0.441,0.441,0.441,0.441,0.441,0.441,0.441,0.442,0.442,0.442,0.443,0.442,0.442,0.0,0.0,0.439,0.436,0.435,0.435,0.434,0.433,0.432,0.432,0.432,0.432,0.432,0.432,0.43175,0.431,0.431,0.431,0.43,0.43,0.429,0.429,0.428,0.427,0.427,0.426,0.426,0.425,0.424,0.424,0.423,0.423,0.422,0.422,0.422,0.422,0.421,0.421,0.421,0.423,0.423,0.422,0.422,0.421,0.421,0.421,0.42,0.419,0.418,0.418,0.417,0.417,0.417,0.416,0.416,0.416,0.416,0.416,0.416,0.416,0.415,0.415,0.415,0.415,0.414,0.414,0.413,0.413,0.412,0.412,0.412,0.412,0.412,0.411,0.411,0.411,0.411,0.411,0.411,0.411,0.411,0.411,0.41,0.41,0.41,0.409,0.408,0.407,0.407,0.407,0.407,0.407,0.406,0.406,0.406,0.406,0.405,0.405,0.404,0.403,0.402,0.402,0.402,0.401,0.401,0.4,0.4,0.399,0.399,0.399,0.399,0.398,0.398,0.398,0.398,0.398,0.398,0.398,0.398,0.397,0.397,0.397,0.397,0.397,0.395,0.395,0.394,0.394,0.394,0.393,0.393,0.393,0.393,0.393,0.392,0.392,0.392,0.391,0.391,0.391,0.391,0.39,0.39,0.39,0.389,0.389,0.389,0.389,0.389,0.389,0.388,0.388,0.387,0.386,0.386,0.385,0.385,0.385,0.385,0.385,0.385,0.0,0.0,0.384,0.384,0.384,0.384,0.383,0.383,0.382,0.382,0.381,0.381,0.381,0.381,0.381,0.381,0.38,0.379,0.379,0.378,0.378,0.378,0.377,0.377,0.377,0.378,0.378,0.378,0.378,0.378,0.378,0.377,0.377,0.377,0.377,0.377,0.377,0.377,0.0,0.0,0.377,0.377,0.377,0.377,0.377,0.375,0.375,0.374,0.374,0.373,0.373,0.373,0.373,0.372,0.372,0.372,0.371,0.371,0.371,0.37,0.37,0.37,0.37,0.369,0.369,0.369,0.369,0.368,0.367,0.367,0.367,0.367,0.367,0.367,0.366,0.0,0.0,0.366,0.366,0.366,0.366,0.365,0.365,0.365,0.0,0.0,0.363,0.363,0.362,0.362,0.362,0.362,0.362,0.362,0.362,0.362,0.362,0.361,0.361,0.36,0.359,0.359,0.359,0.359,0.359,0.359,0.359,0.358,0.358,0.3575,0.0,0.0,0.358,0.358,0.358,0.357,0.357,0.357,0.356,0.356,0.356,0.355,0.355,0.355,0.355,0.355,0.355,0.355,0.354,0.354,0.353,0.353,0.352,0.352,0.351,0.351,0.351,0.351,0.35,0.35,0.35,0.35,0.35,0.35,0.349,0.349,0.348,0.348,0.348,0.348,0.348,0.348,0.347,0.347,0.347,0.347,0.347,0.347,0.346,0.346,0.345,0.345,0.344,0.344,0.344,0.344,0.344,0.343,0.343,0.342,0.342,0.341,0.341,0.34,0.34,0.339,0.339,0.339,0.339,0.0,0.0,0.0,0.338,0.338,0.0,0.0,0.0,0.0,0.0,0.0,0.0,0.0,0.0,0.338,0.337,0.337,0.336,0.336,0.336,0.336,0.335,0.335,0.335,0.335,0.334,0.334,0.333,0.333,0.332,0.333,0.333,0.333,0.0,0.0,0.0,0.0,0.0,0.332,0.332,0.331,0.331,0.331,0.331,0.331,0.33,0.33,0.33,0.33,0.33,0.33,0.33,0.329,0.329,0.329,0.327,0.327,0.326,0.326,0.326,0.326,0.326,0.326,0.326,0.326,0.326,0.325,0.325,0.325,0.325,0.325,0.324,0.324,0.324,0.323,0.323,0.323,0.323,0.323,0.323,0.323,0.0,0.0,0.323,0.323,0.323,0.322,0.323,0.322,0.322,0.322,0.322,0.321,0.321,0.321,0.32,0.32,0.319,0.318,0.318,0.317,0.317,0.317,0.317,0.317,0.316,0.316,0.317,0.316,0.316,0.316,0.316,0.316,0.315,0.315,0.315,0.315,0.315,0.315,0.314,0.314,0.314,0.315,0.315,0.315,0.315,0.315,0.0,0.0,0.0,0.314,0.314,0.3135,0.313,0.312,0.312,0.31124999999999997,0.311,0.311,0.311,0.311,0.31,0.31,0.31,0.0,0.0,0.0,0.0,0.0,0.0,0.0,0.0,0.0,0.0,0.0,0.0,0.0,0.0,0.0,0.0,0.0,0.0,0.0,0.0,0.0,0.0,0.0,0.0,0.0,0.0,0.0,0.0,0.0,0.0,0.0,0.0,0.0,0.0,0.0,0.0,0.0,0.0,0.0,0.0,0.0,0.0,0.0,0.0
0.441,0.44,0.44,0.44,0.44,0.439,0.439,0.439,0.439,0.44,0.439,0.0,0.0,0.441,0.441,0.0,0.0,0.0,0.435,0.433,0.432,0.431,0.431,0.431,0.43,0.43,0.43,0.43,0.43,0.429,0.429,0.429,0.429,0.429,0.428,0.428,0.427,0.426,0.426,0.425,0.425,0.424,0.423,0.422,0.421,0.421,0.421,0.421,0.421,0.421,0.421,0.421,0.421,0.42,0.42,0.42,0.42,0.419,0.421,0.42,0.419,0.418,0.418,0.417,0.416,0.416,0.416,0.416,0.416,0.415,0.415,0.415,0.414,0.414,0.414,0.413,0.413,0.413,0.413,0.412,0.412,0.411,0.411,0.411,0.411,0.411,0.411,0.411,0.411,0.41,0.41,0.41,0.41,0.409,0.409,0.409,0.408,0.408,0.408,0.407,0.407,0.407,0.406,0.406,0.406,0.406,0.405,0.406,0.405,0.404,0.404,0.404,0.403,0.403,0.402,0.402,0.401,0.401,0.399,0.398,0.398,0.398,0.398,0.398,0.398,0.398,0.397,0.397,0.397,0.397,0.397,0.397,0.397,0.396,0.396,0.396,0.395,0.394,0.394,0.394,0.393,0.393,0.393,0.393,0.392,0.392,0.392,0.392,0.391,0.391,0.391,0.39,0.39,0.39,0.389,0.389,0.389,0.389,0.389,0.389,0.389,0.389,0.388,0.38725,0.387,0.387,0.38650000000000007,0.386,0.385,0.385,0.385,0.385,0.384,0.384,0.384,0.383,0.383,0.383,0.383,0.382,0.382,0.381,0.381,0.381,0.381,0.381,0.381,0.38,0.38,0.379,0.379,0.378,0.378,0.378,0.377,0.377,0.377,0.377,0.377,0.377,0.376,0.376,0.376,0.376,0.376,0.376,0.377,0.377,0.377,0.377,0.377,0.377,0.376,0.376,0.0,0.0,0.0,0.3755,0.376,0.376,0.375,0.374,0.373,0.373,0.373,0.372,0.372,0.371,0.37,0.37,0.37,0.37,0.37,0.369,0.369,0.369,0.369,0.369,0.369,0.368,0.368,0.368,0.367,0.366,0.366,0.366,0.366,0.366,0.366,0.366,0.366,0.365,0.0,0.0,0.364,0.364,0.364,0.363,0.363,0.362,0.0,0.0,0.0,0.362,0.361,0.361,0.361,0.361,0.361,0.361,0.361,0.361,0.36,0.359,0.359,0.358,0.358,0.358,0.358,0.358,0.358,0.358,0.358,0.357,0.357,0.357,0.356,0.356,0.356,0.356,0.355,0.355,0.355,0.0,0.0,0.355,0.355,0.354,0.354,0.354,0.354,0.354,0.354,0.353,0.352,0.352,0.352,0.352,0.351,0.351,0.3505,0.35,0.35,0.349,0.349,0.349,0.349,0.348,0.348,0.348,0.348,0.348,0.348,0.347,0.347,0.347,0.346,0.346,0.345,0.345,0.345,0.345,0.345,0.345,0.345,0.345,0.343,0.343,0.343,0.343,0.342,0.342,0.342,0.342,0.341,0.341,0.341,0.34,0.34,0.34,0.339,0.339,0.339,0.339,0.339,0.338,0.338,0.337,0.337,0.336,0.0,0.0,0.0,0.0,0.0,0.0,0.0,0.0,0.0,0.0,0.336,0.0,0.0,0.0,0.0,0.335,0.335,0.335,0.334,0.333,0.333,0.333,0.333,0.332,0.332,0.332,0.332,0.332,0.332,0.332,0.331,0.331,0.33,0.33,0.33,0.33,0.33,0.33,0.33,0.33,0.33,0.329,0.329,0.329,0.329,0.329,0.329,0.329,0.328,0.327,0.326,0.326,0.326,0.325,0.325,0.325,0.324,0.324,0.324,0.324,0.324,0.324,0.324,0.324,0.323,0.323,0.323,0.323,0.323,0.323,0.323,0.322,0.322,0.322,0.322,0.322,0.322,0.0,0.0,0.322,0.322,0.322,0.321,0.321,0.321,0.321,0.321,0.321,0.32,0.32,0.32,0.319,0.31825,0.317,0.317,0.316,0.316,0.316,0.316,0.315,0.315,0.315,0.315,0.315,0.315,0.315,0.315,0.315,0.315,0.0,0.314,0.314,0.314,0.314,0.313,0.313,0.313,0.313,0.313,0.314,0.314,0.314,0.0,0.0,0.0,0.0,0.0,0.312,0.0,0.3115,0.311125,0.311,0.31,0.31,0.31,0.31,0.31,0.309,0.309,0.309,0.3085,0.308,0.0,0.0,0.0,0.0,0.0,0.0,0.0,0.0,0.0,0.0,0.0,0.0,0.0,0.0,0.0,0.0,0.0,0.0,0.0,0.0,0.0,0.0,0.0,0.0,0.0,0.0,0.0,0.0,0.0,0.0,0.0,0.0,0.0,0.0,0.0,0.0,0.0,0.0,0.0,0.0,0.0,0.0
