6.127,6.159,6.159,6.225,6.225,6.159,6.225,6.225,6.159,6.159,6.225,6.327,6.361,6.432,6.467,6.54,6.577,6.614,6.652,6.652,6.614,6.614,6.614,6.614,6.577,6.54,6.54,6.54,6.504,6.504,6.467,6.467,6.432,6.432,6.432,6.396,6.396,6.361,6.361,6.361,6.361,6.327,6.327,6.327,6.259,6.259,6.259,6.327,6.327,6.361,6.396,6.432,6.467,6.504,6.54,6.54,6.54,6.54,6.54,6.54,6.504,6.467,6.396,6.361,6.327,6.259,6.259,6.259,6.259,6.259,6.259,6.327,6.327,6.259,6.127,5.821,5.0665,4.312,3.946,3.946,3.933,3.92,3.906,3.92,3.906,3.92,3.92,3.933,3.933,3.973,3.987,3.987,4.014,4.028,4.056,4.07,4.085,4.085,4.114,4.114,4.114,4.128,4.128,4.128,4.158,4.158,4.158,4.173,4.188,4.173,4.188,4.188,4.173,4.158,4.128,4.07,4.028,3.987,3.92,3.868,3.842,3.817,3.743,3.696,3.649,3.593,3.549,3.528,3.506,3.496,3.485,3.475,3.475,3.475,3.475,3.485,3.475,0.0,0.0,0.0,0.0,0.0,0.0,5.763,5.68075,5.735,5.85,5.939,6.032,6.095,6.095,6.127,6.159,6.159,6.225,6.225,6.259,6.327,6.327,6.361,6.396,6.432,6.467,6.467,6.504,6.54,6.54,6.54,6.54,6.577,6.577,6.577,6.577,6.577,6.577,6.577,6.577,6.577,6.54,6.54,6.54,6.504,6.467,6.396,6.327,6.225,6.127,6.095,6.032,6.001,6.001,5.939,5.939,5.939,5.939,6.032,6.095,6.159,6.225,6.361,6.396,6.432,6.504,6.54,6.54,6.54,6.54,6.54,6.54,6.504,6.467,6.432,6.396,6.361,6.259,6.225,6.159,6.159,6.159,6.225,6.225,6.259,6.327,6.396,6.467,6.485625,6.54,6.54,6.577,6.614,6.652,6.69,6.69,6.729,6.729,6.69,6.614,6.54,6.467,6.327,6.127,5.939,5.821,5.735,5.679,5.651,5.651,5.679,5.679,5.679,5.679,5.679,5.707,5.707,5.735,5.735,5.792,5.821,5.909,6.001,6.032,6.159,6.225,6.327,6.396,6.396,6.432,6.432,6.432,6.467,6.467,6.54,6.54,6.577,6.614,6.652,6.729,6.848,6.888,6.929,6.929,6.971,7.055,7.098,7.098,7.186,7.186,7.231,7.322,7.415,7.415,7.511,7.559,7.709,7.813,7.973,7.973,8.028,8.084,8.198,8.256,8.256,8.315,8.315,8.375,8.375,8.497,8.56,8.753,8.819,8.955,9.166,9.239,9.313,9.467250000000002,9.542,9.783,9.865,9.95,10.036,10.123,10.212,10.212,10.302,10.394,10.394,10.583,10.583,10.68,10.779,10.982,11.087,11.087,11.194,11.194,11.194,11.194,11.194,11.194,11.194,11.087,11.087,10.982,10.88,10.779,10.779,10.68,10.68,10.68,10.68,10.583,10.68,10.68,10.779,10.982,11.087,11.194,11.526,12.001,12.384,12.935,13.536,13.859,14.197,14.372,14.552,14.372,14.372,14.197,14.197,13.696,13.536,12.935,12.793,12.793,12.793,12.793,13.229,13.229,13.381,13.381,13.229,13.229,12.793,12.384,11.879,11.641,11.194,10.68,10.583,10.488,10.394,10.302,9.166,0.0,0.0,0.0,4.732,4.657,4.638,4.638,4.638,4.601,4.601,4.601,4.638,4.638,4.638,4.657,4.657,4.694,4.694,4.694,4.713,4.713,4.713,4.713,4.732,4.81,4.891,0.0,0.0,0.0,0.0,0.0,0.0,0.0,0.0,0.0,0.0,0.0,10.212,10.394,10.488,10.583,10.779,10.88,10.88,10.982,11.087,11.194,11.302,11.302,11.302,11.194,11.087,10.982,10.88,10.779,10.68,10.583,10.394,10.394,10.302,10.302,10.212,10.212,10.123,10.123,10.123,10.123,10.123,10.036,9.95,9.95,9.95,9.865,9.865,9.783,9.783,9.783,9.95,9.95,9.865,9.95,9.865,9.865,9.783,9.701,9.542,9.464,9.313,9.166,9.024,8.819,8.753,8.56,8.497,8.375,8.315,8.256,8.256,8.198,8.198,8.198,8.141,8.141,8.084,8.028,8.028,7.973,7.973,7.919,7.813,7.709,7.659,7.511,7.322,7.186,7.055,6.971,6.888,6.848,6.768,6.729,6.614,6.54,6.159,6.032,5.85,5.821,5.792,5.763,5.763,5.85,6.0375,6.225,6.467,0.0,0.0,0.0,0.0,0.0,0.0,0.0,0.0,0.0,0.0,0.0,0.0,0.0,0.0,0.0
6.159,6.159,6.225,6.225,6.259,6.259,6.259,6.259,6.259,6.259,6.259,6.361,6.396,6.432,6.467,6.54,6.577,6.614,6.614,6.652,6.614,6.614,6.614,6.614,6.577,6.577,6.54,6.504,6.504,6.467,6.467,6.432,6.467,6.432,6.432,6.432,6.432,6.432,6.396,6.396,6.361,6.327,6.327,6.327,6.259,6.259,6.259,6.259,6.259,6.327,6.361,6.432,6.467,6.504,6.54,6.54,6.577,6.577,6.577,6.54,6.54,6.54,6.504,6.432,6.432,6.396,6.361,6.361,6.396,6.396,6.396,6.432,6.432,6.432,6.361,6.127,0.0,0.0,3.973,3.946,3.946,3.933,3.92,3.92,3.906,3.92,3.933,3.946,3.946,3.973,3.997,4.014,4.028,4.028,4.056,4.07,4.07,4.07,4.07,4.07,4.07,4.07,4.07,4.07,4.085,4.085,4.114,4.128,4.128,4.128,4.128,4.128,4.128,4.085,4.07,4.028,3.987,3.933,3.893,3.855,3.829,3.804,3.743,3.696,3.649,3.593,3.56,3.538,3.517,3.496,3.485,3.485,3.485,3.485,3.485,3.485,3.496,3.549,0.0,0.0,0.0,0.0,0.0,5.3375,5.316,5.597,5.735,5.909,6.001,6.095,6.095,6.127,6.159,6.225,6.225,6.259,6.259,6.327,6.327,6.361,6.396,6.432,6.467,6.467,6.504,6.504,6.504,6.504,6.54,6.54,6.54,6.54,6.504,6.504,6.504,6.504,6.54,6.54,6.54,6.54,6.54,6.504,6.504,6.432,6.361,6.259,6.225,6.127,6.127,6.032,6.001,6.001,6.001,6.001,6.032,6.095,6.127,6.225,6.327,6.361,6.432,6.467,6.54,6.54,6.54,6.54,6.54,6.54,6.504,6.504,6.467,6.432,6.396,6.259,6.259,6.225,6.159,6.127,6.159,6.127,6.159,6.159,6.225,6.259,6.361,6.432,6.504,6.54,6.577,6.577,6.614,6.652,6.69,6.729,6.729,6.69,6.652,6.577,6.504,6.361,6.159,6.032,5.909,5.763,5.707,5.679,5.679,5.679,5.679,5.679,5.707,5.735,5.735,5.735,5.763,5.792,5.792,5.821,5.909,6.001,6.001,6.095,6.159,6.259,6.361,6.361,6.396,6.396,6.396,6.432,6.467,6.694,0.0,6.774,0.0,0.0,0.0,0.0,0.0,0.0,6.808,6.888,6.888,6.929,6.929,6.929,6.971,7.098,7.322,7.368,7.511,7.511,7.559,7.813,7.919,7.973,8.028,8.084,8.198,8.198,8.256,8.315,8.315,8.315,8.375,8.375,8.436,8.436,8.56,8.623,8.753,8.819,9.024,9.239,9.313,9.408,9.464,9.701,9.783,9.865,10.036,10.123,10.212,10.212,10.302,10.394,10.394,10.583,10.68,10.779,10.779,10.982,11.087,11.194,11.302,11.302,11.302,11.302,11.302,11.194,11.087,11.087,10.982,10.982,10.779,10.68,10.68,10.68,10.68,10.583,10.583,10.68,10.68,10.779,10.88,11.087,11.087,11.526,11.879,12.254,12.518,12.935,13.381,13.696,14.197,14.372,14.197,14.197,14.197,14.026,13.696,13.381,12.935,12.384,12.518,12.518,12.793,12.935,13.229,13.381,13.381,13.229,12.935,12.793,12.384,12.001,11.641,11.302,10.779,10.68,10.583,10.488,10.394,8.375,0.0,0.0,4.601,4.62925,4.601,4.583,4.601,4.583,4.583,4.583,4.601,4.601,4.601,4.638,4.638,4.657,4.694,4.694,4.694,4.713,4.713,4.713,4.732,4.732,4.791,4.891,0.0,0.0,0.0,0.0,0.0,0.0,0.0,0.0,0.0,0.0,10.394,10.583,10.68,10.68,10.779,10.88,10.982,11.087,11.087,11.087,11.194,11.302,11.302,11.302,11.194,11.194,10.982,10.88,10.779,10.68,10.583,10.394,10.302,10.212,10.212,10.123,10.123,10.036,10.036,9.95,9.95,9.95,9.95,9.95,9.865,9.865,9.783,9.701,9.701,9.701,9.701,9.783,9.783,9.865,9.865,9.865,9.783,9.701,9.542,9.542,9.464,9.313,9.239,9.166,8.955,8.819,8.623,8.56,8.436,8.375,8.315,8.256,8.256,8.198,8.198,8.198,8.198,8.141,8.084,8.084,8.028,8.028,7.973,7.919,7.866,7.761,7.659,7.559,7.368,7.231,7.186,7.055,7.055,6.888,6.768,6.614,6.327,6.095,5.909,5.763,5.707,5.679,5.679,5.679,0.0,0.0,0.0,0.0,0.0,0.0,0.0,0.0,0.0,0.0,0.0,0.0,0.0,0.0,0.0,0.0,0.0,0.0,0.0
6.192,6.225,6.242,6.259,6.327,6.327,6.327,6.327,6.327,6.327,6.361,6.432,6.432,6.504,6.54,6.54,6.577,6.614,6.652,6.652,6.652,6.614,6.614,6.614,6.577,6.577,6.54,6.504,6.504,6.467,6.467,6.467,6.467,6.467,6.467,6.467,6.432,6.432,6.432,6.396,6.396,6.361,6.327,6.327,6.259,6.259,6.259,6.259,6.259,6.327,6.361,6.396,6.432,6.467,6.54,6.577,6.577,6.577,6.577,6.577,6.577,6.577,6.54,6.54,6.504,6.504,6.467,6.467,6.467,6.504,6.504,6.54,6.54,6.54,6.54,6.396,0.0,0.0,0.0,0.0,0.0,4.249,4.233,4.203,4.114,4.056,3.946,3.99475,3.973,3.987,4.014,4.028,4.028,4.056,4.056,4.056,4.056,4.056,4.056,4.028,4.028,4.028,4.028,4.056,4.028,4.056,4.056,4.07,4.07,4.085,4.085,4.085,4.07,4.056,4.014,3.973,3.933,3.893,3.868,3.842,3.817,3.804,3.743,3.696,3.649,3.615,3.582,3.549,3.528,3.506,3.496,3.485,3.485,3.485,3.485,3.485,3.496,3.496,3.672,0.0,0.0,0.0,0.0,4.912,5.1427499999999995,5.389,5.624,5.763,5.85,6.001,6.095,6.127,6.159,6.225,6.225,6.259,6.259,6.327,6.361,6.361,6.396,6.432,6.432,6.432,6.432,6.467,6.467,6.467,6.467,6.432,6.432,6.432,6.432,6.432,6.396,6.396,6.432,6.432,6.467,6.467,6.467,6.504,6.467,6.432,6.396,6.327,6.225,6.159,6.127,6.095,6.032,6.001,6.001,6.001,6.001,6.095,6.127,6.225,6.259,6.361,6.467,6.467,6.54,6.54,6.54,6.54,6.54,6.54,6.504,6.504,6.432,6.396,6.361,6.225,6.127,6.095,6.032,6.032,6.032,6.032,6.032,6.095,6.127,6.159,6.225,6.327,6.361,6.467,6.54,6.54,6.577,6.614,6.652,6.652,6.69,6.652,6.614,6.577,6.467,6.327,6.159,6.001,5.909,5.792,5.707,5.679,5.679,5.679,5.679,5.707,5.707,5.735,5.735,5.735,5.763,5.763,5.792,5.821,5.909,5.939,0.0,0.0,0.0,6.225,6.327,6.361,6.54,6.577,6.467,6.504,6.768,6.848,6.9094999999999995,6.971,0.0,0.0,0.0,0.0,0.0,0.0,6.788,6.808,6.848,6.848,6.848,6.848,6.888,7.055,7.231,7.368,7.415,7.559,7.659,7.813,7.973,8.028,8.084,8.141,8.198,8.256,8.256,8.315,8.315,8.315,8.315,8.315,8.315,8.375,8.436,8.497,8.56,8.623,8.753,8.955,9.166,9.313,9.3885,9.464,9.542,9.783,9.95,10.036,10.123,10.212,10.212,10.302,10.394,10.583,10.583,10.68,10.779,10.982,10.982,11.194,11.302,11.302,11.302,11.302,11.302,11.194,11.194,11.087,11.087,10.982,10.779,10.68,10.68,10.68,10.583,10.583,10.583,10.68,10.68,10.68,10.779,10.88,10.982,11.194,11.641,12.001,12.254,12.793,13.229,13.536,13.696,14.026,14.026,14.026,13.859,13.536,12.935,12.793,12.518,12.384,12.384,12.384,12.793,12.935,12.935,13.229,13.229,13.229,12.935,12.793,12.384,12.001,11.641,11.302,10.779,10.68,10.583,10.583,10.212,0.0,0.0,4.583,4.583,4.583,4.583,4.565,4.53,4.53,4.565,4.565,4.565,4.583,4.583,4.601,4.601,4.657,4.657,4.694,4.713,4.713,4.713,4.732,4.732,4.752,4.791,4.871,0.0,0.0,0.0,0.0,0.0,0.0,0.0,0.0,0.0,10.302,10.394,10.583,10.68,10.779,10.88,10.982,10.982,11.087,11.087,11.194,11.194,11.302,11.302,11.302,11.087,10.982,10.88,10.779,10.68,10.583,10.488,10.302,10.212,10.212,10.123,9.95,9.95,9.865,9.865,9.865,9.865,9.865,9.865,9.865,9.783,9.701,9.701,9.701,9.542,9.542,9.701,9.701,9.783,9.865,9.865,9.865,9.865,9.783,9.783,9.701,9.542,9.542,9.464,9.313,9.166,9.024,8.819,8.753,8.56,8.497,8.436,8.375,8.315,8.256,8.256,8.198,8.256,8.198,8.198,8.141,8.141,8.084,8.084,8.028,7.973,7.866,7.709,7.659,7.559,7.415,7.368,7.368,7.231,7.098,6.888,6.652,6.259,5.97725,5.763,5.679,5.651,5.624,5.597,5.597,0.0,0.0,0.0,0.0,0.0,0.0,0.0,0.0,0.0,0.0,0.0,0.0,0.0,0.0,0.0,0.0,0.0,0.0,0.0
6.192,6.225,6.259,6.276,6.327,6.361,6.361,6.361,6.396,6.396,6.432,6.467,6.504,6.54,6.54,6.577,6.577,6.614,6.652,6.614,6.652,6.614,6.614,6.614,6.614,6.577,6.54,6.54,6.504,6.467,6.467,6.467,6.467,6.467,6.467,6.467,6.467,6.432,6.432,6.432,6.396,6.361,6.361,6.327,6.259,6.259,6.259,6.225,6.259,6.327,6.361,6.396,6.432,6.504,6.54,6.577,6.577,6.614,6.614,6.614,6.614,6.614,6.577,6.577,6.577,6.577,6.54,6.54,6.54,6.54,6.577,6.577,6.577,6.577,6.577,6.54,0.0,0.0,0.0,0.0,0.0,0.0,0.0,4.565,4.376,4.28,4.218,4.114,4.056,4.014,4.014,4.028,4.028,4.056,4.056,4.056,4.056,4.028,4.028,4.014,4.014,4.014,3.987,3.987,3.987,3.987,4.014,4.014,4.014,4.014,4.028,4.028,4.028,3.987,3.973,3.933,3.906,3.88,3.855,3.829,3.817,3.78,3.755,3.707,3.672,3.627,3.593,3.56,3.538,3.517,3.496,3.496,3.485,3.485,3.496,3.496,3.506,3.517,3.615,3.78,0.0,0.0,0.0,4.644,4.954,5.197,5.44,5.651,5.763,6.032,6.032,6.095,6.127,6.225,6.225,6.259,6.327,6.361,6.361,6.396,6.396,6.396,6.432,6.396,6.396,6.396,6.396,6.361,6.361,6.361,6.327,6.327,6.327,6.327,6.327,6.259,6.327,6.327,6.361,6.361,6.361,6.396,6.396,6.361,6.361,6.259,6.225,6.159,6.095,6.095,6.032,6.001,6.001,6.001,6.032,6.095,6.159,6.225,6.327,6.361,6.396,6.432,6.504,6.54,6.54,6.54,6.54,6.54,6.504,6.467,6.396,6.361,6.159,6.127,6.032,6.001,5.939,5.909,5.939,5.909,5.939,5.939,6.001,6.032,6.095,6.159,6.225,6.327,6.361,6.432,6.504,6.54,6.54,6.577,6.577,6.577,6.54,6.504,6.396,6.259,6.127,6.001,5.909,5.792,5.735,5.679,5.679,5.679,5.707,5.707,5.735,5.763,5.735,5.763,5.763,5.792,5.792,5.821,5.909,0.0,0.0,0.0,0.0,0.0,0.0,0.0,0.0,0.0,0.0,0.0,0.0,0.0,0.0,0.0,0.0,0.0,0.0,0.0,0.0,6.808,6.768,6.768,6.729,6.808,6.768,6.808,6.888,6.971,7.186,7.322,7.415,7.559,7.709,7.919,7.973,8.028,8.084,8.198,8.198,8.256,8.256,8.256,8.256,8.256,8.256,8.256,8.256,8.256,8.315,8.375,8.436,8.497,8.56,8.819,8.955,9.166,9.313,9.408000000000001,9.542,9.783,9.865,10.036,10.212,10.212,10.302,10.394,10.394,10.583,10.583,10.68,10.779,10.88,10.982,11.087,11.194,11.194,11.302,11.526,11.302,11.194,11.194,11.087,10.982,10.982,10.88,10.68,10.68,10.68,10.583,10.583,10.583,10.68,10.68,10.779,10.88,10.982,11.087,11.194,11.302,11.526,11.879,12.254,12.384,12.793,12.935,13.381,13.381,13.381,13.229,13.229,12.793,12.518,12.384,12.254,12.254,12.384,12.793,12.935,12.935,13.229,13.381,13.229,13.229,12.793,12.518,12.254,11.879,11.526,11.087,10.68,10.583,10.583,8.753,0.0,0.0,4.512,4.512,4.512,4.512,4.512,4.512,4.512,4.512,4.53,4.53,4.565,4.565,4.583,4.601,4.638,4.657,4.694,4.713,4.713,4.732,4.732,4.752,4.752,4.81,4.891,5.151,0.0,0.0,0.0,0.0,7.813,0.0,0.0,10.302,10.394,10.488,10.583,10.583,10.68,10.779,10.88,10.982,11.087,11.087,11.194,11.302,11.302,11.302,11.194,11.194,11.087,10.88,10.779,10.68,10.488,10.394,10.212,10.036,10.036,9.865,9.783,9.701,9.701,9.701,9.701,9.701,9.701,9.701,9.701,9.701,9.542,9.464,9.464,9.464,9.464,9.464,9.542,9.701,9.865,9.95,9.95,9.865,9.95,9.865,9.865,9.783,9.783,9.701,9.464,9.313,9.166,9.024,8.819,8.753,8.56,8.56,8.497,8.375,8.315,8.375,8.315,8.315,8.256,8.256,8.256,8.198,8.084,8.084,8.028,8.028,7.973,7.973,7.919,7.866,7.709,7.559,7.322,7.186,6.971,6.729,6.596,6.194,5.792,5.679,5.651,5.597,5.57,0.0,0.0,0.0,0.0,0.0,0.0,0.0,0.0,0.0,0.0,0.0,0.0,0.0,0.0,0.0,0.0,0.0,0.0,0.0,0.0,0.0
6.175749999999999,6.225,6.259,6.259,6.327,6.361,6.361,6.396,6.396,6.432,6.467,6.504,6.54,6.54,6.577,6.577,6.577,6.614,6.614,6.614,6.614,6.614,6.614,6.614,6.577,6.577,6.577,6.54,6.54,6.504,6.504,6.504,6.467,6.467,6.467,6.467,6.467,6.432,6.432,6.432,6.396,6.361,6.361,6.327,6.327,6.259,6.259,6.259,6.292999999999999,6.327,6.361,6.396,6.432,6.504,6.54,6.577,6.614,6.614,6.652,6.652,6.652,6.652,6.614,6.614,6.614,6.614,6.614,6.614,6.614,6.614,6.614,6.614,6.614,6.614,6.614,6.614,0.0,0.0,0.0,0.0,0.0,0.0,0.0,0.0,0.0,4.638,4.376,4.312,4.249,4.158,4.114,4.056,4.056,4.056,4.056,4.056,4.028,4.014,3.987,3.987,3.973,3.973,3.946,3.946,3.933,3.946,3.946,3.946,3.946,3.946,3.973,3.987,3.973,3.946,3.933,3.906,3.88,3.868,3.855,3.829,3.817,3.78,3.755,3.731,3.696,3.649,3.615,3.582,3.538,3.528,3.506,3.496,3.485,3.485,3.496,3.496,3.506,3.528,3.593,3.743,3.868,4.013,4.158,4.376,0.0,5.086,5.244,5.597,5.763,6.001,6.095,6.095,6.127,6.159,6.225,6.259,6.327,6.327,6.361,6.361,6.361,6.396,6.361,6.361,6.361,6.327,6.327,6.259,6.225,6.225,6.225,6.225,6.127,6.127,6.095,6.095,6.127,6.159,6.159,6.159,6.159,6.225,6.159,6.159,6.159,6.095,6.095,6.095,6.032,6.032,6.001,6.001,6.001,6.001,6.001,6.032,6.095,6.159,6.225,6.327,6.361,6.396,6.432,6.467,6.467,6.504,6.54,6.504,6.432,6.432,6.361,6.225,6.127,6.032,5.939,5.909,5.821,5.821,5.792,5.792,5.792,5.821,5.85,5.85,5.909,5.939,6.032,6.127,6.159,6.225,6.259,6.361,6.396,6.432,6.467,6.467,6.467,6.396,6.259,6.159,6.032,5.939,5.85,5.792,5.735,5.679,5.679,5.679,5.707,5.707,5.735,5.763,5.763,5.763,5.792,5.792,5.821,5.909,6.034,0.0,0.0,0.0,0.0,0.0,0.0,0.0,0.0,0.0,0.0,0.0,0.0,0.0,0.0,0.0,0.0,0.0,0.0,0.0,0.0,6.8895,6.828374999999999,6.768,6.768,6.729,6.729,6.768,6.888,7.055,7.322,7.511,7.415,7.709,7.813,7.973,8.028,8.084,8.141,8.198,8.198,8.198,8.256,8.256,8.256,8.198,8.198,8.198,8.198,8.198,8.256,8.256,8.256,8.375,8.436,8.56,8.753,8.955,9.166,9.313,9.507000000000001,9.701,9.783,10.036,10.123,10.212,10.302,10.394,10.394,10.488,10.583,10.68,10.779,10.88,10.982,11.087,11.087,11.194,11.302,11.302,11.302,11.302,11.302,11.194,11.087,10.982,10.88,10.68,10.68,10.68,10.68,10.583,10.583,10.68,10.68,10.779,10.88,10.88,10.88,10.982,11.087,11.194,11.302,11.526,11.879,11.879,12.254,12.384,12.384,12.518,12.518,12.384,12.254,11.879,11.879,12.001,12.001,12.384,12.518,12.793,12.793,12.935,13.229,13.229,13.229,12.935,12.518,12.254,12.001,11.641,11.194,10.68,10.583,10.212,0.0,0.0,0.0,4.512,4.512,4.512,4.477,4.477,4.477,4.477,4.477,4.512,4.512,4.53,4.565,4.565,4.583,4.638,4.657,4.657,4.694,4.713,4.732,4.752,4.752,4.752,4.81,4.933,0.0,0.0,0.0,6.614,7.2935,7.973,9.048,10.123,10.302,10.302,10.394,10.488,10.583,10.583,10.68,10.68,10.88,10.88,10.982,11.087,11.194,11.194,11.302,11.194,11.194,10.982,10.88,10.68,10.68,10.394,10.302,10.123,9.865,9.783,9.464,9.313,9.239,9.166,9.166,9.166,9.464,9.464,9.313,9.464,9.313,9.313,9.313,9.239,9.239,9.239,9.313,9.464,9.542,9.865,9.865,9.95,9.95,9.95,9.95,9.95,9.865,9.865,9.783,9.701,9.464,9.313,9.166,9.024,8.819,8.753,8.623,8.56,8.497,8.436,8.436,8.436,8.375,8.315,8.256,8.256,8.198,8.141,8.084,8.084,8.028,8.028,7.973,7.919,7.919,7.761,7.659,7.415,7.186,6.971,6.729,6.54,6.022,5.7355,5.638,5.5969999999999995,5.5634999999999994,5.543,0.0,0.0,5.491,5.478,5.465,5.465,0.0,0.0,0.0,0.0,0.0,0.0,0.0,0.0,0.0,0.0,0.0,0.0,0.0,0.0,0.0
6.127,6.159,6.225,6.225,6.259,6.327,6.361,6.361,6.396,6.432,6.467,6.504,6.54,6.54,6.577,6.577,6.577,6.614,6.614,6.614,6.614,6.614,6.614,6.614,6.577,6.577,6.577,6.54,6.54,6.504,6.504,6.504,6.504,6.504,6.504,6.467,6.467,6.467,6.432,6.432,6.396,6.361,6.361,6.327,6.327,6.327,6.259,6.259,6.327,6.327,6.396,6.42275,6.467,6.504,6.54,6.614,6.614,6.652,6.652,6.69,6.69,6.69,6.69,6.69,6.69,6.652,6.652,6.652,6.652,6.652,6.652,6.652,6.652,6.652,6.652,6.69,0.0,0.0,0.0,0.0,0.0,0.0,0.0,0.0,0.0,0.0,0.0,4.583,4.512,4.312,4.233,4.128,4.085,4.07,4.056,4.056,4.028,4.014,3.987,3.973,3.946,3.933,3.92,3.92,3.906,3.906,3.906,3.906,3.92,3.92,3.92,3.933,3.933,3.933,3.906,3.893,3.868,3.868,3.855,3.829,3.817,3.792,3.767,3.731,3.696,3.661,3.627,3.582,3.549,3.528,3.506,3.496,3.485,3.485,3.496,3.496,3.517,3.538,3.593,3.696,3.817,0.0,0.0,4.28,4.6274999999999995,4.975,5.246,5.517,5.679,6.001,6.032,6.095,6.127,6.159,6.159,6.225,6.259,6.327,6.327,6.327,6.361,6.327,6.327,6.259,6.259,6.225,6.159,6.159,6.127,6.095,6.032,6.032,6.001,5.939,5.909,5.909,5.939,5.939,5.939,5.939,5.909,5.939,5.939,5.939,5.939,5.939,5.763,5.939,5.792,5.821,5.85,5.85,5.909,5.909,5.939,6.001,6.032,6.095,6.159,6.259,6.327,6.361,6.396,6.396,6.432,6.467,6.467,6.467,6.432,6.361,6.327,6.159,6.032,6.001,5.85,5.792,5.763,5.735,5.707,5.735,5.735,5.735,5.735,5.735,5.763,5.792,5.821,5.909,5.909,6.001,6.032,6.095,6.127,6.159,6.225,6.259,6.259,6.225,6.127,6.032,5.939,5.909,5.821,5.792,5.735,5.679,5.679,5.679,5.707,5.707,5.735,5.763,5.763,5.792,5.821,5.909,5.939,6.032,6.159,0.0,0.0,0.0,0.0,0.0,0.0,0.0,0.0,0.0,0.0,7.659,7.709,7.761,7.761,7.761,7.761,7.761,7.659,7.368,7.186,6.971,6.888,6.888,6.848,6.848,6.848,6.888,7.098,7.322,7.559,7.761,7.866,7.973,8.028,8.084,8.084,8.084,8.141,8.198,8.198,8.198,8.198,8.198,8.198,8.198,8.141,8.141,8.141,8.141,8.198,8.198,8.198,8.256,8.315,8.436,8.56,8.819,8.955,9.166,9.354,9.542,9.783,10.036,10.212,10.302,10.302,10.394,10.488,10.583,10.68,10.779,10.88,10.982,10.982,11.087,11.194,11.194,11.526,11.526,11.526,11.526,11.302,11.302,11.194,11.087,10.982,10.88,10.779,10.68,10.68,10.68,10.68,10.779,10.779,10.779,10.88,10.779,10.779,10.779,10.88,10.88,10.982,10.982,11.087,11.087,11.302,11.526,11.641,11.641,11.879,11.801499999999999,11.641,11.641,11.526,11.879,11.879,12.001,12.384,12.518,12.935,12.935,13.229,13.229,13.229,12.793,12.518,12.254,12.001,11.641,11.194,10.68,10.442499999999999,0.0,0.0,0.0,4.657,4.512,4.512,4.477,4.477,4.46,4.46,4.46,4.477,4.477,4.512,4.53,4.53,4.565,4.583,4.601,4.638,4.657,4.694,4.713,4.732,4.732,4.752,4.752,4.81,4.954,0.0,0.0,0.0,0.0,0.0,0.0,0.0,10.0365,10.212,10.212,10.302,10.394,10.394,10.488,10.583,10.68,10.68,10.779,10.88,11.087,11.087,11.087,11.087,11.087,10.982,10.88,10.68,10.68,10.583,10.394,10.212,9.95,9.701,9.464,9.239,9.024,8.955,8.955,8.955,8.955,8.955,8.955,8.955,8.955,8.955,8.955,9.024,9.024,9.024,9.024,9.166,9.239,9.542,9.783,9.95,10.036,10.036,10.036,10.036,10.036,9.95,9.95,9.865,9.865,9.701,9.542,9.313,9.239,9.166,8.955,8.819,8.753,8.623,8.56,8.497,8.436,8.436,8.375,8.315,8.256,8.256,8.198,8.141,8.141,8.084,8.084,8.084,8.028,8.028,7.973,7.813,7.709,7.368,7.098,6.729,6.287749999999999,5.85,5.679,5.597,5.543,5.517,5.465,5.465,5.44,5.44,5.44,5.415,0.0,0.0,0.0,0.0,0.0,0.0,0.0,0.0,0.0,0.0,0.0,0.0,0.0,0.0,0.0,0.0
6.095,6.127,6.159,6.225,6.225,6.327,6.327,6.361,6.396,6.432,6.467,6.504,6.54,6.54,6.577,6.577,6.577,6.614,6.614,6.614,6.614,6.614,6.614,6.577,6.577,6.577,6.577,6.54,6.54,6.54,6.504,6.504,6.504,6.504,6.504,6.504,6.467,6.467,6.467,6.432,6.432,6.396,6.396,6.361,6.361,6.327,6.327,6.327,6.327,6.361,6.396,6.432,6.467,6.54,6.577,6.614,6.652,6.652,6.69,6.69,6.69,6.69,6.69,6.69,6.69,6.69,6.69,6.69,6.69,6.69,6.69,6.69,6.69,6.69,6.69,6.69,6.69,6.729,0.0,0.0,0.0,6.768,6.69,6.614,6.54,0.0,0.0,0.0,0.0,0.0,4.344,4.249,4.158,4.07,4.07,4.056,4.056,4.028,4.014,3.973,3.946,3.933,3.92,3.906,3.893,3.893,3.893,3.893,3.893,3.893,3.906,3.92,3.92,3.906,3.906,3.88,3.868,3.868,3.855,3.829,3.817,3.792,3.767,3.743,3.707,3.672,3.627,3.593,3.56,3.528,3.506,3.496,3.496,3.485,3.496,3.496,3.517,3.528,3.582,3.661,3.792,0.0,0.0,4.128,4.36,4.81,5.0195,5.151,5.57,5.792,5.939,6.095,6.127,6.159,6.225,6.225,6.259,6.259,6.327,6.327,6.259,6.259,6.259,6.225,6.159,6.127,6.095,6.032,6.001,5.939,5.939,5.909,5.85,5.821,5.792,5.792,5.792,5.763,5.792,5.763,5.679,5.679,5.679,5.679,5.679,5.679,5.679,5.707,5.735,5.763,5.792,5.821,5.85,5.8795,5.909,5.939,6.001,6.032,6.127,6.225,6.225,6.327,6.327,6.361,6.396,6.432,6.432,6.396,6.396,6.327,6.225,6.127,6.032,5.939,5.821,5.763,5.735,5.679,5.679,5.679,5.679,5.679,5.679,5.679,5.707,5.707,5.707,5.763,5.763,5.792,5.792,5.85,5.909,5.939,6.032,6.032,6.095,6.032,6.032,5.939,5.85,5.821,5.792,5.763,5.735,5.679,5.679,5.679,5.707,5.707,5.735,5.763,5.763,5.792,5.85,5.909,6.001,6.095,6.259,6.432,0.0,0.0,6.929,0.0,0.0,0.0,0.0,7.709,7.813,7.866,7.919,7.919,7.919,7.866,7.813,7.813,7.659,7.368,7.231,7.055,6.929,6.929,6.929,6.929,6.971,7.055,7.322,7.415,7.761,7.866,7.973,7.973,8.028,8.084,8.084,8.084,8.084,8.084,8.084,8.084,8.084,8.084,8.141,8.084,8.084,8.084,8.084,8.084,8.084,8.141,8.141,8.198,8.256,8.315,8.436,8.623,8.819,9.166,9.324250000000001,9.464,9.783,10.036,10.302,10.394,10.583,10.583,10.68,10.68,10.779,10.88,10.982,11.087,11.087,11.087,11.194,11.526,11.526,11.641,11.641,11.641,11.641,11.641,11.526,11.302,11.194,10.982,10.982,10.88,10.88,10.779,10.779,10.779,10.88,10.88,10.88,10.779,10.779,10.779,10.68,10.68,10.68,10.68,10.779,10.779,10.88,10.982,11.087,11.087,11.194,11.302,11.302,11.302,11.302,11.302,11.526,11.879,12.254,12.384,12.518,12.935,12.935,13.229,12.935,12.793,12.518,12.384,12.001,11.641,11.194,10.982,10.302,0.0,0.0,0.0,4.53,4.53,4.53,4.512,4.477,4.477,4.46,4.46,4.477,4.477,4.512,4.512,4.53,4.53,4.565,4.583,4.601,4.638,4.657,4.694,4.694,4.713,4.732,4.732,4.81,5.084,0.0,0.0,0.0,0.0,0.0,0.0,0.0,9.95,10.123,10.212,10.212,10.302,10.302,10.394,10.488,10.583,10.68,10.68,10.779,10.982,11.087,11.087,10.982,10.982,10.982,10.779,10.68,0.0,0.0,10.302,10.123,9.701,9.313,9.166,8.955,8.819,8.623,8.623,8.753,8.753,8.753,8.819,8.819,8.753,8.819,8.753,8.753,8.819,8.955,8.819,9.024,9.239,9.542,9.865,10.036,10.123,10.123,10.123,10.212,10.212,10.123,10.123,10.036,9.95,9.865,9.783,9.542,9.464,9.313,9.166,9.024,8.819,8.753,8.56,8.56,8.497,8.436,8.375,8.375,8.315,8.256,0.0,0.0,0.0,0.0,0.0,0.0,0.0,0.0,0.0,0.0,7.5385,7.296749999999999,7.055,6.69,6.032,5.735,5.597,5.543,5.491,5.491,5.44,5.44,5.44,5.415,5.415,5.389,0.0,0.0,0.0,0.0,0.0,0.0,0.0,0.0,0.0,0.0,0.0,0.0,0.0,0.0,0.0,0.0
6.032,6.095,6.127,6.159,6.225,6.259,6.327,6.361,6.396,6.432,6.467,6.504,6.54,6.54,6.577,6.577,6.577,6.614,6.614,6.614,6.614,6.614,6.577,6.577,6.577,6.577,6.577,6.54,6.54,6.54,6.54,6.504,6.504,6.504,6.504,6.504,6.504,6.467,6.467,6.432,6.432,6.432,6.396,6.396,6.396,6.396,6.361,6.361,6.396,6.396,6.432,6.467,6.504,6.54,6.577,6.614,6.652,6.69,6.69,6.69,6.69,6.729,6.729,6.729,6.69,6.69,6.69,6.69,6.69,6.69,6.69,6.69,6.69,6.69,6.69,6.69,6.69,6.729,0.0,0.0,6.929,6.929,6.929,6.848,6.808,6.69,6.577,0.0,0.0,0.0,0.0,4.344,4.249,4.085,4.085,4.07,4.056,4.028,4.014,3.973,3.946,3.933,3.92,3.906,3.893,3.893,3.88,3.88,3.893,3.893,3.893,3.906,3.906,3.906,3.893,3.88,3.868,3.855,3.855,3.829,3.817,3.792,3.767,3.743,3.707,3.672,3.627,3.593,3.56,3.528,3.506,3.496,3.496,3.496,3.496,3.496,3.517,3.528,3.56,3.615,3.707,3.817,3.92,0.0,0.0,0.0,4.871,5.0625,5.316,5.651,5.821,6.127,6.127,6.159,6.225,6.259,6.259,6.259,6.327,6.327,6.327,6.259,6.225,6.159,6.159,6.127,6.032,6.001,5.939,5.909,5.821,5.792,5.763,5.763,5.735,5.679,5.679,5.651,5.651,5.651,5.651,5.651,5.624,5.624,5.651,5.651,5.651,5.651,5.679,5.707,5.763,5.763,5.821,5.85,5.909,5.939,5.9855,6.032,6.095,6.159,6.225,6.225,6.327,6.361,6.361,6.396,6.396,6.396,6.361,6.361,6.225,6.127,6.095,5.939,5.821,5.735,5.707,5.651,5.651,5.651,5.651,5.651,5.651,5.624,5.624,5.624,5.651,5.651,5.651,5.679,5.679,5.707,5.763,5.792,5.821,5.909,5.939,5.909,5.909,5.85,5.821,5.792,5.763,5.735,5.707,5.679,5.679,5.679,5.707,5.707,5.735,5.735,5.763,5.821,5.85,5.939,6.032,6.159,6.396,6.54,6.69,6.888,7.098,7.2565,7.415,7.659,7.709,7.813,7.919,7.919,7.973,7.973,7.919,7.919,7.866,7.761,7.559,7.368,7.231,7.098,7.055,7.055,7.055,7.055,7.098,7.186,7.511,7.709,7.866,7.973,7.973,8.028,8.028,8.028,8.084,8.084,8.028,8.028,8.028,8.028,8.028,8.028,8.028,7.973,7.973,7.973,7.973,7.973,8.028,8.084,8.084,8.084,8.198,8.256,8.315,8.56,8.753,8.955,9.313,9.506,9.783,10.212,10.394,10.583,10.68,10.88,10.982,11.194,11.194,11.302,11.302,11.302,11.302,11.302,11.302,11.526,11.641,11.641,11.879,11.879,11.879,12.001,12.001,11.879,11.641,11.302,11.194,11.194,11.087,11.087,10.982,10.982,10.982,10.982,10.88,10.88,10.779,10.779,10.68,10.68,10.68,10.68,10.68,10.68,10.68,10.68,10.779,10.88,10.88,10.982,10.982,11.194,11.194,11.302,11.526,11.641,12.254,12.384,12.518,12.935,13.229,13.229,12.935,12.935,12.793,12.518,12.254,11.641,11.302,0.0,0.0,0.0,4.771,4.694,4.638,4.583,4.53,4.53,4.512,4.477,4.46,4.46,4.477,4.477,4.477,4.512,4.512,4.53,4.565,4.565,4.583,4.601,4.638,4.657,4.694,4.713,4.713,4.732,4.851,5.047499999999999,5.244,0.0,0.0,0.0,0.0,8.375,9.701,9.865,9.95,10.036,10.123,10.212,10.212,10.302,10.394,10.394,10.583,10.68,10.68,10.88,10.88,10.982,10.88,10.88,10.88,0.0,0.0,0.0,0.0,0.0,0.0,0.0,0.0,9.024,8.819,8.819,8.623,8.623,8.623,8.753,8.753,8.753,8.753,8.753,8.819,8.753,8.819,8.819,8.955,8.955,9.166,9.239,9.701,9.95,10.036,10.212,10.212,10.302,10.302,10.302,10.302,10.302,10.302,10.212,10.212,10.123,10.036,9.95,9.783,9.542,9.464,9.239,9.024,8.819,8.623,8.56,8.498000000000001,8.436,0.0,0.0,0.0,0.0,0.0,0.0,0.0,0.0,0.0,0.0,0.0,0.0,0.0,7.368,0.0,0.0,0.0,0.0,0.0,0.0,0.0,0.0,5.491,5.44,5.415,5.415,5.415,5.415,5.389,5.389,0.0,0.0,0.0,0.0,0.0,0.0,0.0,0.0,0.0,0.0,0.0,0.0,0.0,0.0,0.0
6.032,6.032,6.095,6.127,6.159,6.225,6.327,6.327,6.396,6.432,6.467,6.504,6.54,6.54,6.577,6.577,6.577,6.577,6.577,6.577,6.614,6.577,6.577,6.577,6.577,6.577,6.54,6.54,6.54,6.54,6.504,6.504,6.504,6.504,6.504,6.504,6.504,6.467,6.467,6.467,6.432,6.432,6.432,6.432,6.432,6.396,6.396,6.432,6.432,6.467,6.467,6.504,6.54,6.54,6.614,6.614,6.652,6.69,6.69,6.69,6.729,6.729,6.729,6.729,6.729,6.69,6.69,6.69,6.69,6.69,6.69,6.652,6.69,6.69,6.69,6.69,6.69,6.729,6.7885,6.848,6.888,6.971,7.055,7.055,7.186,7.098,6.888,6.729,6.614,0.0,0.0,0.0,4.312,4.218,4.085,4.085,4.07,4.056,4.028,4.014,3.973,3.946,3.933,3.92,3.906,3.906,3.906,3.893,3.893,3.893,3.906,3.906,3.906,3.906,3.893,3.88,3.868,3.855,3.855,3.829,3.817,3.792,3.767,3.743,3.707,3.672,3.627,3.593,3.56,3.528,3.506,3.496,3.496,3.496,3.496,3.496,3.506,3.528,3.56,3.593,3.661,3.755,3.856,0.0,0.0,0.0,0.0,4.912,5.201499999999999,5.491,5.651,5.939,6.127,6.159,6.225,6.225,6.259,6.259,6.259,6.327,6.259,6.225,6.159,6.127,6.095,6.032,6.001,5.909,5.85,5.821,5.792,5.763,5.707,5.679,5.679,5.679,5.651,5.651,5.624,5.624,5.597,5.597,5.597,5.624,5.624,5.651,5.651,5.651,5.679,5.679,5.707,5.792,5.792,5.85,5.90925,5.939,5.989375,6.032,6.127,6.159,6.225,6.225,6.259,6.327,6.361,6.396,6.396,6.396,6.361,6.361,6.225,6.159,6.095,5.939,5.821,5.763,5.679,5.651,5.651,5.624,5.597,5.597,5.57,5.57,5.57,5.57,5.57,5.57,5.597,5.597,5.624,5.651,5.679,5.679,5.735,5.763,5.821,5.821,5.821,5.792,5.763,5.735,5.735,5.707,5.707,5.679,5.679,5.679,5.679,5.707,5.707,5.735,5.763,5.821,5.909,6.001,6.095,6.259,6.467,6.577,6.729,6.971,7.322,7.4165,7.511,7.709,7.813,7.919,7.973,7.973,7.973,7.973,7.973,7.919,7.866,7.813,7.659,7.415,7.368,7.231,7.186,7.186,7.231,7.322,7.368,7.415,7.659,7.813,7.973,8.028,8.028,8.028,8.028,8.028,8.028,8.028,8.028,7.973,7.973,7.973,7.973,7.973,7.919,7.919,7.919,7.919,7.919,7.919,7.973,7.973,8.028,8.028,8.084,8.198,8.256,8.436,8.623,8.955,9.2095,9.464,9.865,10.212,10.583,10.68,11.087,11.302,11.641,11.879,12.001,12.001,12.001,12.001,12.001,12.001,12.001,12.254,12.254,12.384,12.384,12.384,12.384,12.384,12.384,12.254,12.254,12.001,11.879,11.526,11.526,11.302,11.302,11.302,11.194,11.087,11.087,10.982,10.88,10.88,10.779,10.68,10.68,10.68,10.68,10.583,10.68,10.68,10.68,10.68,10.68,10.88,10.88,10.982,11.194,11.302,11.526,11.879,12.001,12.254,12.793,12.935,13.229,13.229,13.229,12.935,12.793,12.384,12.254,11.821,0.0,0.0,0.0,0.0,4.713,4.657,4.638,4.601,4.601,4.565,4.53,4.512,4.477,4.477,4.477,4.477,4.477,4.477,4.512,4.512,4.53,4.565,4.565,4.583,4.601,4.638,4.657,4.694,4.713,4.713,4.891,5.1155,5.34,0.0,0.0,0.0,0.0,8.497,9.701,9.783,9.783,9.865,9.95,10.036,10.123,10.212,10.302,10.302,10.394,10.583,10.68,10.779,10.88,10.88,10.982,0.0,0.0,0.0,0.0,0.0,0.0,0.0,0.0,0.0,0.0,0.0,8.753,8.56,8.56,8.56,8.56,8.623,8.623,8.753,8.753,8.753,8.753,8.819,8.819,8.819,8.955,9.024,9.166,9.313,9.701,9.865,10.036,10.212,10.212,10.302,10.302,10.302,10.302,10.302,10.302,10.212,10.212,10.123,10.036,10.036,9.783,9.701,9.542,9.239,9.024,8.955,8.753,8.623,8.56,8.497,0.0,0.0,0.0,0.0,0.0,0.0,0.0,0.0,0.0,0.0,0.0,0.0,0.0,0.0,0.0,0.0,0.0,0.0,0.0,0.0,0.0,0.0,5.465,5.415,5.415,5.415,5.415,5.44,5.491,5.5760000000000005,0.0,0.0,0.0,0.0,0.0,0.0,0.0,0.0,0.0,0.0,0.0,0.0,0.0,0.0,0.0
6.001,6.032,6.095,6.127,6.159,6.225,6.259,6.327,6.361,6.432,6.467,6.504,6.54,6.54,6.577,6.577,6.577,6.577,6.577,6.577,6.577,6.577,6.577,6.577,6.577,6.54,6.54,6.54,6.54,6.504,6.504,6.504,6.504,6.504,6.467,6.467,6.467,6.467,6.467,6.467,6.467,6.467,6.432,6.432,6.432,6.467,6.467,6.467,6.467,6.504,6.54,6.54,6.54,6.577,6.614,6.652,6.69,6.69,6.69,6.69,6.729,6.729,6.729,6.729,6.729,6.69,6.69,6.69,6.69,6.69,6.69,6.69,6.652,6.652,6.69,6.69,6.69,6.69,6.729,6.848,6.888,6.971,7.055,7.098,7.186,7.186,7.186,7.055,6.929,6.729,0.0,0.0,4.512,4.28,4.114,4.085,4.07,4.07,4.056,4.028,4.014,3.987,3.946,3.933,3.933,3.92,3.906,3.906,3.906,3.906,3.906,3.906,3.906,3.893,3.893,3.88,3.868,3.855,3.855,3.829,3.817,3.792,3.78,3.743,3.707,3.672,3.627,3.593,3.56,3.528,3.517,3.496,3.496,3.485,3.485,3.496,3.506,3.517,3.549,3.582,3.627,3.707,3.792,0.0,0.0,0.0,0.0,0.0,0.0,0.0,0.0,0.0,6.001,6.159,6.225,6.225,6.225,6.259,6.259,6.259,6.225,6.225,6.159,6.127,6.032,6.001,5.909,5.85,5.821,5.792,5.763,5.735,5.735,5.679,5.679,5.679,5.651,5.651,5.624,5.597,5.597,5.597,5.597,5.624,5.624,5.624,5.651,5.651,5.679,5.707,5.735,5.792,5.85,5.909,5.939,5.97775,6.001,6.032,6.127,6.159,6.225,6.259,6.327,6.327,6.361,6.396,6.396,6.396,6.361,6.361,6.225,6.159,6.095,5.939,5.821,5.735,5.679,5.624,5.597,5.597,5.57,5.57,5.543,5.543,5.543,5.543,5.543,5.543,5.543,5.57,5.57,5.597,5.624,5.651,5.679,5.679,5.735,5.735,5.735,5.735,5.707,5.707,5.707,5.707,5.679,5.679,5.679,5.679,5.679,5.707,5.707,5.735,5.763,5.821,5.909,6.001,6.095,6.327,6.467,6.614,6.768,7.098,7.322,7.4281250000000005,7.559,7.761,7.866,7.919,7.973,7.973,7.973,7.973,7.973,7.973,7.866,7.813,7.659,7.511,7.415,7.368,7.322,7.368,7.368,7.511,7.559,7.709,7.866,7.973,7.973,8.028,8.028,8.028,8.028,8.028,8.028,7.973,7.973,7.919,7.919,7.866,7.866,7.866,7.813,7.813,7.813,7.813,7.866,7.866,7.919,7.919,7.973,8.028,8.028,8.084,8.198,8.315,8.497,8.955,9.2095,9.464,9.95,10.302,10.68,11.087,11.526,12.001,12.384,12.793,12.793,12.935,12.935,12.935,12.935,12.518,12.518,12.518,12.793,12.793,12.518,12.518,12.518,12.518,12.518,12.518,12.384,12.384,12.254,12.001,11.879,11.641,11.641,11.641,11.526,11.302,11.194,11.087,10.982,10.88,10.779,10.68,10.68,10.583,10.583,10.583,10.583,10.68,10.68,10.68,10.68,10.68,10.779,10.88,10.982,11.087,11.194,11.641,11.879,12.254,12.518,12.935,13.229,13.381,13.381,13.229,12.935,12.793,12.384,12.001,0.0,0.0,0.0,0.0,0.0,4.694,4.694,4.657,4.638,4.601,4.583,4.565,4.53,4.512,4.512,4.512,4.512,4.512,4.512,4.53,4.53,4.565,4.565,4.583,4.601,4.601,4.638,4.657,4.694,4.752,4.912,5.144125,5.465,0.0,0.0,0.0,0.0,8.56,9.542,9.542,9.542,9.701,9.783,9.865,10.036,10.123,10.212,10.302,10.394,10.488,10.583,10.68,10.779,10.88,0.0,0.0,0.0,0.0,0.0,0.0,0.0,0.0,0.0,0.0,0.0,0.0,0.0,8.56,8.56,8.623,8.623,8.753,8.753,8.753,8.819,8.819,8.819,8.819,8.955,8.955,9.166,9.239,9.313,9.464,9.783,9.95,10.036249999999999,10.123,10.212,10.212,10.212,10.212,10.212,10.212,10.212,10.212,10.212,10.123,10.036,9.865,9.701,9.464,9.313,9.166,9.024,8.819,8.753,8.623,8.497,0.0,0.0,0.0,0.0,0.0,0.0,0.0,0.0,0.0,0.0,0.0,0.0,0.0,0.0,0.0,0.0,0.0,0.0,0.0,0.0,0.0,0.0,0.0,5.268,5.268,5.316,5.415,5.44,5.57,5.597,5.763,0.0,0.0,0.0,0.0,0.0,0.0,0.0,0.0,0.0,0.0,0.0,0.0,0.0,0.0,0.0
6.001,6.032,6.032,6.127,6.127,6.225,6.259,6.327,6.361,6.432,6.467,6.504,6.54,6.54,6.577,6.577,6.577,6.577,6.577,6.577,6.577,6.54,6.54,6.54,6.54,6.54,6.54,6.54,6.504,6.504,6.504,6.504,6.467,6.467,6.467,6.467,6.467,6.467,6.467,6.467,6.467,6.467,6.467,6.467,6.467,6.467,6.504,6.504,6.54,6.54,6.54,6.54,6.577,6.577,6.614,6.652,6.69,6.69,6.729,6.729,6.729,6.729,6.729,6.729,6.729,6.729,6.69,6.69,6.69,6.69,6.69,6.652,6.652,6.69,6.69,6.69,6.69,6.729,6.729,6.808,6.888,6.971,7.055,7.098,7.186,7.231,7.231,7.322,7.231,7.098,6.768,0.0,0.0,4.296,4.249,4.114,4.085,4.085,4.07,4.056,4.028,4.014,3.987,3.946,3.933,3.933,3.92,3.92,3.906,3.906,3.906,3.906,3.906,3.893,3.88,3.88,3.868,3.855,3.855,3.829,3.804,3.804,3.78,3.755,3.731,3.696,3.649,3.615,3.56,3.538,3.517,3.496,3.496,3.485,3.485,3.496,3.496,3.517,3.528,3.56,3.593,3.649,3.731,3.804,3.868,0.0,0.0,0.0,0.0,0.0,0.0,0.0,5.679,5.909,6.095,6.095,6.159,6.225,6.225,6.225,6.127,6.159,6.127,6.095,6.032,5.939,5.909,5.85,5.821,5.821,5.763,5.763,5.735,5.707,5.679,5.679,5.651,5.651,5.624,5.624,5.597,5.597,5.597,5.624,5.651,5.651,5.651,5.679,5.707,5.735,5.792,5.8505,5.909,5.939,6.001,6.032,6.095,6.127,6.159,6.225,6.259,6.259,6.327,6.327,6.361,6.396,6.396,6.432,6.396,6.361,6.327,6.159,6.095,5.939,5.792,5.707,5.679,5.624,5.57,5.57,5.543,5.543,5.517,5.491,5.491,5.517,5.517,5.517,5.517,5.543,5.543,5.57,5.597,5.597,5.651,5.651,5.679,5.679,5.679,5.679,5.679,5.679,5.679,5.679,5.679,5.679,5.679,5.679,5.679,5.679,5.707,5.707,5.763,5.821,5.909,6.001,6.127,6.361,6.54,6.652,6.808,7.098,7.2565,7.415,7.659,7.813,7.919,7.973,7.973,8.028,7.973,7.973,7.973,7.973,7.866,7.813,7.659,7.559,7.511,7.415,7.368,7.415,7.415,7.511,7.659,7.761,7.866,7.973,7.973,8.028,8.028,8.028,8.028,8.028,7.973,7.973,7.919,7.866,7.866,7.813,7.761,7.761,7.761,7.709,7.709,7.761,7.813,7.813,7.866,7.919,7.919,7.973,8.028,8.084,8.198,8.256,8.436,8.819,9.201375,9.464,9.95,10.394,10.779,11.302,12.001,12.518,13.229,13.381,13.536,13.536,13.536,13.536,13.381,12.935,13.229,12.935,12.935,12.935,12.935,12.935,12.935,12.935,12.935,12.935,12.793,12.518,12.518,12.384,12.254,12.001,12.001,11.879,11.641,11.526,11.302,11.194,11.087,10.982,10.88,10.779,10.68,10.68,10.68,10.583,10.583,10.583,10.583,10.583,10.583,10.583,10.68,10.68,10.779,10.88,10.982,11.194,11.526,11.641,12.254,12.384,12.935,0.0,0.0,0.0,0.0,0.0,0.0,0.0,0.0,0.0,0.0,0.0,0.0,4.732,4.713,4.713,4.694,4.657,4.638,4.601,4.565,4.565,4.565,4.53,4.53,4.53,4.53,4.53,4.53,4.53,4.565,4.583,4.583,4.583,4.601,4.638,4.713,4.81,4.946999999999999,5.084,0.0,0.0,0.0,0.0,8.084,8.753,9.313,9.464,9.542,9.542,9.701,9.783,9.783,9.95,10.036,10.123,10.302,10.394,10.583,10.583,10.68,10.68,0.0,0.0,0.0,0.0,0.0,0.0,0.0,0.0,0.0,0.0,0.0,0.0,0.0,8.6895,8.623,8.753,8.753,8.819,8.819,8.955,9.024,9.024,9.024,9.024,9.024,9.166,9.239,9.313,9.542,9.701,9.865,9.95,10.036,10.123,10.212,10.123,10.123,10.123,10.036,10.036,9.95,9.95,9.95,9.865,9.783,9.701,9.542,9.464,9.239,9.166,8.955,8.753,0.0,0.0,0.0,0.0,0.0,0.0,0.0,0.0,0.0,0.0,0.0,0.0,0.0,0.0,0.0,0.0,0.0,0.0,0.0,0.0,0.0,0.0,0.0,0.0,0.0,0.0,0.0,0.0,0.0,0.0,0.0,0.0,0.0,0.0,0.0,0.0,0.0,0.0,0.0,0.0,0.0,0.0,0.0,0.0,0.0,0.0,0.0,0.0,0.0
6.032,6.032,6.095,6.127,6.127,6.225,6.259,6.327,6.361,6.432,6.467,6.54,6.54,6.577,6.577,6.577,6.577,6.577,6.577,6.577,6.577,6.54,6.54,6.54,6.54,6.54,6.54,6.504,6.504,6.504,6.467,6.467,6.467,6.467,6.467,6.467,6.467,6.467,6.467,6.467,6.467,6.467,6.467,6.504,6.504,6.504,6.504,6.54,6.54,6.54,6.577,6.577,6.577,6.614,6.652,6.69,6.69,6.729,6.729,6.729,6.729,6.729,6.729,6.729,6.729,6.729,6.69,6.69,6.69,6.69,6.652,6.652,6.652,6.652,6.652,6.69,6.69,6.729,6.729,6.808,6.888,6.971,7.055,7.098,7.186,7.231,7.322,7.322,7.368,7.322,7.055,6.768,0.0,0.0,4.312,4.128,4.114,4.085,4.085,4.07,4.028,4.014,3.987,3.973,3.946,3.933,3.92,3.92,3.906,3.906,3.906,3.906,3.893,3.893,3.88,3.868,3.868,3.855,3.855,3.829,3.817,3.804,3.78,3.755,3.731,3.696,3.649,3.615,3.582,3.538,3.517,3.496,3.496,3.485,3.485,3.485,3.496,3.506,3.517,3.538,3.549,3.593,3.649,3.707,3.78,0.0,0.0,0.0,0.0,0.0,0.0,0.0,5.415,5.651,5.792,6.001,6.095,6.127,6.127,6.159,6.127,6.127,6.095,6.095,6.032,5.939,5.939,5.909,5.85,5.821,5.821,5.792,5.763,5.707,5.707,5.679,5.679,5.651,5.651,5.651,5.624,5.651,5.651,5.651,5.651,5.679,5.707,5.735,5.763,5.821,5.86525,5.909,6.001,6.032,6.095,6.095,6.159,6.225,6.225,6.259,6.327,6.327,6.361,6.361,6.361,6.396,6.396,6.396,6.396,6.361,6.327,6.159,6.095,5.939,5.792,5.707,5.651,5.597,5.57,5.57,5.543,5.543,5.517,5.491,5.491,5.491,5.491,5.491,5.491,5.517,5.543,5.57,5.57,5.597,5.624,5.624,5.651,5.651,5.651,5.651,5.679,5.679,5.651,5.651,5.651,5.651,5.679,5.679,5.679,5.679,5.707,5.707,5.763,5.85,5.939,6.032,6.127,6.396,6.577,6.69,6.888,7.231,7.353625,7.559,7.761,7.866,7.973,7.973,8.028,8.028,8.028,8.028,7.973,7.973,7.919,7.866,7.813,7.559,7.511,7.415,7.368,7.415,7.511,7.559,7.659,7.709,7.813,7.919,7.973,7.973,8.028,7.973,7.973,7.973,7.973,7.919,7.813,7.813,7.761,7.709,7.709,7.709,7.709,7.709,7.709,7.761,7.761,7.813,7.813,7.866,7.919,7.973,8.028,8.084,8.141,8.256,8.436,8.753,9.313,9.588750000000001,10.036,10.394,10.88,11.641,12.518,13.381,13.536,13.696,13.859,13.859,13.859,13.859,13.859,13.696,13.536,13.381,13.397,13.397,13.393,13.381,13.389,13.381,13.381,13.229,12.935,12.935,12.935,12.793,12.518,12.384,12.254,12.254,12.001,11.879,11.641,11.526,11.194,11.087,10.982,10.88,10.68,10.68,10.68,10.583,10.583,10.583,10.488,10.488,10.488,10.583,10.488,10.583,10.583,10.583,10.68,10.68,10.779,10.982,11.194,11.389,0.0,0.0,0.0,0.0,0.0,0.0,0.0,0.0,0.0,0.0,0.0,4.791,4.771,4.771,4.752,4.732,4.732,4.713,4.694,4.657,4.638,4.601,4.583,4.565,4.565,4.565,4.565,4.565,4.565,4.565,4.565,4.565,4.565,4.583,4.583,4.583,4.732,0.0,0.0,0.0,0.0,0.0,0.0,0.0,8.256,8.819,9.313,9.313,9.464,9.464,9.542,9.701,9.783,9.783,9.865,9.95,10.123,10.302,10.394,10.394,10.488,0.0,0.0,0.0,0.0,0.0,0.0,0.0,0.0,0.0,0.0,0.0,0.0,0.0,8.819,8.819,8.955,8.955,8.955,9.024,9.166,9.166,9.166,9.239,9.239,9.239,9.313,9.39075,9.542,9.542,9.701,9.783,9.887,9.95,10.036,10.123,10.036,10.036,10.036,10.036,9.865,9.865,9.865,9.865,9.865,9.783,9.701,9.542,9.464,9.313,9.166,9.024,8.887,0.0,0.0,0.0,0.0,0.0,0.0,0.0,0.0,0.0,0.0,0.0,0.0,0.0,0.0,0.0,0.0,0.0,0.0,0.0,0.0,0.0,0.0,0.0,0.0,0.0,0.0,0.0,0.0,0.0,0.0,0.0,0.0,0.0,0.0,0.0,0.0,0.0,0.0,0.0,0.0,0.0,0.0,0.0,0.0,0.0,0.0,0.0,0.0,0.0,0.0
6.032,6.095,6.095,6.127,6.159,6.225,6.259,6.327,6.396,6.432,6.504,6.54,6.54,6.577,6.577,6.577,6.614,6.577,6.577,6.577,6.577,6.54,6.54,6.54,6.54,6.54,6.54,6.504,6.504,6.504,6.467,6.467,6.467,6.467,6.467,6.467,6.467,6.467,6.467,6.467,6.504,6.504,6.504,6.504,6.504,6.54,6.54,6.54,6.54,6.577,6.577,6.577,6.614,6.614,6.652,6.69,6.729,6.729,6.729,6.729,6.729,6.729,6.729,6.729,6.729,6.729,6.69,6.69,6.69,6.69,6.652,6.652,6.652,6.652,6.652,6.652,6.69,6.69,6.729,6.768,6.848,6.929,7.055,7.098,7.186,7.231,7.322,7.368,7.415,7.415,7.231,7.055,0.0,0.0,4.426,4.28,4.114,4.114,4.085,4.07,4.056,4.028,4.014,3.987,3.973,3.946,3.933,3.92,3.92,3.906,3.906,3.906,3.893,3.893,3.88,3.868,3.868,3.855,3.855,3.842,3.829,3.804,3.792,3.767,3.743,3.707,3.661,3.627,3.593,3.549,3.517,3.506,3.496,3.485,3.485,3.485,3.485,3.496,3.506,3.528,3.538,3.549,3.582,3.627,3.672,3.731,0.0,0.0,0.0,0.0,0.0,0.0,0.0,5.465,5.491,5.651,6.001,6.127,6.095,6.127,6.127,6.127,6.095,6.095,6.032,6.001,5.939,5.909,5.85,5.85,5.821,5.821,5.763,5.735,5.735,5.707,5.707,5.679,5.679,5.679,5.679,5.679,5.679,5.707,5.707,5.735,5.792,5.792,5.85,5.88725,5.939,6.001,6.095,6.127,6.159,6.225,6.225,6.259,6.327,6.327,6.361,6.361,6.396,6.396,6.396,6.396,6.432,6.432,6.396,6.361,6.225,6.159,6.032,5.909,5.792,5.707,5.651,5.597,5.57,5.57,5.543,5.543,5.517,5.491,5.491,5.491,5.491,5.491,5.491,5.517,5.543,5.57,5.57,5.597,5.597,5.624,5.651,5.651,5.651,5.651,5.651,5.651,5.651,5.651,5.651,5.651,5.679,5.679,5.679,5.679,5.707,5.735,5.763,5.85,5.939,6.032,6.159,6.432,6.614,6.729,7.055,7.2115,7.368,7.709,7.813,7.973,7.973,8.028,8.028,8.028,8.028,8.028,8.028,7.973,7.919,7.866,7.813,7.659,7.559,7.511,7.415,7.415,7.511,7.511,7.559,7.709,7.761,7.866,7.919,7.973,7.973,7.973,7.919,7.919,7.866,7.813,7.813,7.761,7.709,7.659,7.659,7.659,7.659,7.659,7.709,7.709,7.761,7.813,7.866,7.919,7.919,7.973,8.028,8.084,8.141,8.256,8.497,8.955,9.2485,9.542,10.123,10.583,11.087,12.254,13.229,13.696,14.197,14.372,14.372,14.552,14.197,14.372,14.372,14.197,14.026,13.859,13.859,13.859,13.859,13.859,13.859,13.696,13.696,13.536,13.381,13.381,13.229,12.935,13.229,12.935,12.793,12.518,12.518,12.001,11.879,11.641,11.302,11.194,11.087,10.982,10.779,10.68,10.583,10.583,10.583,10.488,10.394,10.394,10.302,10.302,10.302,10.302,10.302,10.302,10.302,10.394,10.302,10.302,10.302,10.394,0.0,0.0,0.0,0.0,0.0,0.0,0.0,0.0,0.0,0.0,0.0,4.8105,4.81,4.791,4.771,4.771,4.752,4.732,4.732,4.713,4.694,4.657,4.638,4.601,4.601,4.583,4.583,4.583,4.583,4.565,4.565,4.583,4.565,4.565,4.583,4.601,4.771,0.0,0.0,0.0,0.0,0.0,0.0,0.0,8.375,8.955,9.239,9.239,9.313,9.313,9.313,9.542,9.542,9.783,9.865,9.865,10.036,10.169,10.303,10.303,0.0,0.0,0.0,0.0,0.0,0.0,0.0,0.0,0.0,0.0,0.0,0.0,0.0,0.0,8.955,8.955,9.024,9.166,9.166,9.239,9.313,9.464,9.464,9.464,9.542,9.542,9.542,9.542,9.701,9.701,9.865,9.865,9.95,10.036,10.036,10.123,10.036,10.036,9.95,9.95,9.865,9.783,9.783,9.783,9.783,9.701,9.542,9.542,9.464,9.239,9.166,9.024,8.819,0.0,0.0,0.0,0.0,0.0,0.0,0.0,0.0,0.0,0.0,0.0,0.0,0.0,0.0,0.0,7.098,6.929,6.808,6.69,6.614,0.0,0.0,0.0,0.0,0.0,0.0,0.0,0.0,0.0,0.0,0.0,0.0,0.0,6.467,6.5405,6.614,6.768,6.929,7.2940000000000005,7.659,7.919,8.028,0.0,0.0,0.0,0.0,0.0,0.0,0.0,0.0
6.095,6.127,6.127,6.127,6.225,6.225,6.327,6.361,6.396,6.467,6.54,6.54,6.577,6.577,6.614,6.614,6.614,6.614,6.577,6.577,6.577,6.577,6.54,6.54,6.54,6.54,6.504,6.504,6.504,6.467,6.467,6.467,6.467,6.467,6.467,6.467,6.467,6.467,6.504,6.504,6.504,6.504,6.504,6.504,6.54,6.54,6.54,6.54,6.577,6.577,6.577,6.614,6.614,6.614,6.652,6.69,6.729,6.729,6.729,6.729,6.729,6.729,6.729,6.729,6.729,6.729,6.69,6.69,6.69,6.69,6.652,6.652,6.652,6.652,6.652,6.652,6.69,6.69,6.729,6.768,6.848,6.929,7.055,7.098,7.231,7.322,7.368,7.415,7.415,7.415,7.368,7.231,6.808,0.0,0.0,4.328,4.128,4.114,4.085,4.07,4.056,4.028,4.014,3.987,3.973,3.946,3.933,3.92,3.92,3.906,3.906,3.893,3.893,3.88,3.88,3.868,3.868,3.855,3.855,3.842,3.817,3.817,3.804,3.78,3.755,3.731,3.672,3.649,3.593,3.56,3.528,3.506,3.496,3.485,3.485,3.475,3.485,3.485,3.496,3.506,3.517,3.549,3.56,3.582,3.615,3.627,3.696,0.0,0.0,4.056,0.0,0.0,0.0,5.04,5.2829999999999995,5.517,5.763,5.939,6.095,6.127,6.127,6.127,6.095,6.095,6.032,6.001,5.939,5.909,5.909,5.909,5.909,5.85,5.792,5.792,5.763,5.763,5.735,5.735,5.735,5.763,5.735,5.735,5.763,5.763,5.79275,5.792,5.821,5.85,5.909,5.939,6.032,6.095,6.127,6.225,6.259,6.327,6.327,6.361,6.361,6.396,6.396,6.396,6.432,6.432,6.432,6.432,6.432,6.432,6.396,6.361,6.225,6.127,6.032,5.85,5.763,5.679,5.651,5.597,5.57,5.57,5.543,5.543,5.517,5.517,5.491,5.517,5.517,5.517,5.517,5.543,5.543,5.57,5.57,5.597,5.597,5.624,5.624,5.651,5.651,5.651,5.651,5.651,5.651,5.651,5.651,5.679,5.679,5.679,5.679,5.679,5.707,5.735,5.763,5.85,5.939,6.095,6.225,6.467,6.614,6.768,7.055,7.234999999999999,7.415,7.761,7.866,7.973,8.028,8.028,8.028,8.084,8.028,8.028,8.028,7.973,7.973,7.919,7.866,7.659,7.559,7.511,7.415,7.415,7.511,7.511,7.559,7.659,7.709,7.761,7.813,7.866,7.866,7.866,7.866,7.813,7.813,7.813,7.761,7.709,7.709,7.659,7.659,7.659,7.659,7.659,7.709,7.761,7.813,7.813,7.866,7.973,7.973,8.028,8.028,8.084,8.198,8.315,8.56,9.024,9.4035,9.783,10.212,10.583,11.194,12.384,13.381,14.026,14.372,14.552,14.736,14.925,14.925,14.552,14.552,14.552,0.0,0.0,0.0,0.0,0.0,0.0,14.197,14.026,13.859,13.859,13.696,13.696,13.536,13.536,13.536,13.381,13.381,13.229,12.935,12.793,12.384,12.001,11.641,11.526,11.194,10.982,10.88,10.68,10.68,10.583,10.583,10.394,10.302,10.302,10.212,10.212,10.123,10.036,9.95,9.95,9.95,9.865,9.783,9.701,9.542,0.0,0.0,0.0,0.0,0.0,0.0,0.0,0.0,0.0,0.0,0.0,0.0,4.83,4.81,4.81,4.81,4.791,4.771,4.771,4.752,4.732,4.732,4.713,4.694,4.638,4.638,4.601,4.601,4.601,4.583,4.583,4.583,4.583,4.583,4.583,4.601,4.583,0.0,0.0,0.0,0.0,0.0,0.0,0.0,8.256,8.753,9.024,9.239,9.239,9.239,9.313,9.313,9.464,9.542,9.701,9.783,9.783,9.865,10.036,10.212,10.212,0.0,0.0,0.0,0.0,0.0,0.0,0.0,0.0,0.0,0.0,0.0,0.0,0.0,0.0,8.955,9.166,9.166,9.313,9.313,9.464,9.542,9.701,9.701,9.701,9.783,9.783,9.783,9.865,9.95,9.95,10.036,10.036,10.123,10.036,10.123,10.036,10.036,9.95,9.95,9.865,9.783,9.701,9.701,9.701,9.701,9.542,9.464,9.313,9.313,9.166,9.024,8.955,8.819,8.753,8.623,8.56,8.56,0.0,0.0,0.0,0.0,0.0,0.0,0.0,0.0,0.0,0.0,0.0,0.0,7.186,6.971,0.0,0.0,0.0,0.0,0.0,0.0,0.0,0.0,0.0,0.0,0.0,0.0,0.0,0.0,6.432,6.56025,6.652,6.888,7.186,7.368,7.709,7.973,8.084,8.198,8.256,8.256,8.375,8.623,9.239,0.0,0.0,0.0
6.127,6.127,6.159,6.159,6.225,6.259,6.327,6.361,6.432,6.467,6.54,6.54,6.577,6.577,6.614,6.614,6.614,6.614,6.577,6.577,6.577,6.577,6.54,6.54,6.54,6.54,6.504,6.504,6.504,6.467,6.467,6.467,6.467,6.467,6.467,6.467,6.467,6.467,6.504,6.504,6.504,6.504,6.54,6.54,6.54,6.54,6.54,6.577,6.577,6.577,6.614,6.614,6.614,6.652,6.69,6.69,6.729,6.729,6.729,6.729,6.729,6.729,6.729,6.729,6.729,6.729,6.69,6.69,6.69,6.69,6.69,6.652,6.652,6.652,6.652,6.69,6.69,6.729,6.729,6.768,6.848,6.971,7.055,7.186,7.322,7.368,7.415,7.415,7.415,7.415,7.415,7.415,7.055,6.768,0.0,0.0,4.173,4.114,4.085,4.07,4.056,4.028,4.014,3.987,3.973,3.946,3.933,3.92,3.92,3.906,3.893,3.893,3.88,3.88,3.868,3.868,3.868,3.855,3.855,3.855,3.829,3.817,3.804,3.804,3.78,3.743,3.707,3.661,3.615,3.56,3.528,3.506,3.496,3.485,3.475,3.475,3.475,3.485,3.485,3.496,3.506,3.517,3.549,3.56,3.593,3.593,3.649,3.696,3.804,3.893,0.0,0.0,0.0,4.81,5.084,5.3305,5.57,5.707,5.85,6.001,6.095,6.127,6.127,6.095,6.095,6.032,6.032,6.001,5.939,5.939,5.909,5.909,5.85,5.821,5.821,5.792,5.821,5.792,5.792,5.821,5.821,5.85,5.85,5.909,5.909,5.939,6.001,6.032,6.095,6.127,6.159,6.159,6.259,6.327,6.327,6.361,6.361,6.396,6.396,6.432,6.432,6.432,6.467,6.467,6.467,6.467,6.467,6.467,6.432,6.396,6.225,6.095,6.001,5.85,5.735,5.679,5.651,5.597,5.57,5.57,5.543,5.543,5.543,5.517,5.517,5.517,5.543,5.543,5.543,5.543,5.57,5.57,5.57,5.597,5.597,5.597,5.624,5.624,5.624,5.624,5.624,5.651,5.651,5.651,5.651,5.651,5.651,5.679,5.679,5.679,5.707,5.735,5.763,5.85,5.939,6.095,6.225,6.467,6.614,6.768,7.055,7.234999999999999,7.415,7.761,7.866,7.973,8.028,8.084,8.084,8.084,8.084,8.028,8.028,8.028,7.973,7.919,7.866,7.761,7.659,7.511,7.415,7.415,7.415,7.415,7.415,7.511,7.559,7.659,7.709,7.709,7.761,7.761,7.761,7.761,7.761,7.761,7.709,7.709,7.659,7.659,7.659,7.659,7.709,7.709,7.761,7.761,7.813,7.919,7.919,7.973,7.973,8.028,8.084,8.084,8.256,8.375,8.623,9.166,9.436875,9.865,10.302,10.68,11.302,12.518,13.536,14.197,14.372,14.552,14.736,14.925,15.119,0.0,0.0,0.0,0.0,0.0,0.0,0.0,0.0,0.0,0.0,0.0,14.026,14.026,13.859,13.859,13.696,13.536,13.536,13.536,13.536,13.381,13.381,12.935,12.793,12.518,11.879,11.526,11.302,11.087,10.88,10.779,10.68,10.583,10.488,10.394,10.302,10.212,10.036,9.95,9.783,9.701,9.464,9.313,9.024,8.955,8.753,8.497,8.785,0.0,0.0,0.0,0.0,0.0,0.0,0.0,0.0,0.0,0.0,0.0,0.0,4.851,4.83,4.81,4.81,4.81,4.791,4.791,4.771,4.771,4.752,4.732,4.713,4.694,4.657,4.657,4.657,4.657,4.638,4.638,4.638,4.601,4.601,4.601,4.638,4.601,0.0,0.0,0.0,0.0,0.0,0.0,7.919,8.436,8.955,9.166,9.239,9.239,9.239,9.239,9.313,9.313,9.464,9.464,9.542,9.701,9.701,9.865,9.95,9.95,0.0,0.0,0.0,0.0,0.0,0.0,0.0,0.0,0.0,0.0,0.0,0.0,0.0,0.0,8.819,9.024,9.239,9.313,9.464,9.542,9.701,9.701,9.783,9.865,9.865,9.865,9.865,9.95,10.036,10.036,10.123,10.123,10.123,10.123,10.123,10.036,10.036,9.95,9.865,9.783,9.701,9.542,9.542,9.464,9.464,9.464,9.313,9.239,9.239,9.166,9.024,8.955,8.819,8.753,8.753,8.623,8.623,8.56,8.56,0.0,0.0,0.0,0.0,0.0,0.0,0.0,0.0,0.0,0.0,0.0,0.0,0.0,0.0,0.0,0.0,0.0,0.0,0.0,0.0,0.0,0.0,0.0,0.0,0.0,0.0,0.0,6.69,7.055,7.659,7.813,7.973,8.084,8.198,8.315,8.56,8.623,8.623,8.753,9.166,9.5155,9.865,10.212,0.0
6.159,6.159,6.159,6.225,6.259,6.327,6.361,6.396,6.432,6.467,6.54,6.54,6.577,6.577,6.614,6.614,6.614,6.614,6.614,6.577,6.577,6.577,6.577,6.54,6.54,6.54,6.54,6.504,6.504,6.467,6.467,6.467,6.467,6.467,6.467,6.467,6.504,6.504,6.504,6.504,6.504,6.54,6.54,6.54,6.54,6.54,6.54,6.577,6.577,6.577,6.614,6.614,6.652,6.69,6.69,6.729,6.729,6.729,6.729,6.729,6.729,6.729,6.729,6.729,6.729,6.729,6.69,6.69,6.69,6.69,6.69,6.69,6.652,6.652,6.69,6.69,6.69,6.729,6.768,6.808,6.888,6.971,7.098,7.231,7.322,7.415,7.511,7.511,7.511,7.511,7.415,7.368,7.186,6.929,0.0,0.0,4.312,4.085,4.085,4.07,4.056,4.028,4.014,3.987,3.973,3.946,3.933,3.92,3.906,3.893,3.88,3.88,3.868,3.868,3.868,3.868,3.868,3.855,3.855,3.855,3.829,3.829,3.817,3.804,3.792,3.767,3.731,3.672,3.627,3.582,3.538,3.506,3.496,3.485,3.475,3.465,3.465,3.475,3.485,3.485,3.496,3.506,3.528,3.549,3.56,3.593,3.627,3.672,3.755,3.829,0.0,0.0,0.0,4.426,4.81,5.151,5.3195,5.517,5.651,5.763,5.939,6.095,6.127,6.095,6.095,6.032,6.001,5.939,5.939,5.909,5.909,5.85,5.909,5.85,5.85,5.85,5.85,5.909,5.909,5.939,5.939,6.001,6.032,6.032,6.095,6.095,6.127,6.159,6.225,6.259,6.259,6.327,6.361,6.361,6.396,6.396,6.396,6.467,6.467,6.467,6.467,6.467,6.504,6.504,6.504,6.504,6.504,6.467,6.432,6.396,6.159,6.032,5.939,5.821,5.735,5.679,5.651,5.597,5.597,5.57,5.57,5.543,5.543,5.543,5.517,5.517,5.543,5.543,5.543,5.543,5.57,5.57,5.57,5.597,5.597,5.597,5.597,5.597,5.597,5.597,5.624,5.624,5.624,5.651,5.651,5.651,5.651,5.679,5.707,5.707,5.735,5.735,5.763,5.85,5.939,6.095,6.225,6.504,6.614,6.768,7.055,7.234999999999999,7.415,7.761,7.866,7.973,8.028,8.028,8.084,8.084,8.084,8.028,8.028,8.028,7.973,7.973,7.866,7.813,7.659,7.511,7.415,7.415,7.415,7.368,7.368,7.368,7.415,7.511,7.559,7.659,7.659,7.659,7.659,7.709,7.709,7.709,7.659,7.659,7.659,7.659,7.659,7.709,7.709,7.709,7.761,7.813,7.866,7.919,7.973,7.973,8.028,8.028,8.084,8.198,8.256,8.436,8.753,9.033000000000001,9.313,9.95,10.394,10.779,11.526,12.793,13.696,14.197,14.372,14.736,15.119,15.119,15.317,0.0,0.0,0.0,0.0,0.0,0.0,0.0,0.0,0.0,0.0,0.0,0.0,0.0,13.859,13.859,13.696,13.696,13.536,13.536,13.536,13.381,13.381,13.229,12.793,12.518,12.001,11.641,11.302,11.087,10.88,10.779,10.68,10.488,10.394,10.302,10.123,9.95,9.783,9.542,9.239,9.166,8.753,8.623,8.436,8.315,8.256,8.084,8.028,7.973,0.0,0.0,0.0,0.0,0.0,0.0,0.0,0.0,0.0,0.0,0.0,4.851,4.83,4.81,4.81,4.81,4.81,4.791,4.771,4.771,4.771,4.752,4.732,4.713,4.713,4.694,4.694,4.694,4.657,4.657,4.657,4.657,4.657,4.638,4.638,4.638,0.0,0.0,0.0,0.0,0.0,0.0,7.813,8.375,8.819,9.166,9.166,9.166,9.166,9.166,9.239,9.239,9.313,9.313,9.313,9.313,9.464,9.542,9.542,9.542,9.542,0.0,0.0,0.0,0.0,0.0,0.0,0.0,0.0,0.0,0.0,0.0,0.0,8.623,8.753,8.955,9.166,9.239,9.464,9.542,9.783,9.783,9.865,9.865,10.036,10.036,10.036,10.036,10.123,10.212,10.212,10.212,10.212,10.212,10.212,10.123,10.036,9.95,9.865,9.783,9.542,9.542,9.464,9.313,9.313,9.239,9.239,9.166,9.166,9.024,8.955,8.955,8.819,8.819,8.753,8.753,8.623,8.56,0.0,0.0,0.0,0.0,0.0,0.0,0.0,0.0,0.0,0.0,0.0,0.0,0.0,0.0,0.0,0.0,0.0,0.0,0.0,0.0,0.0,0.0,0.0,0.0,0.0,0.0,0.0,0.0,0.0,7.368,7.973,8.028,8.198,8.256,8.497,8.753,9.166,9.239,9.166,9.239,9.542,9.739625,10.036,10.302,10.583
6.225,6.225,6.225,6.259,6.259,6.327,6.361,6.396,6.432,6.467,6.54,6.54,6.577,6.577,6.614,6.614,6.614,6.614,6.614,6.577,6.577,6.577,6.577,6.54,6.54,6.54,6.54,6.54,6.504,6.467,6.467,6.467,6.467,6.467,6.467,6.467,6.504,6.504,6.504,6.504,6.54,6.54,6.54,6.54,6.54,6.54,6.577,6.577,6.577,6.614,6.614,6.652,6.652,6.69,6.69,6.729,6.729,6.729,6.729,6.729,6.729,6.729,6.729,6.729,6.729,6.729,6.729,6.69,6.69,6.69,6.69,6.69,6.69,6.69,6.69,6.69,6.729,6.729,6.808,6.848,6.929,7.055,7.186,7.231,7.368,7.415,7.511,7.511,7.511,7.511,7.415,7.368,7.231,7.055,6.652,0.0,0.0,4.085,4.085,4.07,4.056,4.028,4.014,3.973,3.946,3.933,3.92,3.906,3.893,3.88,3.88,3.868,3.868,3.868,3.868,3.868,3.868,3.855,3.855,3.855,3.855,3.829,3.817,3.817,3.804,3.78,3.755,3.696,3.649,3.593,3.549,3.517,3.496,3.475,3.465,3.465,3.465,3.465,3.465,3.475,3.485,3.496,3.517,3.538,3.56,3.593,3.627,3.661,3.731,3.804,3.868,0.0,0.0,0.0,4.477,4.83,5.04,5.2275,5.415,5.57,5.651,5.821,5.909,6.001,6.095,6.001,5.939,5.909,5.939,5.909,5.909,5.85,5.85,5.85,5.909,5.939,5.939,6.001,6.001,6.032,6.095,6.127,6.127,6.159,6.159,6.225,6.259,6.327,6.327,6.361,6.396,6.396,6.432,6.432,6.432,6.467,6.467,6.467,6.467,6.467,6.504,6.504,6.504,6.504,6.504,6.504,6.504,6.467,6.467,6.396,6.159,6.032,5.939,5.821,5.735,5.679,5.651,5.624,5.597,5.57,5.57,5.543,5.543,5.543,5.543,5.543,5.543,5.543,5.57,5.57,5.57,5.57,5.597,5.597,5.597,5.597,5.597,5.597,5.597,5.597,5.597,5.597,5.624,5.651,5.651,5.651,5.679,5.679,5.707,5.707,5.735,5.763,5.792,5.85,6.001,6.127,6.259,6.504,6.614,6.768,7.055,7.234999999999999,7.415,7.709,7.919,7.973,8.028,8.028,8.028,8.084,8.084,8.028,8.028,8.028,7.973,7.973,7.866,7.813,7.659,7.559,7.415,7.415,7.368,7.322,7.322,7.322,7.368,7.415,7.415,7.511,7.559,7.559,7.659,7.659,7.709,7.709,7.709,7.659,7.659,7.659,7.709,7.761,7.761,7.761,7.813,7.866,7.919,7.973,7.973,8.028,8.028,8.084,8.084,8.198,8.256,8.497,8.819,9.1415,9.464,10.036,10.394,10.779,11.641,12.793,13.696,14.197,14.552,14.925,15.119,15.119,15.317,15.522,0.0,0.0,0.0,0.0,0.0,0.0,0.0,0.0,0.0,0.0,0.0,0.0,13.859,13.859,13.696,13.536,13.536,13.536,13.381,13.381,13.381,13.229,12.793,12.518,12.001,11.641,11.302,11.087,10.88,10.68,10.583,10.394,10.212,10.123,9.783,9.542,9.313,9.024,8.623,8.497,8.375,8.256,8.198,8.084,8.028,7.919,7.813,7.709,7.659,7.559,7.511,7.415,7.368,0.0,0.0,0.0,0.0,0.0,4.912,4.851,4.83,4.81,4.81,4.81,4.81,4.791,4.791,4.771,4.771,4.752,4.752,4.732,4.732,4.732,4.713,4.713,4.713,4.694,4.694,4.657,4.657,4.638,4.638,4.638,4.791,0.0,0.0,0.0,0.0,0.0,7.368,8.084,8.497,8.955,9.024,9.024,9.166,9.166,9.166,9.166,9.166,9.166,9.024,9.166,9.166,9.166,0.0,0.0,0.0,0.0,0.0,0.0,0.0,0.0,0.0,0.0,0.0,0.0,0.0,0.0,8.56,8.56,8.623,8.819,9.024,9.239,9.313,9.464,9.701,9.783,9.95,9.95,10.036,10.036,10.123,10.212,10.212,10.212,10.302,10.302,10.302,10.212,10.302,10.212,10.123,10.036,9.95,9.783,9.701,9.464,9.313,9.313,9.239,9.166,9.024,9.024,8.955,8.819,8.819,8.753,8.753,8.753,8.623,8.623,8.623,8.56,0.0,0.0,0.0,0.0,0.0,0.0,0.0,0.0,0.0,0.0,0.0,7.322,7.098,0.0,0.0,0.0,0.0,0.0,0.0,0.0,0.0,0.0,0.0,0.0,0.0,0.0,0.0,0.0,0.0,0.0,0.0,0.0,8.256,8.497,8.819,9.024,9.313,9.542,9.464,9.56725,9.701,9.865,10.212,10.394,10.68
6.259,6.259,6.259,6.327,6.327,6.361,6.396,6.396,6.467,6.467,6.504,6.54,6.577,6.577,6.577,6.577,6.614,6.614,6.577,6.577,6.577,6.577,6.577,6.577,6.577,6.54,6.54,6.54,6.54,6.504,6.504,6.504,6.467,6.467,6.467,6.504,6.504,6.504,6.504,6.504,6.54,6.54,6.54,6.54,6.54,6.577,6.577,6.577,6.577,6.614,6.614,6.652,6.652,6.69,6.729,6.729,6.729,6.729,6.729,6.729,6.729,6.729,6.729,6.729,6.729,6.729,6.729,6.729,6.69,6.69,6.69,6.69,6.69,6.69,6.69,6.729,6.729,6.768,6.808,6.888,6.971,7.098,7.186,7.322,7.415,7.511,7.559,7.559,7.559,7.511,7.415,7.368,7.322,7.186,6.729,0.0,0.0,4.114,4.085,4.07,4.056,4.028,4.014,3.973,3.946,3.933,3.92,3.906,3.893,3.88,3.868,3.868,3.868,3.868,3.868,3.855,3.855,3.855,3.855,3.855,3.842,3.842,3.829,3.829,3.817,3.804,3.767,3.731,3.672,3.615,3.56,3.528,3.496,3.485,3.465,3.465,3.465,3.465,3.465,3.475,3.485,3.496,3.517,3.538,3.56,3.615,3.627,3.661,3.731,3.792,3.829,3.92,0.0,0.0,0.0,4.563000000000001,0.0,0.0,0.0,0.0,0.0,0.0,0.0,5.597,5.651,5.679,5.679,5.735,5.821,5.85,5.909,5.909,5.909,5.909,5.939,6.032,6.095,6.095,6.127,6.159,6.259,6.327,6.361,6.361,6.361,6.396,6.396,6.396,6.432,6.432,6.467,6.467,6.467,6.504,6.467,6.504,6.504,6.504,6.504,6.504,6.504,6.504,6.54,6.54,6.54,6.54,6.54,6.504,6.467,6.432,6.225,6.095,5.939,5.85,5.763,5.707,5.651,5.651,5.597,5.597,5.57,5.57,5.57,5.57,5.57,5.57,5.57,5.57,5.57,5.597,5.597,5.597,5.597,5.597,5.597,5.597,5.597,5.597,5.597,5.597,5.597,5.597,5.624,5.651,5.651,5.651,5.679,5.707,5.735,5.735,5.763,5.792,5.821,5.909,6.032,6.127,6.327,6.54,6.652,6.768,6.971,7.1695,7.368,7.659,7.866,7.973,8.028,8.028,8.028,8.028,8.084,8.028,8.028,8.028,7.973,7.973,7.919,7.866,7.761,7.559,7.415,7.415,7.368,7.231,7.231,7.231,7.231,7.322,7.368,7.415,7.511,7.559,7.559,7.659,7.709,7.709,7.659,7.659,7.709,7.709,7.761,7.761,7.813,7.813,7.866,7.919,7.973,7.973,7.973,8.028,8.028,8.084,8.141,8.198,8.315,8.497,8.955,9.2095,9.464,10.036,10.394,10.779,11.641,12.793,13.536,14.197,14.552,14.736,14.925,15.119,15.317,15.522,15.731,15.731,0.0,0.0,0.0,0.0,0.0,0.0,0.0,14.372,14.197,14.026,13.859,13.859,13.536,13.536,13.381,13.381,13.381,13.229,13.229,12.935,12.793,12.518,12.001,11.641,11.302,10.982,10.779,10.583,10.394,10.212,10.036,9.701,9.313,8.955,8.56,8.375,8.256,8.198,8.141,8.028,7.973,7.866,7.761,7.559,7.511,7.415,7.368,7.368,7.368,7.322,7.231,7.098,6.6785,6.259,5.268,5.04,4.912,4.851,4.83,4.81,4.81,4.81,4.81,4.791,4.791,4.771,4.771,4.752,4.752,4.752,4.752,4.752,4.732,4.732,4.713,4.713,4.713,4.694,4.694,4.657,4.657,4.638,4.791,0.0,0.0,0.0,0.0,0.0,0.0,7.866,8.256,8.753,8.955,8.955,8.955,9.024,8.955,9.024,9.024,8.955,9.024,8.955,9.024,9.024,0.0,0.0,0.0,0.0,0.0,0.0,0.0,0.0,0.0,0.0,0.0,0.0,0.0,8.436,8.497,8.497,8.56,8.753,8.819,9.024,9.239,9.313,9.542,9.701,9.865,9.95,10.036,10.036,10.212,10.212,10.212,10.302,10.302,10.302,10.394,10.302,10.302,10.302,10.302,10.212,10.036,9.865,9.701,9.464,9.313,9.239,9.166,9.024,8.955,8.819,8.753,8.753,8.623,8.623,8.623,8.623,8.623,8.623,8.623,0.0,0.0,0.0,0.0,0.0,0.0,0.0,0.0,0.0,0.0,0.0,0.0,7.813,7.659,0.0,0.0,0.0,0.0,0.0,0.0,0.0,0.0,0.0,0.0,0.0,0.0,0.0,0.0,0.0,0.0,0.0,0.0,0.0,8.711,8.955,9.239,9.397,9.542,9.783,9.865,9.865,9.865,10.036,10.212,10.394,10.68
6.259,6.327,6.327,6.327,6.361,6.361,6.396,6.396,6.432,6.467,6.504,6.54,6.54,6.54,6.577,6.577,6.577,6.577,6.577,6.577,6.577,6.577,6.577,6.577,6.577,6.577,6.577,6.54,6.54,6.54,6.54,6.504,6.504,6.504,6.504,6.504,6.504,6.504,6.54,6.54,6.54,6.54,6.54,6.54,6.54,6.577,6.577,6.577,6.577,6.614,6.614,6.614,6.652,6.69,6.729,6.729,6.729,6.729,6.729,6.729,6.729,6.729,6.729,6.729,6.729,6.729,6.729,6.729,6.69,6.69,6.69,6.69,6.69,6.69,6.729,6.729,6.768,6.808,6.848,6.929,6.971,7.098,7.231,7.368,7.415,7.511,7.559,7.559,7.559,7.415,7.368,7.322,7.231,7.186,6.432,0.0,0.0,4.128,4.085,4.07,4.07,4.028,4.014,3.987,3.946,3.933,3.92,3.906,3.893,3.868,3.868,3.868,3.868,3.868,3.868,3.868,3.868,3.868,3.868,3.868,3.855,3.855,3.842,3.829,3.829,3.804,3.78,3.743,3.696,3.627,3.593,3.538,3.506,3.485,3.475,3.465,3.465,3.465,3.465,3.475,3.485,3.496,3.517,3.538,3.56,3.593,3.649,3.672,3.731,3.78,3.817,3.868,3.987,4.173,4.234500000000001,4.296,0.0,0.0,0.0,0.0,0.0,0.0,0.0,0.0,5.316,5.44,5.4365,5.543,5.624,5.707,5.821,5.85,5.909,5.939,6.032,6.127,6.127,6.225,6.259,6.327,6.361,6.432,6.467,6.467,6.504,6.504,6.54,6.504,6.54,6.54,6.54,6.54,6.54,6.54,6.54,6.54,6.54,6.54,6.54,6.54,6.54,6.54,6.54,6.577,6.577,6.54,6.54,6.54,6.54,6.467,6.259,6.127,6.032,5.909,5.821,5.735,5.679,5.651,5.651,5.624,5.597,5.597,5.597,5.597,5.57,5.597,5.597,5.597,5.597,5.597,5.597,5.597,5.597,5.597,5.597,5.597,5.597,5.597,5.597,5.597,5.597,5.624,5.624,5.651,5.651,5.679,5.679,5.707,5.735,5.763,5.763,5.792,5.821,5.939,6.095,6.159,6.361,6.54,6.652,6.768,6.971,7.184875,7.368,7.659,7.813,7.919,7.973,8.028,8.028,8.028,8.028,8.028,8.028,8.028,7.973,7.973,7.919,7.866,7.761,7.559,7.511,7.415,7.368,7.322,7.231,7.231,7.322,7.322,7.415,7.415,7.511,7.559,7.559,7.659,7.659,7.709,7.709,7.709,7.761,7.761,7.761,7.813,7.813,7.866,7.866,7.919,7.973,7.973,8.028,8.028,8.084,8.084,8.141,8.198,8.315,8.497,8.819,9.066,9.313,9.95,10.302,10.68,11.302,12.384,13.229,13.859,14.372,14.552,14.925,15.119,15.119,15.317,15.317,15.522,0.0,0.0,0.0,0.0,0.0,14.736,14.552,14.372,14.197,13.859,13.696,13.696,13.536,13.536,13.381,13.381,13.229,13.229,12.935,12.793,12.518,12.384,12.001,11.641,11.302,10.982,10.68,10.488,10.302,10.212,9.783,9.239,8.819,8.315,8.256,8.198,8.084,8.028,7.973,7.813,7.659,7.511,7.415,7.322,7.231,7.231,7.231,7.322,7.322,7.231,7.186,7.098,6.628125,6.159,5.316,5.124499999999999,4.933,4.851,4.83,4.81,4.81,4.81,4.81,4.791,4.771,4.771,4.771,4.752,4.752,4.752,4.752,4.752,4.752,4.752,4.732,4.732,4.713,4.713,4.694,4.657,4.638,4.638,4.771,4.8945,5.018,0.0,0.0,0.0,0.0,7.322,8.028,8.497,8.955,8.955,8.955,8.955,8.955,8.955,8.955,8.819,8.819,8.955,8.819,8.955,0.0,0.0,0.0,0.0,0.0,0.0,0.0,0.0,0.0,0.0,0.0,0.0,0.0,8.375,8.436,8.497,8.497,8.623,8.819,8.955,9.166,9.239,9.464,9.542,9.783,9.95,10.036,10.123,10.212,10.302,10.302,10.394,10.394,10.394,10.394,10.394,10.394,10.394,10.302,10.302,10.036,9.865,9.701,9.464,9.313,9.239,9.166,9.024,8.955,8.819,8.753,8.753,8.623,8.623,8.623,8.623,8.623,8.623,8.623,0.0,0.0,0.0,0.0,0.0,0.0,0.0,0.0,0.0,0.0,0.0,0.0,0.0,0.0,0.0,0.0,0.0,0.0,0.0,0.0,0.0,0.0,0.0,0.0,0.0,0.0,0.0,0.0,0.0,0.0,0.0,0.0,0.0,9.166,9.46875,9.542,9.783,9.95,10.123,10.212,10.123,10.123,10.212,10.394,10.583,10.68
6.327,6.327,6.361,6.361,6.361,6.361,6.396,6.396,6.432,6.432,6.467,6.467,6.504,6.54,6.54,6.54,6.54,6.54,6.54,6.54,6.54,6.54,6.577,6.54,6.577,6.577,6.577,6.54,6.54,6.54,6.54,6.54,6.54,6.504,6.54,6.504,6.504,6.54,6.54,6.54,6.54,6.54,6.54,6.54,6.54,6.577,6.577,6.577,6.577,6.614,6.614,6.614,6.652,6.69,6.69,6.69,6.729,6.729,6.729,6.729,6.729,6.729,6.729,6.729,6.729,6.729,6.729,6.729,6.69,6.69,6.69,6.69,6.69,6.729,6.729,6.729,6.768,6.808,6.848,6.929,6.971,7.098,7.231,7.322,7.415,7.511,7.511,7.511,7.511,7.415,7.368,7.231,7.098,6.888,6.159,0.0,0.0,4.128,4.128,4.114,4.085,4.07,4.028,4.014,3.973,3.946,3.933,3.92,3.906,3.88,3.868,3.868,3.868,3.868,3.868,3.868,3.868,3.868,3.868,3.868,3.868,3.855,3.855,3.842,3.829,3.817,3.804,3.78,3.731,3.672,3.615,3.56,3.517,3.496,3.485,3.465,3.465,3.465,3.465,3.485,3.485,3.496,3.517,3.538,3.582,3.615,3.649,3.696,3.743,3.767,3.804,3.829,3.88,4.014,4.158,4.249,0.0,0.0,0.0,0.0,0.0,0.0,0.0,0.0,0.0,0.0,5.084,5.415,5.479,5.543,5.651,5.707,5.85,6.001,6.095,6.159,6.225,6.259,6.361,6.432,6.467,6.504,6.54,6.54,6.54,6.54,6.577,6.577,6.54,6.577,6.54,6.54,6.54,6.54,6.54,6.54,6.54,6.54,6.54,6.54,6.577,6.577,6.577,6.577,6.577,6.577,6.577,6.577,6.54,6.504,6.432,6.225,6.095,6.001,5.85,5.792,5.707,5.679,5.651,5.651,5.624,5.597,5.597,5.597,5.597,5.597,5.597,5.597,5.597,5.597,5.597,5.597,5.624,5.624,5.624,5.597,5.597,5.597,5.597,5.597,5.624,5.624,5.651,5.651,5.651,5.679,5.679,5.735,5.735,5.763,5.792,5.821,5.85,5.939,6.095,6.225,6.396,6.54,6.614,6.729,6.929,7.231,7.371,7.511,7.709,7.813,7.919,7.973,7.973,8.028,8.028,8.028,8.028,7.973,7.973,7.973,7.919,7.866,7.761,7.659,7.511,7.415,7.368,7.368,7.322,7.322,7.322,7.368,7.368,7.415,7.511,7.511,7.559,7.659,7.709,7.709,7.709,7.761,7.761,7.761,7.813,7.813,7.866,7.866,7.919,7.919,7.973,7.973,8.028,8.028,8.084,8.084,8.141,8.198,8.315,8.497,8.819,9.066,9.313,9.95,10.302,10.68,11.302,12.384,13.381,14.026,14.372,14.736,14.925,15.119,15.119,15.119,15.119,15.119,15.119,15.119,14.925,14.736,14.552,14.372,14.197,14.026,13.859,13.536,13.536,13.381,13.381,13.229,13.229,13.229,12.935,12.935,12.793,12.518,12.384,12.384,11.641,11.526,11.194,10.88,10.583,10.394,10.212,9.95,9.313,8.819,8.256,8.084,8.028,7.973,7.866,7.709,7.559,7.415,7.322,7.186,7.098,7.055,6.971,7.055,7.055,7.098,7.098,7.098,6.971,6.729,6.577,6.032,5.316,5.092624999999999,4.912,4.851,4.83,4.81,4.81,4.81,4.81,4.791,4.771,4.771,4.771,4.771,4.771,4.771,4.771,4.771,4.771,4.771,4.771,4.752,4.732,4.732,4.713,4.694,4.638,4.638,4.713,4.868375,4.954,5.44,0.0,0.0,0.0,6.848,7.866,8.375,8.753,8.753,8.753,8.819,8.753,8.753,8.819,8.819,8.753,8.753,8.623,8.753,0.0,0.0,0.0,0.0,0.0,0.0,0.0,0.0,0.0,0.0,0.0,0.0,0.0,8.375,8.375,8.436,8.436,8.56,8.623,8.819,8.955,9.166,9.313,9.464,9.783,9.865,10.036,10.212,10.212,10.302,10.394,10.394,10.488,10.583,10.583,10.488,10.583,10.488,10.394,10.394,10.212,10.036,9.865,9.865,9.542,9.464,9.239,9.166,0.0,0.0,0.0,0.0,8.753,8.753,0.0,0.0,0.0,0.0,0.0,0.0,0.0,0.0,0.0,0.0,0.0,0.0,0.0,0.0,0.0,0.0,0.0,0.0,0.0,0.0,0.0,0.0,0.0,0.0,0.0,0.0,0.0,0.0,0.0,0.0,0.0,0.0,0.0,0.0,0.0,0.0,0.0,0.0,0.0,10.212,10.212,10.302,10.394,10.394,10.394,10.302,10.302,10.394,10.488,10.68,10.88
6.361,6.361,6.361,6.361,6.361,6.361,6.361,6.396,6.396,6.396,6.396,6.432,6.432,6.467,6.467,6.467,6.467,6.467,6.504,6.504,6.504,6.54,6.54,6.54,6.54,6.577,6.577,6.577,6.577,6.577,6.54,6.54,6.54,6.54,6.54,6.54,6.504,6.54,6.54,6.54,6.54,6.54,6.54,6.54,6.54,6.577,6.577,6.577,6.577,6.614,6.614,6.614,6.69,6.69,6.69,6.69,6.729,6.729,6.729,6.729,6.729,6.729,6.729,6.729,6.729,6.729,6.729,6.729,6.729,6.729,6.729,6.729,6.729,6.729,6.729,6.768,6.808,6.808,6.888,6.929,6.971,7.098,7.231,7.322,7.368,7.511,7.511,7.511,7.415,7.415,7.186,6.971,6.768,6.361,5.763,0.0,0.0,4.173,4.158,4.128,4.114,4.085,4.056,4.028,4.014,3.973,3.946,3.933,3.92,3.893,3.88,3.88,3.88,3.88,3.88,3.868,3.868,3.88,3.868,3.88,3.868,3.855,3.855,3.855,3.842,3.829,3.817,3.792,3.755,3.696,3.649,3.582,3.538,3.506,3.496,3.485,3.475,3.475,3.475,3.485,3.496,3.506,3.528,3.549,3.582,3.627,3.661,3.696,3.731,3.755,3.792,3.817,3.829,3.868,3.92,4.014,4.085,4.188,0.0,0.0,0.0,0.0,0.0,0.0,0.0,0.0,0.0,0.0,0.0,5.389,5.543,5.58525,5.651,5.792,5.939,6.127,6.327,6.361,6.432,6.467,6.54,6.54,6.577,6.577,6.577,6.577,6.577,6.577,6.577,6.577,6.577,6.54,6.54,6.54,6.54,6.577,6.577,6.577,6.54,6.577,6.577,6.577,6.614,6.614,6.614,6.614,6.614,6.577,6.577,6.54,6.504,6.259,6.159,6.095,5.939,5.85,5.763,5.707,5.679,5.679,5.651,5.624,5.624,5.624,5.624,5.624,5.624,5.624,5.651,5.651,5.651,5.651,5.651,5.651,5.651,5.651,5.651,5.651,5.651,5.651,5.651,5.651,5.651,5.679,5.679,5.679,5.707,5.735,5.763,5.763,5.792,5.821,5.85,5.939,6.095,6.225,6.396,6.54,6.614,6.729,6.888,7.098,7.255750000000001,7.368,7.559,7.709,7.813,7.866,7.919,7.973,7.973,7.973,7.973,7.919,7.919,7.866,7.866,7.761,7.659,7.559,7.511,7.415,7.415,7.368,7.322,7.322,7.322,7.368,7.415,7.415,7.511,7.559,7.659,7.709,7.709,7.761,7.761,7.813,7.813,7.813,7.813,7.866,7.866,7.919,7.919,7.919,7.973,7.973,8.028,8.028,8.028,8.084,8.141,8.198,8.315,8.497,8.819,9.029,9.239,9.865,10.302,10.583,11.194,12.254,13.229,13.859,14.372,14.552,14.925,14.925,15.119,15.119,15.119,14.925,14.925,14.736,14.554,14.372,14.197,14.026,13.696,13.536,13.229,12.935,12.935,12.793,12.793,12.793,12.518,12.518,12.518,12.384,12.518,12.254,12.001,11.641,11.302,11.087,11.087,10.68,10.488,10.302,10.212,9.542,9.024,8.198,8.084,7.973,7.866,7.709,7.559,7.368,7.231,7.098,6.971,6.929,6.888,6.848,6.848,6.888,6.929,6.971,6.971,6.971,6.848,6.69,6.504,5.909,5.316,5.018,4.912,4.851,4.83,4.81,4.81,4.81,4.791,4.791,4.771,4.791,4.771,4.771,4.771,4.771,4.771,4.771,4.771,4.791,4.791,4.771,4.752,4.732,4.713,4.694,4.657,4.638,4.657,4.912,5.114,5.316,5.624,0.0,0.0,6.652,7.511,8.256,8.623,8.56,8.623,8.56,8.56,8.623,8.56,8.56,8.497,8.436,8.436,0.0,0.0,0.0,0.0,0.0,0.0,0.0,0.0,0.0,0.0,0.0,0.0,0.0,0.0,8.375,8.375,8.375,8.436,8.436,8.56,8.753,8.819,9.024,9.239,9.464,9.783,9.865,10.123,10.212,10.302,10.394,10.394,10.583,10.583,10.583,10.68,10.68,10.68,10.68,10.68,10.583,10.488,10.302,10.212,9.95,9.701,9.542,9.464,0.0,0.0,0.0,0.0,0.0,0.0,0.0,0.0,0.0,0.0,0.0,0.0,0.0,0.0,0.0,0.0,0.0,0.0,0.0,0.0,0.0,0.0,0.0,0.0,0.0,0.0,0.0,0.0,0.0,0.0,0.0,0.0,0.0,0.0,0.0,0.0,0.0,0.0,0.0,0.0,0.0,0.0,0.0,0.0,0.0,0.0,0.0,10.982,10.88,10.779,10.68,10.68,10.583,10.488,10.583,10.68,10.88,11.087
6.361,6.361,6.361,6.361,6.361,6.361,6.361,6.361,6.361,6.361,6.361,6.361,6.361,6.396,6.361,6.396,6.396,6.396,6.396,6.432,6.432,6.467,6.504,6.54,6.54,6.54,6.577,6.577,6.577,6.577,6.577,6.54,6.54,6.54,6.54,6.54,6.54,6.54,6.54,6.54,6.54,6.54,6.54,6.54,6.54,6.577,6.577,6.577,6.577,6.614,6.614,6.652,6.652,6.69,6.69,6.69,6.729,6.729,6.729,6.729,6.729,6.729,6.729,6.729,6.729,6.729,6.729,6.729,6.729,6.729,6.729,6.729,6.729,6.729,6.729,6.768,6.808,6.848,6.888,6.929,6.971,7.098,7.186,7.231,7.322,7.415,7.415,7.415,7.231,7.098,6.808,6.54,6.159,5.735,5.491,0.0,0.0,4.188,4.173,4.173,4.158,4.128,4.085,4.07,4.028,4.014,3.987,3.973,3.933,3.92,3.906,3.893,3.893,3.893,3.893,3.893,3.88,3.88,3.88,3.893,3.893,3.868,3.868,3.855,3.855,3.829,3.817,3.804,3.78,3.731,3.672,3.627,3.56,3.528,3.496,3.485,3.485,3.485,3.485,3.496,3.496,3.517,3.528,3.56,3.593,3.649,3.661,3.696,3.731,3.755,3.78,3.804,3.817,3.829,3.842,3.855,3.868,3.906,3.946,4.028,4.114,4.218,4.264,4.296,0.0,0.0,0.0,0.0,0.0,4.933,5.174,5.44,5.624,5.7075,5.763,6.032,6.259,6.432,6.504,6.54,6.577,6.577,6.614,6.614,6.577,6.614,6.577,6.577,6.577,6.577,6.577,6.577,6.577,6.54,6.54,6.54,6.577,6.577,6.577,6.577,6.577,6.577,6.614,6.614,6.614,6.614,6.614,6.614,6.577,6.577,6.54,6.432,6.259,6.159,6.032,5.939,5.821,5.763,5.707,5.679,5.679,5.679,5.651,5.651,5.651,5.651,5.651,5.651,5.651,5.651,5.651,5.651,5.651,5.651,5.651,5.651,5.679,5.651,5.651,5.651,5.651,5.679,5.679,5.679,5.707,5.707,5.735,5.735,5.763,5.792,5.792,5.821,5.85,5.939,6.032,6.225,6.361,6.54,6.614,6.69,6.808,6.929,7.186,7.255000000000001,7.368,7.511,7.559,7.709,7.761,7.813,7.866,7.866,7.866,7.866,7.813,7.813,7.761,7.709,7.709,7.559,7.511,7.415,7.368,7.368,7.322,7.322,7.322,7.368,7.368,7.415,7.511,7.559,7.659,7.709,7.761,7.761,7.813,7.813,7.866,7.866,7.866,7.919,7.919,7.919,7.919,7.919,7.973,7.973,8.028,8.028,8.028,8.084,8.084,8.198,8.256,8.436,8.753,8.941749999999999,9.166,9.701,10.123,10.394,10.68,11.194,12.001,12.793,13.859,14.372,14.552,14.552,14.736,14.925,14.736,14.552,14.552,14.372,14.202749999999998,14.026,13.859,13.536,13.229,13.229,12.793,12.384,12.384,12.254,12.254,12.254,12.001,12.001,12.001,12.001,11.879,11.526,11.302,11.087,10.982,10.779,10.68,10.394,10.302,10.302,9.95,9.239,8.256,8.084,7.973,7.761,7.511,7.368,7.186,7.055,6.929,6.888,6.768,6.729,6.729,6.729,6.729,6.729,6.768,6.808,6.808,6.729,6.652,6.54,6.259,5.821,5.34975,5.018,4.912,4.851,4.83,4.81,4.81,4.81,4.791,4.791,4.791,4.791,4.771,4.771,4.771,4.771,4.771,4.791,4.791,4.791,4.791,4.771,4.771,4.752,4.713,4.694,4.657,4.638,4.601,4.851,4.967499999999999,5.084,5.491,5.9435,6.396,6.747,7.098,8.141,8.497,8.497,8.375,8.436,8.375,8.375,8.315,0.0,0.0,0.0,0.0,0.0,0.0,0.0,0.0,0.0,0.0,0.0,0.0,0.0,0.0,0.0,0.0,0.0,0.0,8.375,8.375,8.436,8.436,8.497,8.623,8.753,8.955,9.024,9.313,9.542,9.783,10.036,10.212,10.302,10.394,10.488,10.583,10.583,10.68,10.68,10.779,10.88,10.88,10.88,10.779,10.779,10.68,10.583,10.302,10.212,9.865,9.701,0.0,0.0,0.0,0.0,0.0,0.0,0.0,0.0,0.0,0.0,0.0,0.0,0.0,0.0,0.0,0.0,0.0,0.0,0.0,0.0,0.0,0.0,0.0,0.0,0.0,0.0,0.0,0.0,0.0,0.0,0.0,0.0,0.0,0.0,0.0,0.0,0.0,0.0,0.0,0.0,0.0,0.0,0.0,0.0,0.0,0.0,0.0,0.0,0.0,11.194,11.087,10.982,10.982,10.68,10.583,10.68,10.779,10.982,11.087
6.361,6.361,6.361,6.361,6.361,6.327,6.327,6.327,6.327,6.259,6.259,6.259,6.259,6.327,6.259,6.327,6.327,6.327,6.327,6.361,6.361,6.396,6.432,6.467,6.504,6.54,6.54,6.54,6.577,6.577,6.577,6.577,6.577,6.54,6.54,6.54,6.54,6.54,6.54,6.54,6.54,6.54,6.54,6.54,6.54,6.54,6.577,6.577,6.577,6.614,6.614,6.614,6.652,6.652,6.69,6.69,6.69,6.729,6.729,6.729,6.729,6.729,6.729,6.729,6.729,6.729,6.729,6.729,6.729,6.729,6.729,6.729,6.729,6.729,6.768,6.768,6.808,6.848,6.888,6.929,6.971,7.055,7.186,7.186,7.322,7.368,7.231,7.098,6.848,6.729,6.396,6.001,5.679,0.0,5.1114999999999995,4.74375,4.376,4.203,4.188,4.173,4.173,4.158,4.128,4.085,4.07,4.056,4.028,4.014,3.987,3.946,3.933,3.933,3.92,3.92,3.92,3.92,3.933,3.92,3.92,3.92,3.906,3.88,3.868,3.868,3.855,3.842,3.829,3.817,3.792,3.755,3.707,3.661,3.615,3.549,3.528,3.496,3.496,3.496,3.496,3.496,3.506,3.528,3.538,3.582,3.615,3.649,3.672,3.707,3.743,3.755,3.792,3.804,3.817,3.829,3.842,3.855,3.868,3.893,3.92,3.973,4.028,4.114,4.173,4.218,4.264,4.312,0.0,0.0,0.0,0.0,4.912,5.106,5.465,5.651,5.7505,5.85,6.225,6.467,6.54,6.577,6.577,6.577,6.614,6.614,6.614,6.614,6.614,6.577,6.577,6.577,6.577,6.577,6.577,6.577,6.54,6.577,6.577,6.577,6.577,6.577,6.577,6.614,6.614,6.614,6.614,6.614,6.614,6.614,6.614,6.577,6.54,6.504,6.432,6.225,6.127,6.032,5.909,5.821,5.763,5.735,5.707,5.679,5.679,5.679,5.679,5.679,5.679,5.679,5.679,5.679,5.679,5.679,5.679,5.679,5.679,5.679,5.707,5.679,5.679,5.679,5.679,5.707,5.707,5.707,5.707,5.735,5.735,5.763,5.763,5.792,5.792,5.821,5.85,5.939,6.032,6.159,6.361,6.504,6.577,6.614,6.69,6.808,6.929,7.098,7.231,7.322,7.3705,7.415,7.511,7.559,7.709,7.709,7.709,7.709,7.761,7.709,7.709,7.659,7.559,7.511,7.511,7.415,7.368,7.368,7.322,7.368,7.368,7.368,7.415,7.511,7.559,7.659,7.659,7.709,7.761,7.813,7.813,7.866,7.866,7.866,7.919,7.919,7.919,7.919,7.919,7.919,7.973,7.973,7.973,7.973,8.028,8.084,8.084,8.141,8.256,8.315,8.497,8.819,9.010750000000002,9.239,9.783,10.123,10.394,10.68,10.982,11.879,12.518,13.536,0.0,0.0,14.372,14.372,14.372,14.372,14.197,14.026,13.859,13.696,13.381,12.935,12.793,12.518,12.254,11.879,11.641,11.641,11.641,11.526,11.302,11.302,11.302,11.194,11.087,10.982,10.88,10.68,10.68,10.583,10.394,10.302,10.123,9.783,9.313,8.56,8.256,7.973,7.761,7.511,7.322,7.186,6.971,6.888,6.808,6.729,6.729,6.69,6.69,6.652,6.652,6.69,6.69,6.729,6.69,6.614,6.577,6.396,6.095,5.707,5.244,4.996,4.912,4.851,4.83,4.81,4.81,4.81,4.791,4.791,4.791,4.791,4.791,4.771,4.791,4.791,4.791,4.791,4.81,4.81,4.791,4.791,4.771,4.752,4.713,4.694,4.638,4.638,4.601,4.83,4.915875,4.954,5.22,0.0,6.0515,0.0,6.819,7.977,8.436,8.405999999999999,8.3155,8.346,8.3155,0.0,0.0,0.0,0.0,0.0,0.0,0.0,0.0,0.0,0.0,0.0,0.0,0.0,0.0,0.0,0.0,0.0,0.0,0.0,0.0,0.0,0.0,0.0,0.0,8.528500000000001,8.56,8.623,8.955,9.166,9.313,9.701,9.865,10.123,10.212,10.302,10.394,10.583,10.583,10.68,10.779,10.88,10.88,10.982,11.194,11.087,11.087,10.982,10.88,10.68,10.394,10.302,10.0835,0.0,0.0,0.0,0.0,0.0,0.0,0.0,0.0,0.0,0.0,0.0,0.0,0.0,0.0,0.0,0.0,0.0,0.0,0.0,0.0,0.0,0.0,0.0,0.0,0.0,0.0,0.0,0.0,0.0,0.0,0.0,0.0,0.0,0.0,0.0,0.0,0.0,0.0,0.0,0.0,0.0,0.0,0.0,0.0,0.0,0.0,0.0,0.0,0.0,0.0,0.0,0.0,11.087,10.88,10.779,10.68,10.68,0.0,0.0,0.0
6.327,6.361,6.361,6.327,6.327,6.327,6.259,6.259,6.225,6.225,6.225,6.225,6.159,6.159,6.159,6.159,6.225,6.225,6.225,6.259,6.259,6.361,6.396,6.432,6.467,6.504,6.54,6.54,6.577,6.577,6.577,6.577,6.577,6.577,6.54,6.54,6.54,6.54,6.54,6.54,6.54,6.54,6.54,6.54,6.54,6.54,6.577,6.577,6.577,6.577,6.614,6.614,6.652,6.652,6.69,6.69,6.69,6.69,6.729,6.729,6.729,6.729,6.729,6.729,6.768,6.768,6.768,6.729,6.729,6.729,6.729,6.729,6.729,6.768,6.768,6.808,6.808,6.848,6.848,6.888,6.929,6.971,7.098,7.098,7.055,6.929,6.768,6.652,6.327,5.939,5.735,0.0,5.2545,4.99325,4.732,4.512,4.328,4.218,4.203,4.203,4.203,4.188,4.158,4.128,4.114,4.085,4.07,4.056,4.028,4.014,3.987,3.973,3.973,4.014,4.014,3.987,3.973,3.946,3.946,3.933,3.92,3.906,3.88,3.868,3.855,3.855,3.842,3.817,3.804,3.78,3.743,3.696,3.649,3.582,3.549,3.517,3.496,3.496,3.496,3.506,3.517,3.538,3.549,3.593,3.627,3.661,3.672,3.707,3.743,3.755,3.78,3.804,3.804,3.817,3.829,3.855,3.868,3.88,3.906,3.946,3.973,4.056,4.085,4.128,4.188,4.249,4.312,0.0,0.0,0.0,0.0,4.871,5.084,5.491,5.5901250000000005,5.679,6.001,6.396,6.54,6.577,6.577,6.614,6.614,6.614,6.577,6.614,6.614,6.577,6.577,6.577,6.577,6.577,6.577,6.54,6.54,6.577,6.577,6.577,6.577,6.577,6.577,6.614,6.614,6.614,6.614,6.614,6.614,6.614,6.577,6.577,6.54,6.504,6.432,6.259,6.159,6.095,5.939,5.85,5.821,5.792,5.763,5.735,5.735,5.735,5.735,5.735,5.735,5.707,5.707,5.735,5.735,5.735,5.735,5.735,5.735,5.763,5.763,5.763,5.763,5.763,5.763,5.763,5.735,5.735,5.763,5.735,5.763,5.763,5.763,5.792,5.792,5.821,5.85,5.909,6.001,6.095,6.259,6.432,6.504,6.577,6.652,6.69,6.768,6.888,6.971,7.055,7.186,7.231,7.322,7.415,7.489249999999999,7.511,7.511,7.559,7.559,7.559,7.559,7.511,7.511,7.511,7.415,7.368,7.368,7.368,7.368,7.368,7.368,7.368,7.415,7.511,7.559,7.659,7.709,7.709,7.761,7.761,7.866,7.866,7.866,7.866,7.866,7.919,7.919,7.919,7.919,7.919,7.919,7.973,7.973,7.973,7.973,8.028,8.028,8.084,8.141,8.256,8.315,8.497,8.819,8.98,9.239,9.701,9.816500000000001,0.0,0.0,0.0,0.0,0.0,0.0,0.0,0.0,0.0,14.197,14.197,13.859,13.696,13.381,13.229,12.793,12.384,12.254,12.001,11.641,11.526,11.302,11.087,11.087,10.779,10.779,10.68,10.68,10.583,10.583,10.583,10.488,10.394,10.394,10.302,10.212,10.036,9.865,9.313,8.819,8.315,7.973,7.866,7.511,7.368,7.186,7.055,6.888,6.808,6.729,6.729,6.69,6.69,6.652,6.652,6.614,6.652,6.69,6.69,6.652,6.577,6.54,6.327,5.939,5.679,5.22,4.975,4.891,4.851,4.83,4.81,4.81,4.81,4.791,4.791,4.791,4.791,4.791,4.791,4.791,4.791,4.81,4.81,4.81,4.81,4.81,4.791,4.771,4.752,4.732,4.713,4.657,4.657,4.601,4.83,4.912,0.0,0.0,0.0,5.707,6.1235,6.54,7.813,8.375,8.315,8.256,8.256,8.256,0.0,0.0,0.0,0.0,0.0,0.0,0.0,0.0,0.0,0.0,0.0,0.0,0.0,0.0,0.0,0.0,0.0,0.0,0.0,0.0,0.0,0.0,0.0,0.0,8.56,8.623,8.819,8.955,9.166,9.464,9.783,9.95,10.212,10.302,10.394,10.488,10.583,10.583,10.68,10.779,10.982,11.087,11.194,11.302,11.302,11.302,11.302,11.194,11.087,10.88,10.68,10.302,0.0,0.0,0.0,0.0,0.0,0.0,0.0,0.0,0.0,0.0,0.0,0.0,0.0,0.0,0.0,0.0,0.0,0.0,0.0,0.0,0.0,0.0,0.0,0.0,0.0,0.0,0.0,0.0,0.0,0.0,0.0,0.0,0.0,0.0,0.0,0.0,4.694,4.657,4.657,0.0,0.0,0.0,0.0,0.0,0.0,0.0,0.0,0.0,0.0,0.0,0.0,0.0,0.0,10.88,10.779,10.68,0.0,0.0,0.0,0.0
6.259,6.327,6.327,6.259,6.259,6.259,6.259,6.225,6.159,6.159,6.159,6.127,6.127,6.095,6.127,6.095,6.127,6.127,6.159,6.159,6.159,6.259,6.327,6.361,6.432,6.467,6.54,6.54,6.577,6.577,6.577,6.577,6.577,6.577,6.577,6.577,6.54,6.54,6.54,6.54,6.54,6.54,6.54,6.54,6.54,6.54,6.577,6.577,6.577,6.577,6.614,6.614,6.614,6.652,6.652,6.69,6.69,6.69,6.69,6.729,6.729,6.729,6.729,6.768,6.768,6.768,6.768,6.768,6.768,6.768,6.768,6.768,6.768,6.768,6.768,6.808,6.808,6.808,6.848,6.848,6.848,6.888,6.888,6.848,6.729,6.614,6.432,0.0,0.0,0.0,5.2725,5.05125,4.83,4.713,4.512,4.393,4.312,4.233,4.233,4.233,4.218,4.218,4.203,4.188,4.188,4.173,4.158,4.158,4.114,4.188,4.158,4.128,4.114,4.085,4.07,4.028,4.014,3.973,3.973,3.946,3.933,3.92,3.88,3.868,3.868,3.855,3.855,3.829,3.817,3.804,3.767,3.731,3.661,3.627,3.56,3.538,3.517,3.517,3.506,3.517,3.528,3.549,3.56,3.593,3.627,3.661,3.696,3.707,3.743,3.755,3.767,3.792,3.804,3.817,3.829,3.829,3.855,3.868,3.906,3.933,3.946,4.014,4.028,4.07,4.114,4.173,4.233,4.264,4.328,4.41,0.0,0.0,0.0,5.04,5.44,5.651,5.8260000000000005,6.001,6.259,6.432,6.54,6.614,6.577,6.577,6.577,6.577,6.577,6.577,6.54,6.54,6.54,6.54,6.54,6.54,6.54,6.54,6.54,6.54,6.54,6.577,6.577,6.577,6.614,6.614,6.614,6.614,6.614,6.614,6.577,6.577,6.577,6.504,6.467,6.327,6.225,6.127,6.032,5.939,5.85,5.821,5.792,5.792,5.792,5.763,5.763,5.792,5.792,5.792,5.792,5.792,5.792,5.792,5.792,5.821,5.821,5.821,5.821,5.792,5.821,5.821,5.821,5.792,5.792,5.792,5.792,5.792,5.792,5.792,5.763,5.792,5.792,5.821,5.821,5.909,6.001,6.032,6.225,6.327,6.432,6.54,6.577,6.614,6.69,6.729,6.808,6.888,6.888,6.971,7.098,7.231,7.322,7.368,7.368,7.415,7.415,7.415,7.511,7.511,7.511,7.415,7.415,7.368,7.322,7.322,7.322,7.368,7.368,7.368,7.415,7.511,7.659,7.709,7.709,7.709,7.761,7.813,7.866,7.919,7.919,7.919,7.919,7.919,7.973,7.919,7.973,7.919,7.919,7.919,7.919,7.973,7.973,8.028,8.028,8.028,8.084,8.141,8.198,8.315,8.436,8.623,8.955,9.097999999999999,9.239,0.0,0.0,0.0,0.0,0.0,0.0,0.0,0.0,0.0,13.229,13.229,13.229,12.793,12.518,12.254,12.001,11.879,11.526,11.302,11.087,10.982,10.779,10.583,10.488,10.488,10.394,10.302,10.302,10.302,10.212,10.212,10.212,10.212,10.036,10.036,9.865,9.701,9.313,8.955,8.56,8.256,7.9825,7.709,7.415,7.322,7.098,6.971,6.888,6.808,6.729,6.729,6.69,6.69,6.652,6.652,6.652,6.652,6.69,6.69,6.69,6.577,6.432,6.127,5.792,5.597,5.106,4.933,4.871,4.83,4.83,4.81,4.81,4.81,4.791,4.791,4.791,4.791,4.791,4.791,4.791,4.791,4.81,4.81,4.81,4.81,4.81,4.791,4.791,4.752,4.732,4.713,4.694,4.657,4.638,4.81,4.891,0.0,0.0,0.0,5.624,6.259,6.885,7.511,8.375,8.375,0.0,0.0,0.0,0.0,0.0,0.0,0.0,0.0,0.0,0.0,0.0,0.0,0.0,0.0,0.0,0.0,0.0,0.0,0.0,0.0,0.0,0.0,0.0,0.0,0.0,8.084,8.17,8.256,8.497,8.753,8.819,9.239,9.313,9.783,10.036,10.212,10.302,10.394,10.394,10.583,10.68,10.68,10.779,10.982,11.087,11.194,11.526,11.526,11.526,11.526,11.302,11.194,10.982,10.779,10.394,0.0,0.0,0.0,0.0,0.0,0.0,0.0,0.0,0.0,0.0,0.0,0.0,0.0,0.0,0.0,0.0,0.0,0.0,0.0,0.0,0.0,0.0,0.0,0.0,0.0,0.0,0.0,0.0,0.0,0.0,0.0,0.0,0.0,0.0,0.0,0.0,4.41,4.41,4.426,0.0,0.0,0.0,0.0,0.0,0.0,0.0,0.0,0.0,0.0,0.0,0.0,0.0,0.0,0.0,7.356,7.293,0.0,0.0,3.868,3.855
6.259,6.259,6.259,6.259,6.259,6.225,6.225,6.159,6.159,6.127,6.127,6.095,6.032,6.032,6.032,6.032,6.032,6.032,6.032,6.095,6.127,6.159,6.225,6.327,6.396,6.432,6.504,6.54,6.54,6.577,6.577,6.577,6.577,6.577,6.577,6.577,6.577,6.54,6.54,6.54,6.54,6.54,6.54,6.54,6.577,6.577,6.577,6.577,6.577,6.614,6.614,6.614,6.614,6.652,6.652,6.69,6.69,6.69,6.729,6.729,6.729,6.729,6.768,6.768,6.808,6.808,6.808,6.808,6.808,6.808,6.808,6.768,6.768,6.768,6.808,6.808,6.808,6.808,6.808,6.808,6.808,6.808,6.808,6.729,6.577,6.327,0.0,0.0,0.0,0.0,4.81,4.713,4.565,4.426,4.328,4.312,4.28,4.249,4.249,4.249,4.249,4.249,4.249,4.249,4.233,4.233,4.264,4.249,4.249,4.249,4.218,4.203,4.173,4.158,4.114,4.07,4.028,4.014,3.987,3.973,3.946,3.933,3.906,3.88,3.88,3.868,3.855,3.842,3.829,3.804,3.792,3.755,3.696,3.661,3.593,3.56,3.538,3.528,3.528,3.528,3.538,3.549,3.582,3.615,3.649,3.672,3.696,3.731,3.743,3.755,3.767,3.78,3.804,3.804,3.817,3.829,3.855,3.868,3.88,3.906,3.933,3.973,4.014,4.028,4.07,4.085,4.173,4.233,4.264,4.312,4.376,0.0,0.0,0.0,0.0,0.0,5.651,5.75475,5.85,6.127,6.396,6.54,6.577,6.54,6.54,6.54,6.54,6.54,6.504,6.504,6.467,6.467,6.467,6.467,6.467,6.504,6.504,6.504,6.54,6.54,6.54,6.577,6.577,6.577,6.577,6.577,6.577,6.577,6.577,6.54,6.54,6.504,6.467,6.361,6.259,6.159,6.032,6.001,5.909,5.85,5.85,5.821,5.821,5.821,5.821,5.85,5.85,5.85,5.85,5.85,5.85,5.85,5.909,5.909,5.85,5.909,5.85,5.909,5.85,5.85,5.85,5.85,5.821,5.821,5.792,5.792,5.792,5.792,5.763,5.792,5.792,5.821,5.821,5.85,5.909,6.001,6.095,6.225,6.327,6.396,6.504,6.54,6.577,6.614,6.69,6.729,6.729,6.768,6.848,6.929,7.055,7.098,7.186,7.231,7.231,7.322,7.368,7.368,7.368,7.368,7.368,7.322,7.322,7.368,7.368,7.368,7.368,7.368,7.511,7.511,7.559,7.709,7.659,7.709,7.761,7.761,7.813,7.919,7.919,7.919,7.919,7.919,7.919,7.919,7.919,7.919,7.866,7.866,7.919,7.919,7.973,7.973,7.973,8.028,8.028,8.028,8.084,8.141,8.198,8.256,8.375,8.497,8.623,8.819,9.024,9.244,9.464,0.0,0.0,0.0,0.0,0.0,11.641,12.001,12.001,12.001,11.879,11.526,11.302,11.194,10.982,10.88,10.779,10.68,10.394,10.212,10.123,9.865,9.542,9.313,9.239,9.024,8.955,8.955,8.955,8.955,8.955,8.819,8.753,8.623,8.497,8.375,8.2665,8.061,7.852874999999999,7.659,7.415,7.322,7.186,7.055,6.929,6.848,6.808,6.768,6.69,6.69,6.69,6.69,6.69,6.69,6.69,6.729,6.614,6.54,6.327,5.939,5.679,5.543,5.018,4.912,4.851,4.83,4.81,4.81,4.81,4.81,4.81,4.791,4.791,4.791,4.791,4.791,4.791,4.791,4.81,4.81,4.81,4.81,4.81,4.791,4.791,4.771,4.752,4.732,4.713,4.694,4.657,4.791,4.851,0.0,0.0,0.0,0.0,0.0,0.0,0.0,0.0,0.0,0.0,0.0,0.0,0.0,0.0,0.0,0.0,0.0,0.0,0.0,0.0,0.0,0.0,0.0,0.0,0.0,0.0,0.0,0.0,0.0,0.0,0.0,0.0,0.0,0.0,0.0,7.511,7.919,8.084,8.256,8.414,8.497,8.819,9.464,9.865,10.123,10.302,10.394,10.488,10.583,10.68,10.68,10.88,10.982,11.087,11.302,11.302,11.526,11.526,11.302,11.194,11.194,11.087,10.88,0.0,0.0,0.0,0.0,0.0,0.0,0.0,0.0,0.0,0.0,0.0,0.0,0.0,0.0,0.0,0.0,0.0,0.0,0.0,0.0,0.0,0.0,0.0,0.0,0.0,0.0,0.0,0.0,0.0,0.0,0.0,0.0,0.0,0.0,0.0,0.0,0.0,4.361000000000001,4.36,4.36,0.0,0.0,0.0,0.0,0.0,0.0,0.0,0.0,0.0,0.0,0.0,0.0,0.0,0.0,0.0,3.933,3.906,3.893,3.88,3.868,3.868
6.225,6.225,6.225,6.225,6.225,6.225,6.159,6.159,6.127,6.095,6.095,6.032,6.032,6.032,6.001,6.001,5.939,5.939,6.001,6.001,6.032,6.095,6.159,6.225,6.327,6.396,6.432,6.504,6.54,6.54,6.577,6.577,6.577,6.577,6.577,6.577,6.577,6.54,6.54,6.54,6.54,6.54,6.54,6.54,6.577,6.577,6.577,6.577,6.577,6.614,6.614,6.614,6.614,6.652,6.652,6.69,6.69,6.69,6.729,6.729,6.729,6.768,6.768,6.808,6.808,6.808,6.848,6.848,6.848,6.848,6.808,6.808,6.808,6.808,6.808,6.808,6.808,6.808,6.768,6.729,6.729,6.69,6.652,6.577,0.0,0.0,0.0,0.0,4.565,4.46,4.376,4.328,4.312,4.264,4.249,4.249,4.249,4.264,4.264,4.264,4.264,4.264,4.296,4.312,4.296,4.296,4.296,4.28,4.28,4.264,4.264,4.249,4.218,4.188,4.158,4.114,4.07,4.028,3.987,3.973,3.946,3.946,3.92,3.893,3.893,3.88,3.868,3.855,3.829,3.817,3.804,3.767,3.731,3.672,3.627,3.582,3.549,3.538,3.538,3.538,3.549,3.56,3.582,3.627,3.649,3.696,3.707,3.731,3.743,3.755,3.767,3.78,3.792,3.804,3.817,3.829,3.829,3.855,3.868,3.88,3.906,3.933,3.973,3.987,4.014,4.028,4.085,4.158,4.203,4.249,4.296,0.0,0.0,0.0,0.0,0.0,0.0,5.517,5.651,5.7995,5.85,6.159,6.396,6.432,6.467,6.467,6.432,6.432,6.396,6.396,6.361,6.361,6.361,6.361,6.396,6.396,6.396,6.432,6.432,6.467,6.504,6.504,6.54,6.54,6.54,6.54,6.54,6.54,6.504,6.504,6.467,6.432,6.396,6.327,6.225,6.159,6.095,6.001,5.939,5.939,5.909,5.909,5.909,5.909,5.909,5.909,5.909,5.909,5.909,5.909,5.909,5.939,5.939,5.939,5.909,5.939,5.939,5.939,5.909,5.939,5.939,5.909,5.85,5.85,5.821,5.821,5.821,5.821,5.792,5.763,5.763,5.792,5.792,5.821,5.85,5.939,6.032,6.095,6.159,6.259,6.361,6.432,6.504,6.54,6.577,6.614,6.614,6.69,6.729,6.768,6.848,6.888,6.929,6.971,7.098,7.098,7.186,7.186,7.231,7.231,7.231,7.231,7.231,7.322,7.322,7.368,7.322,7.368,7.415,7.511,7.559,7.659,7.659,7.659,7.659,7.709,7.813,7.866,7.866,7.866,7.919,7.919,7.919,7.919,7.919,7.866,7.866,7.866,7.866,7.866,7.919,7.973,7.973,7.973,7.973,7.973,8.028,8.028,8.084,8.084,8.084,8.084,8.198,8.198,8.198,8.198,8.315,8.955,0.0,0.0,0.0,0.0,10.583,10.583,10.68,10.779,10.779,10.68,10.68,10.68,10.583,10.583,10.302,10.212,9.865,9.464,8.955,8.623,8.375,8.256,8.198,8.198,8.198,8.198,8.198,8.198,8.198,8.141,8.198,8.141,8.084,8.084,7.973,7.866,7.709,7.559,7.368,7.322,7.186,7.098,6.971,6.888,6.848,6.808,6.768,6.768,6.768,6.69,6.69,6.69,6.729,6.729,6.577,6.432,6.127,5.735,5.597,5.151,4.975,4.891,4.851,4.83,4.83,4.81,4.81,4.81,4.81,4.791,4.791,4.81,4.81,4.791,4.791,4.81,4.791,4.791,4.81,4.81,4.791,4.791,4.791,4.771,4.752,4.732,4.732,4.694,4.694,4.771,4.81,4.851,0.0,0.0,0.0,0.0,0.0,0.0,0.0,0.0,0.0,0.0,0.0,0.0,0.0,0.0,0.0,0.0,0.0,0.0,0.0,0.0,0.0,0.0,0.0,0.0,0.0,0.0,0.0,0.0,0.0,0.0,0.0,0.0,0.0,0.0,0.0,7.098,0.0,0.0,8.084,8.256,8.49225,8.753,0.0,9.6445,0.0,0.0,10.583,10.583,10.68,10.68,10.779,10.982,11.087,11.302,11.526,11.526,11.526,11.641,11.526,11.302,11.364,0.0,0.0,0.0,0.0,0.0,0.0,0.0,0.0,0.0,0.0,0.0,0.0,0.0,0.0,0.0,0.0,0.0,0.0,0.0,0.0,0.0,0.0,0.0,0.0,0.0,0.0,0.0,0.0,0.0,0.0,4.28,4.249,4.249,4.249,4.249,4.28,4.312,4.328,4.312,4.312,4.328,4.328,4.328,4.312,4.28,4.233,4.218,4.203,4.173,4.158,4.158,4.114,4.07,4.028,3.987,3.973,3.933,3.933,3.906,3.893,3.893,3.88
6.159,6.159,6.159,6.159,6.159,6.159,6.159,6.159,6.127,6.095,6.095,6.032,6.032,6.001,6.001,5.939,5.939,5.939,5.939,5.939,6.001,6.032,6.095,6.159,6.225,6.327,6.396,6.467,6.504,6.54,6.54,6.577,6.577,6.577,6.577,6.577,6.577,6.577,6.577,6.54,6.54,6.54,6.54,6.54,6.577,6.577,6.577,6.577,6.577,6.614,6.614,6.614,6.614,6.652,6.652,6.69,6.69,6.729,6.729,6.729,6.729,6.768,6.808,6.848,6.848,6.848,6.848,6.848,6.848,6.848,6.848,6.848,6.848,6.808,6.848,6.848,6.808,6.768,6.729,6.69,6.614,6.54,6.432,6.327,0.0,0.0,4.583,4.376,4.28,4.249,4.249,4.203,4.188,4.188,4.218,4.249,4.264,4.28,4.28,4.312,4.328,4.328,4.328,4.344,4.328,4.328,4.328,4.328,4.328,4.312,4.296,4.28,4.249,4.233,4.188,4.158,4.085,4.056,4.014,3.987,3.973,3.946,3.933,3.92,3.906,3.893,3.88,3.868,3.855,3.829,3.817,3.792,3.755,3.707,3.661,3.593,3.56,3.549,3.538,3.549,3.549,3.56,3.593,3.627,3.661,3.696,3.707,3.731,3.743,3.743,3.755,3.78,3.792,3.804,3.804,3.817,3.829,3.855,3.855,3.868,3.893,3.92,3.933,3.946,3.946,3.987,4.028,4.07,4.128,4.173,4.233,4.264,0.0,0.0,0.0,0.0,0.0,0.0,5.34,5.57,5.707,5.864,5.939,6.095,6.225,6.327,6.259,6.259,6.225,6.225,6.159,6.159,6.225,6.225,6.225,6.259,6.259,6.259,6.259,6.327,6.361,6.396,6.396,6.396,6.396,6.396,6.432,6.432,6.396,6.396,6.361,6.327,6.259,6.225,6.159,6.127,6.095,6.001,6.001,5.939,5.939,5.909,5.909,5.909,5.909,5.909,5.909,5.939,5.939,5.939,5.939,6.001,6.001,6.001,5.939,6.001,5.939,5.939,5.939,5.939,5.939,5.939,5.909,5.909,5.85,5.85,5.821,5.821,5.792,5.763,5.763,5.792,5.792,5.821,5.821,5.85,5.939,6.032,6.032,6.127,6.225,6.259,6.361,6.432,6.504,6.54,6.54,6.577,6.614,6.69,6.729,6.729,6.808,6.848,6.888,6.929,6.971,6.971,7.055,7.055,7.098,7.098,7.098,7.186,7.186,0.0,0.0,0.0,0.0,0.0,0.0,7.511,7.559,7.559,7.659,7.709,7.761,7.866,7.866,7.919,7.866,7.919,7.919,7.919,7.919,7.866,7.813,7.866,7.866,7.866,7.866,7.919,7.919,7.919,7.973,7.973,7.973,7.973,7.973,7.919,7.919,7.919,7.866,7.866,7.919,7.866,7.919,8.141,0.0,0.0,0.0,0.0,0.0,0.0,10.036,10.212,10.212,10.212,10.123,10.036,9.95,9.783,9.464,9.166,8.623,8.436,8.198,8.084,7.973,7.866,7.761,7.761,7.659,7.659,7.709,7.659,7.813,7.813,7.761,7.813,7.761,7.761,7.709,7.709,7.559,7.415,7.322,7.322,7.186,7.098,7.055,6.929,6.888,6.848,6.808,6.808,6.808,6.808,6.768,6.768,6.729,6.729,6.54,6.225,5.85,5.624,5.353,5.04,4.933,4.891,4.851,4.83,4.83,4.81,4.81,4.81,4.81,4.791,4.791,4.791,4.791,4.791,4.791,4.791,4.791,4.791,4.791,4.791,4.791,4.791,4.791,4.791,4.791,4.752,4.732,4.732,4.713,4.81,4.83,4.871,0.0,0.0,0.0,0.0,0.0,0.0,0.0,0.0,0.0,0.0,0.0,0.0,0.0,0.0,0.0,0.0,0.0,0.0,0.0,0.0,0.0,0.0,0.0,0.0,0.0,0.0,0.0,0.0,0.0,0.0,0.0,0.0,0.0,0.0,0.0,6.801,0.0,0.0,0.0,7.973,8.141,8.497,8.8315,9.166,0.0,0.0,0.0,0.0,10.68,10.68,10.88,10.982,11.087,11.302,11.526,11.641,11.641,11.879,11.879,11.641,11.641,0.0,0.0,0.0,0.0,0.0,0.0,0.0,0.0,0.0,0.0,0.0,0.0,0.0,0.0,0.0,0.0,0.0,0.0,0.0,0.0,0.0,0.0,0.0,0.0,0.0,0.0,0.0,0.0,4.264,4.264,4.249,4.233,4.233,4.218,4.249,4.249,4.28,4.28,4.28,4.28,4.296,4.28,4.296,4.28,4.264,4.233,4.218,4.188,4.173,4.158,4.128,4.114,4.07,4.056,4.014,3.987,3.973,3.933,3.92,3.92,3.906,3.893
6.127,6.159,6.159,6.159,6.159,6.159,6.159,6.159,6.127,6.095,6.095,6.032,6.032,6.032,6.001,6.001,5.939,5.939,5.939,5.939,6.001,6.032,6.095,6.159,6.225,6.259,6.361,6.432,6.467,6.54,6.54,6.54,6.577,6.577,6.577,6.577,6.577,6.577,6.577,6.577,6.577,6.577,6.54,6.577,6.577,6.577,6.577,6.577,6.577,6.614,6.614,6.614,6.652,6.652,6.69,6.69,6.69,6.729,6.729,6.729,6.768,6.808,6.808,6.848,6.848,6.888,6.888,6.888,6.888,6.888,6.888,6.888,6.848,6.848,6.848,6.848,6.808,6.768,6.69,6.614,6.54,6.127,5.821,5.543,4.871,4.713,4.41,4.312,4.249,4.173,4.128,4.128,4.128,4.128,4.188,4.233,4.249,4.296,4.312,4.328,4.344,4.36,4.36,4.376,4.376,4.376,4.376,4.376,4.36,4.344,4.328,4.312,4.28,4.249,4.218,4.173,4.114,4.07,4.028,3.987,3.987,3.973,3.946,3.933,3.92,3.906,3.893,3.868,3.855,3.842,3.817,3.804,3.767,3.731,3.672,3.627,3.582,3.56,3.549,3.549,3.56,3.582,3.615,3.649,3.661,3.696,3.707,3.731,3.743,3.755,3.755,3.767,3.792,3.804,3.804,3.817,3.829,3.842,3.855,3.868,3.88,3.906,3.92,3.92,3.933,3.946,3.987,4.014,4.07,4.114,4.158,4.203,4.264,4.312,4.41,0.0,0.0,0.0,0.0,0.0,5.543,5.651,5.792,5.92725,6.001,6.032,6.032,6.032,6.032,6.032,6.032,6.032,6.095,6.095,6.095,6.127,6.127,6.127,6.127,6.159,6.225,6.225,6.225,6.225,6.225,6.259,6.259,6.259,6.259,6.259,6.225,6.225,6.159,6.159,6.127,6.095,6.032,6.001,5.939,5.939,5.939,5.939,5.939,5.939,5.939,5.939,5.939,5.939,6.001,6.001,6.001,6.001,6.032,6.032,6.032,6.001,6.001,5.939,6.001,6.001,6.032,6.001,5.939,5.939,5.909,5.85,5.85,5.821,5.792,5.763,5.763,5.792,5.792,5.792,5.821,5.821,5.909,5.909,6.001,6.032,6.127,6.159,6.225,6.327,6.396,6.467,6.504,6.54,6.577,6.614,6.69,6.729,6.729,6.768,6.808,6.848,6.888,6.929,6.929,6.929,0.0,0.0,0.0,0.0,0.0,0.0,0.0,0.0,0.0,0.0,0.0,0.0,7.511,7.559,7.659,7.709,7.813,7.866,7.866,7.866,7.919,7.919,7.919,7.919,7.919,7.866,7.866,7.866,7.866,7.866,7.919,7.919,7.919,7.919,7.973,7.973,7.973,7.973,7.919,7.919,7.919,7.919,7.919,7.919,7.919,7.973,7.973,8.141,8.256,8.436,8.623,0.0,0.0,0.0,0.0,0.0,9.239,9.239,9.166,9.024,8.955,8.753,8.497,8.256,8.141,8.028,7.866,7.559,7.231,7.186,7.098,7.055,7.098,7.098,7.098,7.098,7.231,7.322,7.368,7.368,7.368,7.415,7.511,7.559,7.511,7.368,7.322,7.322,7.231,7.186,7.098,6.971,6.929,6.848,6.848,6.848,6.848,6.808,6.808,6.768,6.729,6.69,6.54,6.095,0.0,5.544499999999999,5.151,4.996,4.912,4.871,4.851,4.83,4.83,4.81,4.81,4.81,4.81,4.791,4.791,4.771,4.771,4.771,4.752,4.752,4.752,4.752,4.771,4.771,4.771,4.771,4.771,4.771,4.771,4.752,4.732,4.732,4.732,4.771,4.81,4.83,0.0,0.0,0.0,0.0,0.0,0.0,0.0,0.0,0.0,0.0,4.583,0.0,0.0,0.0,0.0,0.0,0.0,4.53,4.565,4.583,4.732,4.752,0.0,0.0,0.0,5.268,5.491,5.57,5.651,5.735,5.868,6.001,0.0,0.0,0.0,6.504,0.0,0.0,0.0,7.2565,0.0,0.0,0.0,0.0,0.0,0.0,0.0,0.0,0.0,0.0,0.0,10.88,10.982,11.194,11.526,11.641,11.879,11.879,11.879,0.0,0.0,0.0,0.0,0.0,0.0,0.0,0.0,0.0,0.0,4.638,0.0,0.0,0.0,0.0,0.0,0.0,0.0,0.0,0.0,0.0,0.0,0.0,0.0,4.36,4.328,4.312,4.296,4.28,4.264,4.264,4.249,4.233,4.233,4.218,4.218,4.218,4.249,4.249,4.249,4.249,4.264,4.264,4.264,4.264,4.264,4.249,4.233,4.233,4.218,4.203,4.173,4.158,4.128,4.085,4.07,4.028,4.014,3.973,3.946,3.933,3.933,3.92,3.92
6.095,6.127,6.127,6.159,6.159,6.159,6.159,6.159,6.127,6.095,6.095,6.095,6.032,6.032,6.001,6.001,5.939,5.939,5.939,5.939,6.001,6.032,6.095,6.127,6.225,6.259,6.361,6.396,6.467,6.504,6.54,6.54,6.54,6.577,6.577,6.577,6.577,6.577,6.577,6.577,6.577,6.577,6.577,6.577,6.577,6.577,6.577,6.577,6.614,6.614,6.614,6.614,6.652,6.652,6.69,6.69,6.729,6.729,6.729,6.768,6.768,6.808,6.848,6.848,6.888,6.888,6.888,6.888,6.888,6.929,6.929,6.888,6.888,6.888,6.888,6.848,6.808,6.729,6.652,6.54,6.127,5.792,5.624,5.2275,0.0,0.0,4.376,4.296,4.249,4.158,4.085,4.085,4.085,4.07,4.128,4.203,4.264,4.296,4.316,4.328,4.36,4.376,4.40575,4.41,4.426,4.426,4.41,4.41,4.393,4.376,4.344,4.328,4.296,4.264,4.233,4.203,4.128,4.085,4.028,4.014,3.987,3.973,3.973,3.933,3.933,3.92,3.906,3.88,3.868,3.842,3.829,3.804,3.78,3.743,3.696,3.649,3.615,3.582,3.56,3.56,3.582,3.593,3.615,3.649,3.672,3.707,3.731,3.743,3.743,3.755,3.767,3.767,3.792,3.804,3.804,3.817,3.829,3.842,3.855,3.868,3.88,3.893,3.906,3.906,3.933,3.933,3.973,3.987,4.028,4.056,4.114,4.158,4.203,4.264,4.296,4.376,0.0,0.0,0.0,0.0,5.316,5.543,5.651,5.821,5.911,6.001,6.001,5.939,5.939,5.939,5.939,6.001,6.001,6.001,6.001,6.001,6.001,6.001,6.032,6.095,6.095,6.095,6.095,6.032,6.095,6.095,6.095,6.095,6.095,6.095,6.095,6.095,6.032,6.032,6.032,6.001,5.939,5.939,5.909,5.909,5.909,5.909,5.909,5.939,5.939,5.939,5.939,6.001,6.001,6.001,6.001,6.032,6.032,6.032,6.001,6.001,6.001,6.001,6.001,6.032,6.032,6.032,6.001,6.001,5.939,5.909,5.85,5.821,5.821,5.763,5.763,5.763,5.792,5.792,5.821,5.821,5.85,5.85,5.909,6.001,6.032,6.095,6.159,6.259,6.361,6.396,6.467,6.54,6.577,6.614,6.652,6.69,6.729,6.768,6.768,6.808,6.848,6.848,6.888,0.0,0.0,0.0,0.0,0.0,0.0,0.0,0.0,0.0,0.0,0.0,0.0,0.0,0.0,7.559,7.659,7.709,7.813,7.813,7.866,7.866,7.866,7.919,7.919,7.919,7.919,7.866,7.866,7.919,7.866,7.866,7.866,7.919,7.919,7.919,7.919,7.919,7.919,7.919,7.919,7.919,7.919,7.919,7.919,7.919,7.973,7.973,7.973,8.028,8.141,8.198,8.198,8.198,8.256,0.0,0.0,0.0,8.375,8.375,8.315,8.315,8.256,8.198,8.084,7.973,7.761,7.186,6.971,6.848,6.768,6.729,6.69,6.69,6.729,6.69,6.729,6.729,6.848,6.848,6.929,6.971,7.055,7.186,7.368,7.559,7.559,7.415,7.415,7.368,7.322,7.322,7.186,7.055,6.971,6.929,6.888,6.888,6.848,6.808,6.768,6.729,6.69,6.432,6.127,0.0,0.0,5.465,5.04,4.954,4.891,4.871,4.851,4.83,4.83,4.81,4.81,4.81,4.81,4.791,4.771,4.771,4.752,4.732,4.732,4.732,4.732,4.732,4.732,4.732,4.732,4.752,4.752,4.752,4.752,4.752,4.752,4.752,4.752,4.752,4.752,4.771,4.771,4.81,4.81,4.83,4.83,4.83,4.81,0.0,0.0,0.0,4.583,4.565,4.53,4.512,4.53,4.512,4.512,4.53,4.565,4.583,4.601,4.657,4.732,0.0,0.0,5.143,5.316,5.517,5.597,5.679,5.821,5.85,5.8945,5.939,6.032,6.159,6.327,6.396,6.504,6.54,0.0,0.0,0.0,0.0,0.0,0.0,0.0,0.0,0.0,0.0,0.0,0.0,0.0,0.0,0.0,11.302,11.641,0.0,0.0,0.0,0.0,0.0,0.0,0.0,0.0,0.0,0.0,0.0,0.0,4.53,4.565,4.583,4.583,4.583,4.53,4.512,4.46,4.46,4.426,4.393,4.376,4.36,4.328,4.312,4.312,4.28,4.28,4.28,4.264,4.249,4.249,4.233,4.233,4.218,4.218,4.203,4.218,4.218,4.233,4.233,4.249,4.249,4.249,4.249,4.249,4.249,4.249,4.233,4.233,4.218,4.188,4.173,4.158,4.085,4.07,4.028,4.028,3.987,3.987,3.946,3.973,3.946,3.946
