5.85,5.821,5.763,5.735,5.707,5.707,5.679,5.679,5.679,5.651,5.624,5.624,5.597,5.57,5.57,5.57,5.597,5.597,5.597,5.651,5.651,5.679,0,5.735,5.792,5.821,5.909,6.001,6.032,6.159,6.225,6.259,6.327,6.327,6.361,6.361,6.361,6.361,6.361,6.361,6.327,6.327,6.327,6.327,6.159,6.095,6.095,6.032,6.001,6.001,5.939,6.001,6.001,6.032,6.127,6.127,6.127,6.127,6.127,6.095,6.095,6.032,6.095,6.032,6.095,6.095,6.095,6.095,6.095,6.095,6.095,6.095,6.032,6.032,5.939,5.939,5.909,5.85,5.85,5.85,5.85,5.939,6.032,6.127,6.327,6.396,6.504,6.577,6.614,6.652,6.69,6.69,6.729,6.729,6.729,0,0,0,0,3.804,3.804,3.804,3.792,3.792,3.78,3.755,3.731,3.707,3.707,3.707,3.707,3.707,3.707,3.731,3.743,3.743,3.755,3.755,3.767,3.767,3.78,3.78,3.792,3.792,3.792,3.792,0,0,0,0,0,0,0,0,0,0,0,0,0,0,0,0,0,0,0,0,0,0,0,0,0,3.485,3.485,3.485,3.485,3.496,3.496,3.496,3.496,3.496,3.506,3.517,3.549,3.593,0,3.672,3.755,3.842,0,0,0,0,4.81,5.018,5.268,5.465,5.57,5.57,5.57,5.57,5.57,5.57,5.543,5.543,5.543,5.57,5.57,5.57,5.597,5.597,5.624,5.651,5.679,5.707,5.735,5.735,5.763,5.735,5.735,5.735,5.707,5.679,5.679,5.679,5.679,5.707,5.707,5.735,5.792,5.85,5.909,6.001,6.001,6.032,6.095,6.127,6.159,6.225,6.225,6.225,6.259,6.259,6.259,6.259,6.259,6.259,6.259,6.259,6.259,6.259,6.259,6.259,6.259,6.259,6.225,6.159,6.159,6.127,6.159,6.159,6.159,6.159,6.225,6.259,6.259,6.259,6.259,6.225,6.159,6.127,5.939,5.909,5.821,5.763,5.707,5.679,5.651,5.624,5.597,5.57,5.57,5.543,5.543,5.543,5.57,5.57,5.57,5.57,5.57,5.57,5.57,5.57,5.57,5.57,5.543,5.543,5.543,5.543,5.517,5.517,5.517,5.517,5.517,5.517,5.517,5.517,5.517,5.517,5.517,5.517,5.517,5.517,5.517,5.517,5.517,5.491,5.517,5.517,5.543,5.57,0,5.651,5.792,6.127,6.432,6.69,7.322,0,7.973,8.084,8.256,8.315,8.436,8.436,8.56,8.497,8.436,8.375,0,0,0,0,0,0,0,0,0,0,0,0,0,0,0,0,0,0,0,0,0,8.315,8.436,8.56,8.753,9.024,9.239,9.464,0,9.783,10.123,10.302,10.488,10.583,10.779,10.982,11.194,11.526,11.879,12.254,12.384,12.518,12.793,12.793,12.793,12.793,12.518,12.518,12.384,12.254,12.254,12.001,11.641,11.526,11.194,11.087,10.88,10.68,10.68,10.583,10.583,10.394,10.394,10.394,10.394,10.394,10.302,10.302,10.302,10.212,10.212,10.212,10.212,10.212,10.302,10.302,10.394,10.394,10.488,10.583,10.583,10.583,10.583,10.583,10.583,10.68,10.68,10.779,10.779,10.88,10.88,10.88,10.982,10.982,11.087,11.087,11.087,11.087,11.087,11.087,11.194,11.194,11.087,11.087,11.087,11.087,11.194,11.194,11.302,11.302,11.526,11.641,11.641,11.641,11.526,11.526,11.302,11.194,11.087,10.982,10.88,10.779,10.68,10.68,10.68,10.68,10.68,0,0,0,4.41,4.426,4.426,4.41,4.426,4.41,4.41,4.426,0,4.46,4.477,4.512,0,0,0,0,0,0,0,0,0,0,0,0,0,0,0,0,0,8.955,9.024,9.239,9.313,9.313,9.313,9.464,9.542,9.464,9.464,9.313,9.239,9.166,9.024,8.819,8.819,8.955,9.024,9.166,9.166,9.239,0,9.464,9.542,9.701,9.701,9.701,9.783,9.783,9.865,9.865,9.865,9.865,9.783,9.701,9.464,9.239,9.024,9.024,8.955,8.819,8.819,8.819,8.955,8.955,9.024,9.166,9.239,9.313,9.464,9.542,9.701,9.701,9.783,9.865,9.95,9.95,10.036,10.036,9.865,9.865,9.701,9.542,9.313,9.024,8.753,8.436,8.198,8.084,8.028,7.973,7.866,7.866,7.919,7.919,7.919,7.973,8.028,8.084,8.198,8.315,8.375,8.375,8.375,8.375,8.375,8.315,8.256,8.256,8.198,8.198,8.198,8.198,8.198,8.198,8.141,8.141,8.141,8.084,8.084,8.084,8.084,8.084,8.084,8.084,8.084,8.141,8.198,8.198,8.256,0,8.436,8.56,8.819,0,9.239,9.464,9.464,10.982,14.197,0,14.925,0
5.85,5.821,5.792,5.763,5.707,5.707,5.679,5.679,5.651,5.651,5.624,5.624,5.597,5.57,5.57,5.57,5.57,5.597,5.597,5.597,5.624,5.651,5.679,5.707,0,5.763,5.792,5.85,5.939,6.032,6.127,6.159,6.159,6.225,6.225,6.259,6.225,6.225,6.159,6.159,6.159,6.159,6.127,0,6.095,6.032,6.001,6.001,6.001,6.032,6.032,6.032,6.095,6.159,6.259,6.327,6.361,6.327,6.327,6.327,6.259,6.259,6.259,6.225,6.259,6.225,6.225,6.159,6.159,6.225,6.159,6.159,6.127,6.095,6.032,6.001,5.939,5.909,5.85,5.85,5.85,5.939,6.001,6.095,6.225,6.327,6.432,6.504,6.577,6.577,6.614,6.614,6.69,6.69,6.69,0,0,0,3.804,3.804,3.804,3.804,3.792,3.792,3.78,3.755,3.743,3.731,3.707,3.707,3.707,3.707,3.731,3.731,3.731,3.743,3.755,3.755,3.767,3.78,3.78,3.78,3.792,3.792,3.792,3.792,3.804,0,0,0,0,0,0,0,0,0,0,0,0,0,0,0,0,0,0,0,0,0,0,0,3.506,3.496,3.496,3.506,3.506,3.506,3.506,3.506,3.506,3.506,3.517,3.517,3.538,3.582,0,3.627,3.696,0,3.855,0,0,0,4.512,4.851,5.018,5.316,5.57,5.57,5.57,5.57,5.57,5.57,5.543,5.57,5.57,5.57,5.57,5.597,5.597,5.624,5.651,5.679,5.707,5.735,5.763,5.792,5.792,5.792,5.792,5.792,5.763,5.735,5.735,5.735,5.707,5.707,5.735,5.763,5.792,5.909,5.939,6.001,6.001,6.095,6.127,6.159,6.159,6.225,6.259,6.259,6.327,6.327,6.327,6.327,6.327,6.361,6.361,6.361,6.361,6.361,6.361,6.361,6.361,6.361,6.327,6.259,6.259,6.225,6.225,6.259,6.259,6.259,6.327,6.327,6.327,6.327,6.327,6.259,6.225,6.159,6.095,5.939,5.85,5.792,5.735,5.707,5.679,5.651,5.624,5.597,5.597,5.597,5.597,5.597,5.597,5.597,5.597,5.597,5.597,5.597,5.597,5.597,5.597,5.57,5.57,5.543,5.543,5.543,5.543,5.517,5.517,5.517,5.517,5.517,5.517,5.517,5.517,5.543,5.543,5.517,5.517,5.517,5.517,5.491,5.491,5.465,5.465,5.491,5.491,5.543,0,5.624,5.763,0,6.467,6.768,7.559,0,8.084,8.198,8.375,8.436,8.436,8.497,8.56,8.56,8.497,0,0,0,0,0,0,0,0,0,0,0,0,0,0,0,0,0,0,0,0,0,8.375,8.497,8.623,8.819,9.024,9.239,9.464,0,9.701,9.865,10.212,10.302,10.488,10.68,10.779,10.982,11.194,11.526,11.879,12.254,12.384,12.518,12.793,12.793,12.793,12.518,12.384,12.384,12.254,12.001,12.001,11.641,11.526,11.302,11.087,10.88,10.779,10.68,10.583,10.488,10.394,10.394,10.394,10.394,10.302,10.394,10.394,10.394,10.394,10.302,10.302,10.302,10.302,10.394,10.394,10.394,10.488,10.583,10.583,10.583,10.583,10.68,10.68,10.68,10.68,10.68,10.779,10.88,10.982,11.087,11.087,11.194,11.302,11.302,11.194,11.302,11.302,11.302,11.302,11.302,11.526,11.526,11.526,11.526,11.526,11.526,11.302,11.526,11.526,11.641,11.641,11.879,11.879,11.879,11.641,11.641,11.526,11.302,11.194,11.087,10.88,10.779,10.779,10.68,10.68,10.68,10.68,10.68,0,0,4.41,4.426,4.426,4.41,4.41,4.426,0,4.426,4.426,4.477,4.477,4.512,4.53,4.565,0,0,0,0,0,0,0,0,0,0,0,0,0,0,0,8.955,9.024,9.024,9.024,9.166,9.166,9.239,9.313,9.464,9.313,9.464,9.313,9.239,9.166,9.166,9.024,9.024,9.024,9.166,9.166,9.239,9.313,9.464,9.464,9.464,9.464,9.464,9.542,9.542,9.701,9.701,9.701,9.701,9.542,9.464,9.313,9.166,9.024,8.955,8.955,8.955,8.819,8.819,9.024,9.024,9.166,9.313,9.313,9.464,9.464,9.701,9.701,9.783,9.783,9.95,9.95,10.036,10.036,10.123,10.036,9.95,9.865,9.701,9.464,8.955,8.56,8.198,8.084,7.973,7.866,7.761,7.659,7.709,7.709,7.761,7.761,7.866,7.973,8.028,8.141,8.315,8.375,8.436,0,0,0,0,0,0,0,0,0,0,8.256,8.256,8.256,8.198,8.198,8.198,8.141,0,0,8.141,8.084,8.084,8.141,0,0,0,0,0,0,0,8.753,0,0,0,0,0,0,0,0,0
5.85,5.821,5.792,5.735,5.735,5.735,5.679,5.679,5.651,5.651,5.651,5.624,5.597,5.57,5.57,5.57,5.57,5.57,5.57,5.597,5.597,5.624,5.651,5.679,5.679,5.735,0,5.792,5.909,6.001,6.032,6.127,6.127,6.127,6.159,6.159,6.127,6.095,6.032,6.001,6.001,6.001,6.001,6.001,5.909,5.909,5.85,5.85,5.909,5.939,6.001,6.032,6.127,6.225,6.361,6.396,6.432,6.432,6.432,6.432,6.396,6.396,6.361,6.361,6.361,6.259,6.259,6.259,6.225,6.225,6.159,6.159,6.127,6.095,6.095,6.001,5.939,5.85,5.85,5.821,5.821,5.85,5.939,6.001,6.127,6.159,6.327,6.396,6.467,6.54,6.577,6.577,6.614,6.614,6.614,0,0,0,0,3.804,3.804,3.804,3.792,3.792,3.78,3.755,3.755,3.731,3.731,3.707,3.707,3.707,3.731,3.731,3.743,3.755,3.755,3.767,3.767,3.78,3.78,3.792,3.792,3.792,3.804,3.804,3.804,0,0,0,0,0,0,0,0,0,0,0,0,0,0,0,0,0,0,0,0,0,0,0,3.538,3.528,3.528,3.528,3.528,3.517,3.517,3.517,3.517,3.528,3.528,3.528,3.538,3.56,3.582,3.627,0,3.731,3.804,3.868,4.07,4.312,0,0,4.891,5.174,5.57,5.57,5.57,5.57,5.57,5.57,5.57,5.57,5.57,5.57,5.597,5.624,5.624,5.651,5.679,5.707,5.735,5.792,5.821,5.821,5.85,5.85,5.909,5.85,5.821,5.792,5.792,5.763,5.763,5.763,5.763,5.763,5.821,5.909,5.939,6.001,6.032,6.095,6.127,6.159,6.225,6.225,6.259,6.327,6.327,6.327,6.361,6.361,6.396,6.396,6.396,6.396,6.396,6.396,6.432,6.432,6.432,6.361,6.361,6.361,6.327,6.327,6.327,6.327,6.327,6.327,6.361,6.361,6.361,6.361,6.361,6.327,6.225,6.159,6.095,5.939,5.909,5.821,5.763,5.735,5.679,5.679,5.651,5.651,5.624,5.624,5.624,5.624,5.624,5.624,5.651,5.651,5.651,5.624,5.624,5.597,5.597,5.597,5.57,5.57,5.543,5.543,5.543,5.543,5.517,5.517,5.517,5.517,5.543,5.543,5.543,5.543,5.543,5.543,5.543,5.517,5.517,5.465,5.44,5.44,5.44,5.44,5.44,5.517,5.597,0,5.763,0,0,6.768,7.659,0,8.084,8.256,8.375,8.375,8.436,0,0,0,0,0,0,0,0,0,0,0,0,0,0,0,0,0,0,0,0,0,0,0,0,0,8.623,8.753,8.955,9.024,9.239,9.313,9.542,0,9.783,9.95,10.212,10.394,10.583,10.68,10.779,10.982,11.194,11.526,11.641,11.879,12.254,12.384,12.518,12.518,12.384,12.384,12.254,12.001,12.001,11.879,11.641,11.302,11.194,11.087,10.982,10.88,10.779,10.68,10.583,10.583,10.488,10.488,10.394,10.394,10.394,10.394,10.488,10.394,10.394,10.394,10.394,10.394,10.394,10.394,10.394,10.488,10.583,10.583,10.68,10.68,10.68,10.68,10.68,10.68,10.779,10.88,10.88,11.087,11.194,11.302,11.526,11.526,11.641,11.641,11.526,11.526,11.526,11.302,11.526,11.526,11.526,11.526,11.641,11.526,11.526,11.526,11.526,11.526,11.641,11.641,11.641,11.879,11.879,11.879,11.879,11.641,11.641,11.526,11.302,11.087,10.982,10.88,10.779,10.68,10.68,10.68,10.583,10.583,10.583,0,0,4.426,4.41,4.41,0,0,0,4.426,4.46,4.477,4.477,4.512,4.512,4.565,4.638,4.752,0,0,0,0,0,0,0,0,0,0,0,0,0,0,8.753,8.819,8.819,8.819,8.955,9.166,9.239,9.239,9.239,9.313,9.313,9.313,9.313,9.239,9.166,9.166,9.166,9.166,9.166,9.166,9.239,9.239,9.239,9.239,9.166,9.239,9.239,9.313,9.464,9.464,9.464,9.464,9.464,9.464,9.313,9.239,9.166,9.024,9.024,9.024,8.955,9.166,9.239,9.239,9.313,9.464,9.542,9.542,9.701,9.701,9.783,9.783,9.865,9.95,10.036,10.123,10.212,10.212,10.123,10.036,9.95,9.783,9.464,9.024,8.56,8.141,8.028,7.866,7.659,7.511,7.415,7.415,7.415,7.511,7.511,7.559,7.866,8.028,0,0,0,0,0,0,0,0,0,0,0,0,0,0,0,8.436,8.375,8.315,0,0,0,0,0,0,0,0,0,0,0,0,0,0,0,0,0,0,0,0,0,0,0,0,0,0
5.821,5.821,5.763,5.763,5.735,5.735,5.707,5.679,5.679,5.679,5.651,5.651,5.624,5.624,5.597,5.597,5.597,5.597,5.597,5.597,5.624,5.651,5.651,5.679,5.679,5.707,0,5.821,5.909,6.001,6.095,6.127,6.127,6.127,6.127,6.095,6.032,5.939,5.85,5.85,5.85,5.85,5.85,5.821,5.792,5.792,5.792,5.821,5.821,5.909,5.939,6.032,6.127,6.225,6.361,6.432,6.467,6.504,6.504,6.504,6.467,6.467,6.504,6.432,6.396,6.396,6.361,6.327,6.327,6.259,6.225,6.159,6.159,6.127,6.095,6.001,5.939,5.85,5.85,5.792,5.792,5.792,5.821,5.909,6.001,6.095,6.159,6.259,6.361,6.467,6.504,6.54,6.54,6.577,6.577,6.577,6.577,0,0,3.804,3.804,3.804,3.804,3.804,3.792,3.78,3.755,3.743,3.743,3.731,3.731,3.731,3.731,3.731,3.743,3.755,3.755,3.767,3.78,3.78,3.792,3.792,3.792,3.804,3.804,3.804,3.804,3.817,0,0,0,0,0,0,0,0,0,0,0,0,0,0,0,0,0,0,0,0,0,0,3.549,3.538,3.538,3.538,3.538,3.538,3.528,3.528,3.538,3.538,3.528,3.538,3.538,3.549,3.56,3.593,0,3.661,0,3.817,3.88,0,0,0,4.81,5.084,5.543,5.597,5.597,5.597,5.597,5.597,5.597,5.597,5.597,5.624,5.624,5.651,5.651,5.679,5.679,5.735,5.763,5.821,5.85,5.85,5.909,5.909,5.939,5.939,5.909,5.85,5.85,5.821,5.792,5.792,5.792,5.792,5.85,5.939,5.939,6.001,6.032,6.095,6.127,6.159,6.225,6.225,6.259,6.327,6.327,6.361,6.361,6.396,6.396,6.396,6.432,6.432,6.432,6.432,6.432,6.432,6.396,6.396,6.396,6.361,6.361,6.327,6.327,6.327,6.361,6.361,6.361,6.396,6.396,6.361,6.361,6.327,6.259,6.225,6.127,6.001,5.85,5.821,5.763,5.735,5.707,5.679,5.679,5.651,5.651,5.651,5.651,5.651,5.651,5.651,5.651,5.651,5.651,5.651,5.624,5.597,5.597,5.597,5.57,5.57,5.543,5.543,5.543,5.543,5.543,5.517,5.543,5.543,5.543,5.543,5.543,5.543,5.543,5.543,5.543,5.517,5.491,5.44,5.415,5.415,5.415,5.389,5.389,5.491,5.597,0,5.735,0,6.54,6.768,0,7.709,8.198,8.256,8.375,8.375,8.375,8.375,8.375,8.375,8.315,8.256,0,0,0,0,0,0,0,0,0,0,0,0,0,0,0,0,0,0,0,0,9.024,9.166,9.239,9.313,0,9.464,9.542,9.783,9.865,10.036,10.212,10.394,10.488,10.583,10.68,10.982,11.194,11.526,11.641,11.879,12.001,12.384,12.384,12.384,12.384,12.254,12.001,11.879,11.641,11.641,11.302,11.194,11.087,10.982,10.982,10.88,10.779,10.68,10.68,10.583,10.583,10.583,10.583,10.583,10.583,10.583,10.583,10.583,10.583,10.583,10.583,10.488,10.488,10.488,10.583,10.583,10.583,10.68,10.68,10.68,10.779,10.779,10.779,10.779,10.779,10.88,10.982,11.194,11.302,11.526,11.641,11.641,11.879,11.879,11.879,11.879,11.641,11.641,11.879,11.641,11.641,11.641,11.879,11.641,11.641,11.641,11.641,11.641,11.641,11.879,11.879,12.001,12.001,12.001,12.001,12.001,11.879,11.641,11.302,11.194,11.087,10.88,10.779,10.68,10.68,10.68,10.583,10.583,10.583,0,0,0,0,0,0,0,0,0,4.46,4.477,4.512,4.512,4.53,4.565,4.601,4.657,4.713,0,0,0,0,0,0,0,0,0,0,0,0,8.56,8.56,8.56,8.623,8.753,8.753,8.955,9.024,9.166,9.239,9.239,9.313,9.313,9.313,9.239,9.239,9.239,9.239,9.166,9.166,9.166,9.024,9.024,9.024,8.955,8.955,8.955,9.024,9.166,9.166,9.239,9.239,9.239,9.239,9.239,9.239,9.166,9.024,9.024,9.166,9.024,9.024,9.166,9.313,9.464,9.542,9.701,9.783,9.783,9.783,9.865,9.865,9.865,9.95,10.123,10.123,10.212,10.212,10.302,10.212,10.212,10.123,9.865,9.542,9.024,8.56,8.084,7.973,7.761,7.511,7.322,7.231,7.231,7.231,7.322,7.322,7.511,0,0,0,0,0,0,0,0,0,0,0,0,0,0,0,0,0,8.623,8.56,8.497,0,0,0,0,0,0,0,0,0,0,0,0,0,0,0,0,0,0,0,0,0,0,0,0,0,0
5.792,5.763,5.735,5.735,5.763,5.735,5.735,5.707,5.707,5.679,5.679,5.651,5.651,5.651,5.624,5.624,5.597,5.597,5.624,5.624,5.651,5.651,5.651,5.679,5.679,5.707,0,5.792,5.939,6.032,6.095,6.095,6.127,6.095,6.032,5.939,5.909,5.821,5.763,5.763,5.763,5.735,5.735,5.735,5.707,5.707,5.707,5.735,5.821,5.821,5.939,6.032,6.127,6.259,6.396,6.467,0,6.54,6.54,6.54,6.54,6.54,6.54,6.504,6.504,6.467,6.432,6.396,6.396,6.361,6.327,6.259,6.259,6.159,6.127,6.032,6.001,5.909,5.85,5.792,5.763,5.763,5.763,5.792,5.85,5.939,6.032,6.127,6.225,6.361,6.432,6.467,6.504,6.54,6.54,6.54,6.54,0,0,3.804,3.804,3.804,3.804,3.804,3.804,3.804,3.78,3.767,3.755,3.743,3.743,3.743,3.755,3.743,3.755,3.767,3.767,3.78,3.792,3.792,3.792,3.792,3.804,3.804,3.804,3.804,3.804,3.817,0,0,0,0,0,0,0,0,0,0,0,0,0,0,0,0,0,0,0,0,0,3.582,3.56,3.549,3.549,3.549,3.56,3.56,3.56,3.549,3.549,3.549,3.538,3.538,3.538,3.549,3.538,3.56,3.593,3.649,0,0,3.817,0,0,0,0,0,0,5.624,5.624,5.651,5.651,5.651,5.651,5.651,5.651,5.679,5.679,5.679,5.679,5.707,5.735,5.763,5.821,5.85,5.939,5.939,5.939,6.001,6.001,6.001,5.939,5.939,5.909,5.909,5.85,5.85,5.821,5.85,5.909,5.939,5.939,6.001,6.032,6.095,6.127,6.127,6.225,6.225,6.259,6.327,6.327,6.361,6.396,6.396,6.396,6.432,6.432,6.396,6.432,6.432,6.432,6.432,6.432,6.432,6.396,6.396,6.361,6.361,6.361,6.396,6.396,6.396,6.396,6.396,6.361,6.396,6.327,6.327,6.259,6.225,6.127,6.001,5.909,5.821,5.792,5.763,5.735,5.707,5.679,5.679,5.679,5.679,5.679,5.679,5.679,5.679,5.679,5.651,5.651,5.651,5.651,5.624,5.597,5.597,5.57,5.57,5.543,5.543,5.543,5.543,5.517,5.517,5.543,5.543,5.543,5.543,5.543,5.543,5.543,5.543,5.517,5.491,5.44,5.415,5.389,5.34,5.34,5.34,5.34,5.44,5.57,0,5.735,0,6.504,6.848,0,7.709,8.256,8.256,8.315,8.315,8.315,8.256,8.315,8.256,8.256,8.256,0,0,0,0,0,0,0,0,0,0,0,0,0,0,0,0,0,0,0,0,9.239,9.313,9.313,9.464,9.542,9.701,9.783,9.865,9.95,10.123,10.212,10.394,10.488,10.583,10.68,10.982,11.194,11.302,11.526,11.879,12.001,12.254,12.254,12.254,12.001,12.001,11.879,11.641,11.641,11.302,11.194,11.087,11.087,10.982,10.982,10.88,10.779,10.68,10.68,10.68,10.68,10.68,10.68,10.68,10.68,10.68,10.68,10.68,10.68,10.68,10.68,10.68,10.68,10.68,10.68,10.68,10.779,10.88,10.88,10.88,10.88,10.982,10.982,10.88,10.982,11.087,11.194,11.302,11.641,11.879,11.879,12.001,12.254,12.254,12.254,12.001,12.001,11.879,11.641,11.641,11.879,11.879,11.641,11.641,11.641,11.641,11.526,11.641,11.641,11.879,12.001,12.001,12.254,12.254,12.254,12.254,12.001,11.879,11.641,11.526,11.194,10.982,10.779,10.68,10.68,10.68,10.583,10.583,0,0,0,0,0,4.426,4.426,4.41,4.426,4.426,4.46,4.477,4.477,4.512,4.53,4.565,4.583,4.583,4.638,0,0,0,0,0,0,0,0,0,0,0,0,8.436,8.436,8.436,8.436,8.56,8.623,8.753,8.955,9.024,9.166,9.239,9.313,9.464,9.313,9.313,9.313,9.313,9.239,9.166,9.024,9.024,8.955,8.955,8.819,8.753,8.753,8.753,8.753,8.819,8.955,8.955,9.024,9.024,9.166,9.166,9.166,9.166,9.024,9.166,9.239,9.239,9.239,9.464,9.542,9.783,9.783,9.865,9.95,9.95,10.036,10.036,10.036,10.036,10.123,10.123,10.212,10.212,10.302,10.302,10.302,10.302,10.212,10.036,9.783,9.239,8.623,8.084,7.919,7.659,7.415,7.231,7.098,7.098,7.098,7.186,7.322,0,0,0,0,0,0,0,0,0,0,0,0,0,0,0,0,0,9.166,9.024,8.819,8.623,8.56,0,0,0,0,0,0,0,0,0,0,0,0,0,0,0,0,0,0,0,0,0,0,0,0,0
5.735,5.735,5.735,5.763,5.763,5.792,5.763,5.763,5.735,5.735,5.707,5.679,5.679,5.679,5.651,5.651,5.651,5.651,5.651,5.651,5.651,5.651,5.679,5.707,5.679,5.707,0,5.792,5.909,5.939,6.032,6.032,6.032,6.032,5.909,5.85,5.792,5.763,5.707,5.679,5.679,5.679,5.679,5.679,5.679,5.679,5.679,5.707,5.792,5.85,5.939,6.032,6.159,6.327,6.432,6.504,0,6.54,6.577,6.577,6.577,6.577,6.577,6.54,6.54,6.504,6.467,6.467,6.432,6.396,6.327,6.327,6.259,6.225,6.159,6.095,6.001,5.939,5.85,5.821,5.792,5.763,5.735,5.763,5.792,5.85,5.939,6.032,6.127,6.225,6.361,6.361,6.432,6.467,6.467,6.467,6.467,0,0,3.817,3.817,3.817,3.817,3.817,3.804,3.804,3.804,3.78,3.767,3.767,3.767,3.755,3.755,3.755,3.767,3.78,3.78,3.792,3.792,3.804,3.804,3.804,3.804,3.804,3.804,3.804,3.804,3.817,3.855,0,0,0,0,0,0,0,0,0,0,0,0,0,0,0,0,0,0,0,0,3.593,3.582,3.582,3.582,3.582,3.582,3.582,3.56,3.56,3.549,3.549,3.549,3.549,3.549,3.538,3.549,3.549,3.582,3.615,3.672,0,3.755,0,0,0,0,0,0,0,5.679,5.679,5.679,5.679,5.707,5.707,5.707,5.735,5.763,5.763,5.763,5.792,5.821,5.85,5.909,5.909,5.939,6.001,6.032,6.032,6.032,6.032,6.001,6.001,5.939,5.939,5.909,5.909,5.85,5.85,5.909,5.939,5.939,6.001,6.032,6.095,6.095,6.127,6.159,6.225,6.259,6.327,6.361,6.361,6.396,6.396,6.432,6.432,6.432,6.432,6.396,6.432,6.432,6.432,6.432,6.396,6.396,6.396,6.396,6.396,6.396,6.396,6.432,6.432,6.432,6.432,6.396,6.396,6.361,6.361,6.259,6.225,6.127,6.001,5.909,5.85,5.821,5.792,5.763,5.735,5.707,5.707,5.707,5.679,5.679,5.679,5.679,5.679,5.679,5.679,5.679,5.651,5.651,5.624,5.597,5.597,5.57,5.57,5.543,5.543,5.543,5.543,5.517,5.517,5.543,5.543,5.543,5.543,5.543,5.543,5.543,5.543,5.517,5.491,5.415,5.389,5.34,5.316,5.268,5.268,5.268,5.389,5.543,0,5.679,0,6.467,6.768,7.559,0,8.198,8.198,8.256,8.256,8.256,8.256,8.256,0,0,8.198,0,0,0,0,0,0,0,0,0,0,0,0,0,0,0,0,0,0,0,0,9.313,9.313,9.464,9.542,9.701,9.701,9.865,9.95,10.036,10.123,10.302,10.302,10.488,10.583,10.68,10.88,11.087,11.302,11.526,11.641,11.879,12.001,12.001,12.001,12.001,11.879,11.641,11.526,11.526,11.194,11.194,11.087,10.982,10.982,10.982,10.982,10.88,10.88,10.88,10.88,10.88,10.88,10.88,10.88,10.88,10.88,10.982,10.982,10.88,10.88,10.88,10.779,10.779,10.779,10.88,10.88,10.982,10.982,11.087,11.087,11.087,11.087,11.194,11.087,11.087,11.194,11.526,11.641,11.879,12.001,12.254,12.384,12.384,12.384,12.384,12.254,12.254,12.001,11.879,11.879,11.879,11.879,11.641,11.641,11.641,11.641,11.641,11.641,11.879,11.879,12.001,12.254,12.254,12.384,12.384,12.384,12.254,12.001,11.879,11.641,11.302,11.087,10.88,10.68,10.68,10.68,10.583,10.583,0,0,0,0,0,4.426,4.41,4.426,4.426,4.426,4.46,4.46,4.477,4.512,4.53,4.53,4.583,4.601,4.638,4.657,0,0,0,0,0,0,0,0,0,0,0,8.315,8.315,8.315,8.315,8.436,8.497,8.56,8.753,8.955,9.024,9.166,9.313,9.313,9.313,9.313,9.464,9.313,9.239,9.166,9.024,8.955,8.819,8.753,8.753,8.623,8.56,8.56,8.56,8.623,8.623,8.753,8.819,8.955,8.955,9.024,9.166,9.166,9.166,9.239,9.313,9.464,9.464,9.701,9.865,9.95,10.036,10.123,10.123,10.212,10.212,10.212,10.212,10.212,10.212,10.212,10.302,10.302,10.302,10.394,10.394,10.394,10.302,10.212,10.036,0,8.819,8.141,8.028,7.709,7.368,7.186,7.055,7.055,7.055,7.186,7.511,0,0,0,0,0,0,0,0,0,0,0,0,0,0,10.982,10.302,9.865,9.313,9.239,9.024,8.753,8.623,8.497,8.375,8.315,8.256,8.256,8.198,8.198,8.198,8.198,8.198,8.198,8.198,8.198,8.198,0,0,0,0,0,0,0,0,0,0,0
5.707,5.707,5.735,5.763,5.763,5.792,5.792,5.792,5.792,5.763,5.763,5.735,5.707,5.707,5.679,5.679,5.679,5.679,5.679,5.679,5.679,5.679,0,5.707,5.735,0,5.763,5.821,5.909,5.939,6.001,6.001,6.001,5.909,5.85,5.821,5.763,5.707,5.679,5.679,5.679,5.679,5.679,5.679,5.679,5.679,5.707,5.735,5.821,5.909,6.032,6.127,6.225,6.361,6.467,0,6.54,6.577,6.577,6.577,6.577,6.577,6.577,6.577,6.54,6.54,6.504,6.467,6.467,6.467,6.396,6.361,6.361,6.327,6.259,6.159,6.095,6.001,5.939,5.85,5.792,5.763,5.763,5.763,5.821,5.85,5.909,6.032,6.095,6.159,6.259,6.327,6.396,6.396,6.396,6.432,6.432,0,0,3.817,3.829,3.829,3.829,3.829,3.829,3.817,3.817,3.817,3.804,3.792,3.78,3.78,3.78,3.78,3.78,3.792,3.804,3.804,3.804,3.804,3.804,3.804,3.804,3.804,3.804,3.804,3.804,3.817,3.829,0,0,0,0,0,0,0,0,0,0,0,0,0,0,0,0,0,0,0,0,0,3.582,3.582,3.582,3.582,3.582,3.582,3.582,3.56,3.56,3.56,3.549,3.549,3.549,3.538,3.538,3.56,3.56,3.56,3.615,0,3.696,0,0,0,0,0,0,0,0,0,5.792,5.821,5.821,5.821,5.821,5.85,5.85,5.85,5.85,5.85,5.909,5.939,6.001,6.001,6.032,6.032,6.095,6.095,6.095,6.095,6.032,6.032,6.001,6.001,5.939,5.939,5.909,5.909,5.939,5.939,6.001,6.001,6.032,6.032,6.095,6.127,6.225,6.259,6.259,6.361,6.361,6.396,6.396,6.432,6.432,6.432,6.396,6.396,6.396,6.396,6.432,6.432,6.432,6.432,6.432,6.396,6.396,6.396,6.396,6.432,6.432,6.432,6.432,6.467,6.432,6.432,6.361,6.327,6.259,6.159,6.127,6.001,5.909,5.85,5.792,5.792,5.792,5.763,5.763,5.735,5.735,5.735,5.735,5.763,5.735,5.735,5.707,5.707,5.679,5.679,5.651,5.651,5.597,5.597,5.57,5.57,5.543,5.543,5.543,5.543,5.517,5.517,5.543,5.543,5.543,5.543,5.543,5.543,5.543,5.517,5.491,5.465,5.389,5.34,5.268,5.268,5.244,5.244,5.244,5.316,5.517,0,5.651,0,0,6.69,7.415,0,8.141,8.198,8.198,8.198,8.198,8.198,8.198,8.198,8.198,8.198,0,0,0,0,0,0,0,0,0,0,0,0,0,0,0,0,0,0,9.313,9.464,9.464,9.542,9.542,9.701,9.783,9.865,9.95,10.036,10.123,10.212,10.302,10.302,10.394,10.583,10.68,10.88,11.087,11.302,11.526,11.641,11.641,11.879,12.001,12.001,11.879,11.879,11.641,11.526,11.526,11.194,11.194,11.087,11.087,11.087,11.087,11.087,10.982,10.982,11.087,11.087,11.194,11.194,11.194,11.194,11.194,11.194,11.194,11.194,11.194,11.087,11.087,10.982,10.982,10.982,10.982,11.087,11.087,11.194,11.194,11.194,11.194,11.194,11.194,11.194,11.194,11.194,11.526,11.641,11.879,12.001,12.254,12.384,12.518,12.518,12.384,12.384,12.254,12.001,11.879,11.879,11.879,11.879,11.641,11.641,11.526,11.641,11.641,11.641,11.879,11.879,12.001,12.254,12.384,12.384,12.518,12.518,12.384,12.384,12.254,11.879,11.526,11.087,10.982,10.779,10.68,10.583,0,0,0,0,0,0,4.426,4.426,4.41,4.41,4.426,4.426,4.426,4.477,4.477,4.477,4.53,4.565,4.583,4.601,4.638,4.657,4.732,4.752,0,0,0,0,0,0,0,0,0,8.256,8.256,8.256,8.256,8.315,8.436,8.497,8.623,8.819,9.024,9.166,9.239,9.313,9.313,9.464,9.313,9.313,9.313,9.166,9.024,8.955,8.819,8.753,8.56,8.56,8.497,8.497,8.497,8.497,8.56,8.56,8.753,8.819,8.955,9.024,9.024,9.239,9.166,9.239,9.464,9.464,9.701,9.865,10.036,10.123,10.212,10.212,10.302,10.302,10.302,10.302,10.302,10.212,10.212,10.302,10.302,10.302,10.394,10.394,10.394,10.394,10.302,10.212,9.95,9.464,8.819,8.198,7.973,7.709,7.368,7.231,7.098,7.098,7.231,7.511,0,0,0,0,0,0,0,0,15.119,0,15.522,15.522,0,0,0,0,10.488,9.95,9.239,9.239,9.024,8.753,8.56,8.497,8.315,8.315,8.256,8.256,8.256,8.198,8.198,8.198,8.141,8.198,8.198,8.198,8.198,8.198,8.198,8.198,8.198,8.198,8.819,0,9.542,0,0,0
5.651,5.651,5.679,5.707,5.763,5.792,5.821,5.821,5.792,5.821,5.792,5.792,5.763,5.735,5.735,5.707,5.679,5.679,5.679,5.707,5.707,5.707,5.707,5.707,5.735,5.735,5.763,5.821,5.909,5.909,5.939,6.001,5.939,5.85,5.821,5.792,5.735,5.707,5.679,5.679,5.679,5.679,5.679,5.679,5.707,5.707,5.735,5.792,5.85,6.001,6.095,6.225,6.327,6.432,0,6.504,6.54,6.577,6.614,6.614,6.577,6.614,6.614,6.614,6.577,6.54,6.54,6.504,6.467,6.432,6.396,6.361,6.327,6.259,6.259,6.159,6.095,6.001,5.939,5.909,5.821,5.792,5.792,5.792,5.821,5.821,5.85,5.909,6.001,6.095,6.159,6.225,6.259,6.327,6.361,6.361,6.361,0,0,3.829,3.829,3.829,3.829,3.829,3.829,3.829,3.829,3.817,3.817,3.804,3.804,3.804,3.804,3.804,3.804,3.804,3.804,3.804,3.804,3.804,3.804,3.804,3.804,3.817,3.817,3.817,3.817,3.817,3.817,0,0,0,0,0,0,0,0,0,0,0,0,0,0,0,0,0,0,0,0,0,3.582,3.582,3.582,3.582,3.582,3.582,3.582,3.56,3.56,3.56,3.549,3.549,3.549,3.549,3.549,3.549,3.56,3.549,3.56,0,0,3.804,0,0,0,0,0,0,0,0,0,6.001,6.001,6.001,6.001,6.001,6.001,6.001,6.001,6.001,6.001,6.001,6.032,6.032,6.032,6.032,6.095,6.095,6.127,6.095,6.095,6.032,6.032,6.032,6.001,5.939,5.939,5.939,5.939,5.939,6.001,6.001,6.032,6.095,6.095,6.127,6.225,6.259,6.327,6.361,6.361,6.396,6.432,6.467,6.432,6.432,6.432,6.432,6.396,6.432,6.432,6.432,6.432,6.432,6.396,6.396,6.396,6.396,6.396,6.432,6.467,6.467,6.467,6.467,6.467,6.467,6.396,6.361,6.327,6.225,6.159,6.001,5.939,5.85,5.821,5.792,5.792,5.821,5.792,5.792,5.821,5.792,5.821,5.821,5.821,5.821,5.792,5.763,5.707,5.679,5.679,5.679,5.651,5.651,5.597,5.57,5.57,5.543,5.543,5.543,5.543,5.543,5.543,5.543,5.543,5.543,5.543,5.543,5.543,5.517,5.491,5.415,5.34,5.268,5.268,5.244,5.22,5.244,5.22,5.268,5.491,5.597,0,0,0,6.614,7.186,0,8.028,8.198,8.198,8.198,8.198,8.198,8.198,8.198,8.198,8.198,0,0,0,0,0,0,0,0,0,0,0,0,0,0,0,0,0,0,9.542,9.542,9.701,9.701,9.783,9.783,9.865,9.95,10.036,10.212,10.212,10.302,10.302,10.394,10.394,10.583,10.68,10.779,10.982,11.194,11.302,11.641,11.641,11.879,11.879,11.879,11.879,11.879,11.641,11.641,11.526,11.526,11.194,11.194,11.087,11.194,11.194,11.194,11.194,11.194,11.302,11.526,11.526,11.526,11.526,11.526,11.526,11.526,11.526,11.526,11.302,11.194,11.194,11.087,11.087,11.087,11.087,11.087,11.087,11.194,11.194,11.194,11.194,11.194,11.194,11.087,11.194,11.194,11.302,11.641,11.879,12.001,12.254,12.384,12.518,12.518,12.518,12.384,12.254,12.001,12.001,11.879,11.879,11.879,11.641,11.641,11.526,11.641,11.641,11.641,11.879,12.001,12.254,12.384,12.518,0,12.793,12.793,12.793,12.518,12.384,12.001,11.879,11.526,11.194,10.982,10.779,0,0,0,0,0,0,0,0,4.41,4.41,4.426,4.426,4.426,4.426,4.46,4.46,4.477,4.512,4.53,4.583,4.583,4.638,4.713,4.771,4.81,4.851,4.933,0,0,0,0,0,0,8.028,8.198,8.198,8.256,8.256,8.256,8.375,8.436,8.623,8.753,8.955,9.024,9.166,9.239,9.313,9.313,9.313,9.239,9.239,9.024,8.955,8.955,8.753,8.623,8.56,8.56,8.497,8.497,8.436,8.436,8.497,8.56,8.623,8.753,8.819,8.955,9.024,9.166,9.239,9.464,9.542,9.701,9.783,10.036,10.123,10.212,10.302,10.302,10.302,10.302,10.302,10.302,10.302,10.302,10.212,10.302,10.212,10.302,10.302,10.302,10.302,10.302,10.212,10.036,9.701,9.166,8.56,8.084,7.973,7.709,7.415,7.322,7.231,7.186,7.322,7.761,8.141,0,0,0,0,0,0,14.736,14.925,14.925,14.925,14.736,0,0,0,0,0,9.865,9.239,9.024,8.753,8.623,8.497,8.375,8.315,8.256,8.256,8.198,8.198,8.198,8.198,8.198,8.198,8.141,8.198,8.198,8.198,8.198,8.198,8.198,8.198,8.198,8.436,0,9.024,9.239,0,0
5.624,5.651,5.651,5.679,5.735,5.763,5.792,5.821,5.821,5.821,5.821,5.821,5.792,5.792,5.763,5.735,5.735,5.735,5.707,5.707,5.707,5.707,5.735,5.735,5.735,5.763,5.792,5.821,5.909,5.85,5.939,5.909,5.939,5.85,5.821,5.792,5.763,5.707,5.707,5.679,5.679,5.707,5.735,5.763,5.763,5.763,5.821,5.85,6.001,6.032,6.127,6.259,6.361,0,6.467,6.54,6.577,6.577,6.614,6.614,6.614,6.614,6.614,6.614,6.577,6.54,6.54,6.467,6.467,6.432,6.361,6.327,6.259,6.225,6.225,6.159,6.127,6.032,6.001,5.939,5.85,5.821,5.821,5.821,5.821,5.85,5.909,5.939,6.001,6.095,6.127,6.159,6.225,6.225,6.259,6.259,6.259,0,0,0,3.829,3.842,3.842,3.829,3.829,3.829,3.829,3.829,3.829,3.817,3.817,3.817,3.817,3.817,3.817,3.817,3.817,3.817,3.817,3.817,3.817,3.817,3.817,3.817,3.817,3.817,3.817,3.817,0,0,0,0,0,0,0,0,0,0,0,0,0,0,0,0,0,0,0,0,0,0,3.593,3.582,3.582,3.582,3.582,3.582,3.582,3.582,3.56,3.56,3.549,3.549,3.549,3.549,3.549,3.538,3.549,3.56,3.56,3.661,0,3.804,0,0,0,0,0,0,0,0,0,0,6.127,6.127,6.127,6.127,6.127,6.159,6.159,6.127,6.095,6.095,6.095,6.032,6.095,6.032,6.095,6.095,6.095,6.095,6.095,6.095,6.032,6.001,6.001,5.939,5.939,5.939,5.939,5.939,6.001,6.001,6.032,6.095,6.127,6.159,6.225,6.259,6.327,6.396,6.396,6.432,6.432,6.467,6.467,6.467,6.467,6.432,6.396,6.432,6.432,6.396,6.396,6.396,6.396,6.432,6.432,6.432,6.432,6.432,6.504,6.504,6.504,6.467,6.504,6.504,6.467,6.432,6.361,6.259,6.225,6.127,6.032,5.939,5.939,5.909,5.909,5.939,5.939,6.001,6.001,6.032,6.032,6.095,6.127,6.032,6.095,6.032,6.001,5.939,5.821,5.763,5.707,5.679,5.624,5.597,5.57,5.57,5.543,5.543,5.543,5.543,5.543,5.543,5.543,5.543,5.543,5.543,5.543,5.517,5.465,5.389,5.316,5.244,5.22,5.174,5.151,5.106,5.151,5.174,5.268,5.491,0,0,0,6.432,6.808,0,7.813,8.084,8.141,8.084,8.084,8.141,8.141,8.141,8.141,8.141,8.141,0,0,0,0,0,0,0,0,0,0,0,0,0,0,0,0,0,9.701,9.701,9.783,9.783,9.865,9.865,9.95,10.036,10.212,10.212,10.212,10.212,10.302,10.302,10.394,10.583,10.583,10.68,10.982,11.194,11.302,11.641,11.641,11.641,11.879,11.879,11.879,11.879,11.879,11.641,11.641,11.526,11.302,11.302,11.302,11.194,11.302,11.302,11.302,11.302,11.526,11.641,11.879,11.879,11.879,11.879,11.879,11.879,11.879,11.641,11.526,11.194,11.194,11.087,10.982,10.982,10.982,10.982,10.982,11.087,11.087,11.087,11.087,11.087,11.087,11.087,11.087,11.194,11.526,11.641,11.879,12.254,12.384,12.518,12.518,12.518,12.518,12.384,12.254,12.254,12.001,11.879,11.879,11.641,11.641,11.641,11.526,11.526,11.641,11.641,11.879,12.001,12.254,12.384,12.518,0,12.793,12.935,12.935,12.793,12.518,12.254,12.001,11.641,11.302,11.087,0,0,0,0,0,4.426,4.426,4.426,4.426,4.426,4.426,4.41,4.426,4.426,4.426,4.46,4.46,4.477,4.512,4.53,4.565,4.601,4.657,4.752,4.81,4.851,4.954,5.22,0,0,0,0,0,7.866,0,8.028,8.084,8.198,8.198,8.256,8.315,8.436,8.497,8.623,8.753,8.819,9.024,9.166,9.166,9.166,9.166,9.239,9.166,9.024,8.955,8.819,8.753,8.623,8.56,8.497,8.497,8.436,8.436,8.436,8.436,8.497,8.56,8.623,8.753,8.753,8.955,9.024,9.166,9.239,9.313,9.464,9.783,9.95,10.036,10.212,10.302,10.302,10.302,10.302,10.302,10.212,10.212,10.212,10.212,10.123,10.123,10.212,10.212,10.212,10.212,10.212,10.036,9.783,9.313,8.819,0,8.084,7.919,7.659,7.415,7.322,7.231,7.231,7.415,7.919,0,0,0,0,0,13.229,0,14.197,14.197,14.197,13.859,13.381,12.793,11.879,0,0,0,9.464,8.819,8.753,8.623,8.497,8.436,8.315,8.256,8.256,8.256,8.198,8.198,8.141,8.141,8.084,8.084,8.084,8.141,8.141,8.141,8.198,8.198,8.198,8.198,8.198,8.256,8.375,8.497,8.56,0,0
5.57,5.597,5.651,5.679,5.707,5.763,5.792,5.821,5.821,5.821,5.821,5.821,5.821,5.792,5.763,5.763,5.735,5.735,5.735,5.735,5.735,5.735,5.735,5.763,5.735,5.792,5.792,5.821,5.85,5.85,5.939,5.909,5.909,5.85,5.821,5.792,5.763,5.735,5.707,5.735,5.735,5.763,5.763,5.821,5.821,5.85,5.909,6.001,6.032,6.127,6.259,6.361,0,6.432,6.504,6.54,6.577,6.614,6.614,6.614,6.614,6.614,6.614,6.614,6.614,6.577,6.577,6.54,6.54,6.467,6.432,6.396,6.361,6.327,6.327,6.259,6.159,6.095,6.095,6.032,6.001,5.939,5.939,5.939,6.001,6.032,6.032,6.095,6.127,6.127,6.159,6.225,6.225,6.225,6.225,6.225,6.225,0,0,0,0,3.855,3.855,3.855,3.855,3.842,3.842,3.855,0,0,3.855,3.842,3.842,3.842,3.829,3.829,3.829,3.829,3.829,3.817,3.817,3.817,3.817,3.817,3.817,3.817,3.817,3.817,3.817,0,0,0,0,0,0,0,0,0,0,0,0,0,0,0,0,0,0,0,0,0,3.593,3.593,3.593,3.593,3.582,3.593,3.593,3.593,3.56,3.56,3.56,3.549,3.549,3.549,3.549,3.549,3.549,3.549,3.56,3.661,0,0,0,0,0,0,0,0,0,0,0,0,6.159,6.159,6.225,6.225,6.259,6.259,6.259,6.225,6.225,6.225,6.127,6.127,6.127,6.095,6.095,6.095,6.095,6.127,6.095,6.095,6.095,6.032,6.032,6.001,6.001,6.001,6.001,6.001,6.032,6.032,6.095,6.127,6.127,6.159,6.225,6.327,6.361,6.396,6.432,6.432,6.432,6.467,6.467,6.467,6.432,6.396,6.396,6.396,6.396,6.396,6.396,6.432,6.432,6.432,6.432,6.432,6.467,6.467,6.54,6.54,6.54,6.54,6.54,6.54,6.54,6.504,6.467,6.432,6.361,6.259,6.225,6.095,6.001,6.001,6.032,6.032,6.032,6.095,6.095,6.095,6.127,6.159,6.159,6.127,6.127,6.095,6.032,6.001,5.909,5.821,5.735,5.679,5.651,5.624,5.597,5.57,5.57,5.543,5.543,5.543,5.543,5.543,5.543,5.543,5.543,5.543,5.543,5.517,5.465,5.389,5.268,5.244,5.174,5.151,5.106,5.106,5.084,5.084,5.22,5.415,5.57,0,0,0,6.729,7.659,0,8.084,8.084,8.028,8.028,8.028,8.084,8.028,7.973,7.866,0,0,0,0,0,0,0,0,0,0,0,0,0,0,0,0,0,0,9.701,9.783,9.783,9.865,9.865,9.95,9.95,10.036,10.123,10.123,10.123,10.212,10.212,10.302,10.394,10.394,10.583,10.68,10.982,11.087,11.302,11.526,11.641,11.879,12.001,12.001,12.001,11.879,11.879,11.879,11.641,11.641,11.526,11.302,11.302,11.302,11.526,11.526,11.641,11.526,11.641,12.001,12.254,12.254,12.254,12.254,12.001,12.001,12.001,11.879,11.641,11.302,11.087,10.982,10.982,10.982,10.982,10.982,10.982,10.982,10.982,10.982,10.982,11.087,11.087,11.087,11.087,11.194,11.302,11.641,11.641,12.001,12.254,12.384,12.384,12.384,12.384,12.254,12.254,12.001,11.879,11.641,11.641,11.526,11.641,11.641,11.641,11.526,11.641,11.641,11.879,12.001,0,12.254,12.518,12.518,12.793,12.935,12.935,12.793,12.518,12.254,12.001,11.641,11.302,11.087,0,10.68,0,0,0,4.426,4.426,4.426,4.426,4.426,4.41,4.426,4.41,4.426,4.426,4.46,4.46,4.477,4.512,4.53,4.565,4.601,4.713,4.81,4.851,4.933,5.151,0,5.707,0,0,0,0,7.415,7.761,7.973,0,8.084,8.198,8.198,8.315,8.375,8.436,8.497,8.623,8.753,8.819,8.955,8.955,9.024,9.024,9.024,9.024,8.955,8.955,8.819,8.753,8.623,8.56,8.56,8.497,8.497,8.436,8.436,8.436,8.497,8.497,8.56,8.56,8.753,8.753,8.955,9.024,9.166,9.313,9.464,9.701,9.95,10.036,10.212,10.302,10.394,10.302,10.302,10.302,10.302,10.212,10.212,10.123,10.123,10.036,10.123,10.123,10.123,10.123,10.036,9.865,9.542,9.024,8.623,8.198,8.084,7.973,7.813,7.659,0,0,0,0,0,0,0,0,0,10.982,12.254,12.935,12.935,13.229,12.935,12.384,12.001,11.302,10.88,0,0,0,8.819,8.819,8.623,8.56,8.497,8.375,8.315,8.256,8.256,8.198,8.198,8.141,8.084,8.084,8.084,8.084,8.084,8.084,8.084,8.084,8.084,8.141,8.141,8.141,8.141,8.198,8.198,8.141,8.141,0,0
5.57,5.597,5.651,5.651,5.707,5.763,5.763,5.792,5.792,5.821,5.792,5.792,5.792,5.792,5.763,5.735,5.735,5.735,5.735,5.735,5.735,5.735,5.735,5.735,5.735,5.763,5.763,5.792,5.821,5.821,5.85,5.85,5.821,5.821,5.792,5.792,5.792,5.763,5.735,5.763,5.763,5.792,5.821,5.85,5.909,5.939,6.032,6.095,6.159,6.259,6.327,0,6.396,6.504,6.54,6.577,6.614,6.614,6.614,6.614,6.614,6.652,6.652,6.614,6.614,6.614,6.577,6.577,6.54,6.54,6.467,6.432,6.396,6.361,6.327,6.259,6.225,6.127,6.127,6.095,6.032,6.001,6.032,6.095,6.095,6.159,6.225,6.225,6.259,6.225,6.327,6.259,6.259,6.259,6.225,6.225,6.225,6.225,0,0,0,0,0,3.855,3.855,3.855,3.855,0,0,0,0,3.868,3.868,3.868,3.855,3.855,3.842,3.842,3.829,3.829,3.829,3.829,3.817,3.817,3.817,3.829,3.829,3.829,3.829,3.829,3.829,0,0,0,0,0,0,0,0,0,0,0,0,0,0,0,0,0,0,0,3.593,3.593,3.593,3.615,3.593,3.593,3.593,3.593,3.593,3.582,3.56,3.56,3.549,3.549,3.549,3.549,3.56,3.56,3.56,3.696,0,0,0,0,0,0,5.543,0,5.939,6.159,6.159,6.225,6.259,6.327,6.327,6.327,6.361,6.361,6.361,6.361,6.327,6.327,6.327,6.159,6.159,6.127,6.127,6.095,6.127,6.127,6.127,6.095,6.095,6.095,6.032,6.032,6.032,6.032,6.032,6.032,6.095,6.095,6.095,6.127,6.159,6.159,6.225,6.259,6.361,6.396,6.432,6.432,6.467,6.467,6.467,6.467,6.432,6.396,6.396,6.396,6.396,6.396,6.432,6.432,6.432,6.432,6.432,6.467,6.504,6.54,6.54,6.54,6.54,6.54,6.54,6.577,6.54,6.54,6.54,6.504,6.467,6.396,6.361,6.327,6.225,6.127,6.127,6.159,6.159,6.159,6.159,6.159,6.225,6.259,6.259,6.259,6.259,6.259,6.159,6.127,6.032,5.909,5.792,5.735,5.679,5.651,5.597,5.597,5.57,5.57,5.57,5.543,5.543,5.543,5.543,5.543,5.543,5.543,5.543,5.517,5.491,5.34,5.268,5.244,5.174,5.106,5.084,5.084,5.106,5.106,5.174,5.34,5.543,0,0,0,6.577,7.055,0,7.709,7.813,7.866,7.919,7.973,7.973,7.866,7.761,7.415,7.186,0,0,0,0,0,0,0,0,0,0,0,0,0,0,0,0,0,0,9.701,9.783,9.783,9.865,9.865,9.865,9.865,9.95,9.95,10.036,10.123,10.123,10.212,10.302,10.394,10.488,10.68,10.88,11.087,11.194,11.526,11.641,11.879,11.879,12.001,12.001,12.001,12.001,12.001,12.001,11.879,11.641,11.641,11.526,11.526,11.526,11.641,11.641,11.641,11.879,0,12.254,12.254,12.384,12.384,12.254,12.254,12.001,11.879,11.526,11.194,11.087,10.88,10.88,10.88,10.88,10.779,10.779,10.88,10.88,10.88,10.982,10.982,10.982,10.982,10.982,11.087,11.194,11.302,11.526,11.641,11.879,12.254,12.384,12.384,12.254,12.254,12.001,11.879,11.879,11.641,11.641,11.526,11.526,11.526,11.526,11.526,11.641,0,11.879,12.001,0,12.254,12.384,12.518,12.518,12.793,12.518,12.518,12.384,12.001,11.879,11.526,11.194,11.087,0,0,0,0,4.426,4.426,4.426,4.426,4.426,4.41,4.426,4.426,4.426,4.426,4.426,4.46,4.477,4.512,4.512,4.565,4.583,4.638,4.732,4.81,4.891,0,0,5.57,0,5.763,0,0,0,7.231,7.559,7.813,7.973,0,8.141,8.256,8.256,8.315,8.375,8.436,8.497,8.56,8.623,8.753,8.819,8.819,8.819,8.955,8.819,8.819,8.819,8.753,8.753,8.753,8.623,8.56,8.56,8.56,8.497,8.497,8.497,8.497,8.497,8.56,8.56,8.623,8.623,8.753,8.753,8.955,9.024,9.166,9.464,9.701,9.95,10.123,10.212,10.302,10.302,10.302,10.302,10.212,10.212,10.123,10.036,10.036,9.95,9.95,9.95,9.865,9.865,9.783,9.542,9.313,8.955,8.623,8.436,8.198,8.084,7.973,7.919,7.813,7.866,7.919,8.028,8.256,0,8.955,0,10.394,10.68,11.302,11.879,12.001,12.001,11.879,11.526,11.087,10.68,10.583,0,0,0,8.753,8.623,8.56,8.497,8.375,8.315,8.256,8.198,8.198,8.198,8.141,8.084,8.028,8.028,8.028,8.028,8.028,8.028,8.028,8.028,8.084,8.084,8.084,8.084,8.084,8.084,8.084,8.084,8.141,0,0
5.57,5.57,5.597,5.651,5.679,5.735,5.735,5.763,5.763,5.792,5.763,5.763,5.763,5.763,5.735,5.735,5.735,5.735,5.735,5.735,5.735,5.735,5.735,5.735,5.707,5.735,5.735,5.763,5.763,5.763,5.763,5.763,5.763,5.763,5.763,5.763,5.763,5.763,5.735,5.763,5.792,5.821,5.85,5.909,5.939,6.001,6.032,6.127,6.225,6.327,0,6.361,6.432,6.504,6.54,6.577,6.614,6.614,6.652,6.652,6.652,6.69,6.69,6.69,6.652,6.614,6.614,6.614,6.577,6.577,6.54,6.467,6.432,6.396,6.361,6.327,6.259,6.159,6.159,6.127,6.095,6.095,6.127,6.159,6.225,6.327,6.327,6.361,6.396,6.396,6.396,6.361,6.361,6.327,6.327,6.259,6.225,6.225,0,0,0,0,0,0,0,0,0,0,0,0,0,3.92,3.92,3.906,3.893,3.88,3.868,3.855,3.842,3.842,3.829,3.829,3.829,3.829,3.829,3.829,3.829,3.829,3.829,3.829,3.829,0,0,0,0,0,0,0,0,0,0,0,0,0,0,0,0,0,0,0,0,3.615,3.615,3.615,3.615,3.615,3.615,3.615,3.615,3.593,3.582,3.56,3.56,3.56,3.549,3.549,3.56,3.56,3.56,3.696,0,0,0,0,0,4.83,5.44,0,5.909,6.159,6.225,6.259,6.327,6.361,6.361,6.396,6.396,6.396,6.396,6.396,6.396,6.396,6.361,6.327,6.225,6.225,6.159,6.159,6.159,6.159,6.127,6.127,6.127,6.095,6.095,6.095,6.095,6.095,6.095,6.095,6.095,6.095,6.095,6.127,6.127,6.159,6.225,6.259,6.327,6.396,6.432,6.432,6.467,6.467,6.467,6.467,6.432,6.432,6.396,6.432,6.432,6.432,6.432,6.432,6.467,6.467,6.467,6.467,6.504,6.54,6.54,6.54,6.577,6.577,6.577,6.577,6.577,6.577,6.54,6.54,6.54,6.467,6.432,6.396,6.361,6.259,6.259,6.259,6.259,6.259,6.259,6.259,6.327,6.327,6.327,6.327,6.327,6.259,6.259,6.159,6.095,6.001,5.85,5.763,5.707,5.651,5.624,5.597,5.57,5.57,5.57,5.57,5.57,5.543,5.543,5.543,5.543,5.543,5.543,5.517,5.491,5.389,5.316,5.244,5.174,5.106,5.084,5.04,5.04,5.084,5.151,5.244,5.491,0,0,0,6.396,6.69,7.055,7.231,7.368,7.415,7.559,7.659,7.559,7.415,7.231,6.929,6.69,0,0,0,0,0,0,0,0,0,0,0,0,0,0,0,0,0,9.239,9.024,9.313,9.542,9.701,9.542,9.464,9.464,9.783,9.783,9.783,9.95,9.95,10.123,10.212,10.394,10.394,10.583,10.779,10.982,11.194,11.302,11.641,11.641,11.879,12.001,12.001,12.254,12.254,12.254,12.001,12.001,11.879,11.641,11.641,11.526,11.526,11.641,11.641,11.641,11.879,12.001,12.001,12.254,12.001,12.254,12.254,12.254,12.001,11.879,11.302,11.194,10.982,10.779,10.779,10.779,10.68,10.68,10.68,10.68,10.779,10.779,10.779,10.779,10.88,10.88,10.88,10.982,11.087,11.194,11.526,11.641,11.641,12.001,12.254,12.254,12.001,12.001,12.001,12.001,11.879,11.879,11.641,11.641,11.641,11.641,11.641,11.641,11.641,11.641,11.879,11.879,12.001,12.254,12.384,12.384,12.384,12.384,12.254,12.254,11.879,11.641,11.526,11.302,11.194,10.982,0,0,0,0,4.426,4.426,4.41,4.426,4.426,4.41,4.426,4.41,4.426,4.426,4.46,4.477,4.477,4.512,4.53,4.565,4.583,4.694,4.81,4.891,0,0,5.543,0,5.679,6.001,6.467,6.652,0,0,7.368,7.761,7.973,0,8.141,8.256,8.315,8.315,8.375,8.436,8.497,8.56,8.56,8.623,8.623,8.753,8.753,8.753,8.819,8.753,8.753,8.753,8.753,8.753,8.753,8.753,8.623,8.623,8.623,8.56,8.56,8.56,8.56,8.56,8.623,8.623,8.623,8.623,8.753,8.753,8.819,8.955,9.239,9.313,9.701,9.865,10.123,10.212,10.212,10.212,10.212,10.212,10.123,10.036,10.036,9.95,9.865,9.865,9.783,9.783,9.701,9.542,9.464,9.166,8.819,8.623,8.436,8.256,8.198,8.141,8.141,8.141,8.198,8.256,8.315,0,8.819,9.542,0,10.302,10.583,10.779,10.982,11.087,11.087,10.982,10.68,10.583,10.394,10.302,10.036,9.701,9.313,8.56,8.497,8.436,8.375,8.375,8.256,8.256,8.198,8.141,8.084,8.084,8.028,8.028,7.973,7.973,7.973,7.973,7.973,7.973,7.973,8.028,8.028,8.028,8.028,8.028,8.084,8.028,8.028,8.028,0,0
5.57,5.597,5.624,5.651,5.679,5.679,5.735,5.735,5.763,5.763,5.735,5.735,5.735,5.707,5.707,5.679,5.679,5.679,5.679,5.679,5.679,5.679,5.651,5.651,5.651,5.651,5.651,5.651,5.651,5.679,5.679,5.679,5.679,5.679,5.707,5.707,5.735,5.735,5.735,5.763,5.792,5.821,5.85,5.939,5.939,6.001,6.095,6.127,6.225,6.327,0,6.396,6.467,6.54,6.577,6.577,6.614,6.652,6.652,6.652,6.69,6.69,6.69,6.69,6.69,6.69,6.652,6.614,6.614,6.577,6.54,6.54,6.467,6.432,6.396,6.361,6.259,6.225,6.225,6.225,6.225,6.225,6.259,6.361,6.396,6.467,6.504,6.504,6.54,6.54,6.504,6.467,6.432,6.396,6.361,6.361,6.327,6.327,0,0,0,0,0,0,0,0,0,0,0,0,0,4.056,4.014,3.987,3.946,3.92,3.893,3.868,3.868,3.855,3.842,3.829,3.829,3.829,3.829,3.829,3.829,3.829,3.829,3.842,3.842,3.842,0,0,0,0,0,0,0,0,0,0,0,0,0,0,0,0,0,0,0,3.804,3.743,3.672,3.627,3.627,3.627,3.627,3.627,3.627,3.593,3.593,3.582,3.56,3.56,3.56,3.56,3.56,3.56,3.696,0,3.817,0,0,0,4.771,5.316,5.735,0,6.095,6.225,6.259,6.361,6.361,6.432,6.432,6.432,6.467,6.432,6.467,6.432,6.396,6.396,6.361,6.327,6.225,6.225,6.159,6.159,6.159,6.159,6.159,6.159,6.127,6.127,6.127,6.127,6.095,6.095,6.095,6.032,6.032,6.032,6.095,6.095,6.127,6.095,6.127,6.159,6.259,6.259,6.327,6.361,6.361,6.396,6.396,6.396,6.396,6.396,6.396,6.432,6.432,6.432,6.432,6.432,6.467,6.504,6.504,6.54,6.54,6.577,6.577,6.577,6.614,6.614,6.614,6.614,6.614,6.577,6.577,6.54,6.54,6.467,6.467,6.396,6.361,6.361,6.327,6.361,6.327,6.327,6.327,6.327,0,6.361,6.327,6.327,6.327,6.225,6.127,6.095,5.939,5.85,5.792,5.707,5.651,5.624,5.597,5.597,5.57,5.57,5.57,5.57,5.57,5.543,5.543,5.543,5.543,5.543,5.517,5.491,5.389,5.316,5.244,5.174,5.151,5.106,5.04,5.04,5.04,5.106,5.22,5.44,0,0,0,0,6.467,6.69,6.768,6.888,6.971,7.055,7.098,7.055,6.929,0,0,0,0,5.651,0,0,0,0,0,0,0,0,0,0,0,0,0,0,0,0,8.56,0,9.239,9.313,9.313,9.239,9.239,9.464,9.464,9.542,9.783,9.865,10.036,10.212,10.302,10.394,10.583,10.779,10.982,11.194,11.302,11.526,11.879,12.001,12.254,12.254,12.254,12.384,12.384,12.384,12.254,12.001,11.879,11.641,11.641,11.526,11.526,11.526,11.302,11.641,11.879,11.879,11.879,11.879,12.001,11.879,11.879,11.641,11.526,11.194,10.982,10.779,10.68,10.68,10.583,10.583,10.583,10.583,10.583,10.68,10.68,10.68,10.68,10.68,10.779,10.779,10.88,10.982,11.087,11.194,11.302,11.526,11.641,12.001,12.001,12.001,12.001,12.001,12.001,12.001,12.001,11.879,11.879,11.879,11.879,11.879,11.641,11.641,11.641,11.879,11.879,11.879,12.001,12.001,12.001,12.001,11.879,11.879,11.641,11.526,11.194,11.087,10.982,10.88,10.779,0,0,0,0,4.426,4.426,4.426,4.41,4.426,4.41,4.41,4.426,4.426,4.46,4.46,4.477,4.512,4.53,4.53,4.583,4.601,4.713,4.83,0,0,5.389,5.597,0,5.792,6.127,6.467,6.614,6.729,0,7.098,7.559,7.973,0,8.141,8.256,8.315,8.315,8.375,8.436,8.497,8.497,8.56,8.497,8.56,8.623,8.623,8.623,8.623,8.753,8.753,8.753,8.753,8.819,8.819,8.819,8.819,8.753,8.753,8.753,8.623,8.753,8.753,8.623,8.623,8.753,8.623,8.623,8.753,8.753,8.623,8.753,8.955,9.166,9.313,9.701,9.865,9.95,9.95,10.036,10.036,10.036,9.95,9.865,9.783,9.701,9.542,9.542,9.464,9.464,9.313,9.239,9.024,8.955,8.623,8.56,8.436,8.375,8.497,8.436,8.497,8.497,8.56,8.56,8.623,8.753,9.239,9.701,0,10.212,10.302,10.394,10.583,10.583,10.583,10.583,10.302,10.212,10.036,9.865,9.542,9.313,8.753,8.436,8.375,8.375,8.256,8.256,8.198,8.198,8.084,8.084,8.028,7.973,7.973,7.919,7.866,7.866,7.866,7.813,7.866,7.866,7.866,7.919,7.919,7.919,7.919,7.973,7.973,7.973,7.973,7.973,0,0
5.57,5.597,5.624,5.651,5.679,5.679,5.707,5.707,5.707,5.707,5.707,5.679,5.679,5.679,5.651,5.651,5.651,5.651,5.651,5.651,5.651,5.624,5.597,5.597,5.597,5.597,5.597,5.597,5.597,5.597,5.624,5.651,5.651,5.651,5.679,5.679,5.707,5.707,5.735,5.763,5.792,5.821,5.909,5.939,5.939,6.032,6.095,6.127,6.225,6.327,6.361,0,6.432,6.504,6.54,6.577,6.577,6.614,6.652,6.652,6.69,6.69,6.69,6.69,6.69,6.69,6.652,6.652,6.614,6.577,6.577,6.54,6.504,6.467,6.396,6.361,6.327,6.259,6.259,6.259,6.327,6.361,6.432,6.467,6.54,6.54,6.577,6.577,6.577,6.577,6.577,6.54,6.54,6.467,6.432,6.432,6.361,6.361,6.327,0,0,0,0,0,0,0,0,0,0,0,0,4.203,4.158,4.085,4.028,3.987,3.933,3.906,3.868,3.868,3.855,3.842,3.842,3.842,3.842,3.842,3.842,3.842,3.842,3.842,3.842,3.842,0,0,0,0,0,0,0,0,0,0,0,0,0,0,0,0,0,0,0,0,3.855,3.792,3.696,3.649,3.649,3.649,3.649,3.649,3.649,3.615,3.593,3.593,3.582,3.582,3.582,3.56,3.582,3.696,0,3.817,0,0,0,4.752,5.22,5.651,0,6.001,6.225,6.327,6.361,6.396,6.432,6.467,6.467,6.504,6.467,6.504,6.467,6.467,6.432,6.396,6.361,6.259,6.225,6.159,6.159,6.159,6.159,6.159,6.159,6.159,6.159,6.127,6.127,6.095,6.095,6.032,5.939,5.909,5.909,5.909,5.939,6.001,6.001,6.001,6.095,6.095,6.127,6.159,6.225,6.259,6.327,6.327,6.327,6.327,6.327,6.361,6.361,6.361,6.361,6.396,6.432,6.432,6.467,6.467,6.504,6.54,6.577,6.577,6.577,6.614,6.577,6.614,6.614,6.614,6.577,6.577,6.54,6.54,6.54,6.504,6.467,6.396,6.396,6.361,6.361,6.361,6.361,6.259,6.327,6.361,6.361,6.327,6.327,6.259,6.159,6.159,6.095,5.939,5.85,5.763,5.707,5.679,5.651,5.597,5.597,5.57,5.57,5.57,5.57,5.57,5.57,5.57,5.543,5.543,5.543,5.543,5.491,5.415,5.34,5.268,5.22,5.151,5.106,5.084,5.04,5.106,5.084,5.174,5.34,0,0,0,0,6.127,6.504,6.577,6.69,6.729,6.729,6.768,6.729,6.729,6.614,0,0,5.679,5.57,5.465,5.34,5.316,5.244,5.151,5.106,5.084,5.084,5.084,0,0,0,0,0,0,0,8.084,8.623,9.024,0,9.024,9.024,9.166,9.313,9.313,0,9.542,9.783,9.95,10.212,10.302,10.394,10.583,10.779,10.982,11.087,11.302,11.641,11.879,12.001,12.254,12.384,12.384,12.518,12.518,12.518,12.384,12.001,12.001,11.879,11.879,11.526,11.526,11.526,11.302,11.526,11.641,11.641,11.641,11.641,11.641,11.641,11.526,11.302,11.194,10.982,10.779,10.68,10.583,10.583,10.488,10.488,10.394,10.488,10.488,10.488,10.583,10.583,10.583,10.583,10.583,10.68,10.68,10.88,10.88,10.982,11.194,11.302,11.526,11.879,11.879,12.001,12.001,12.001,12.001,12.001,12.001,12.001,12.001,12.001,12.001,11.879,11.879,11.879,11.879,11.641,11.641,11.641,11.641,11.641,11.641,11.641,11.526,11.302,11.194,11.087,10.982,10.779,10.68,10.68,10.583,0,0,0,0,4.426,4.426,4.41,4.41,4.426,4.41,4.41,4.426,4.426,4.46,4.477,4.512,4.512,4.565,4.565,4.601,4.601,4.732,4.83,0,0,5.491,0,5.679,5.909,6.127,6.396,6.54,6.614,6.69,6.888,7.415,7.973,0,8.141,8.256,8.315,8.375,8.436,8.436,8.436,8.497,8.497,8.497,8.497,8.56,8.56,8.56,8.623,8.623,8.753,8.753,8.819,8.819,8.819,8.955,8.955,8.955,8.819,8.819,8.819,8.819,8.819,8.819,8.819,8.819,8.753,8.753,8.753,8.623,8.623,8.623,8.819,8.955,9.024,9.313,9.701,9.783,9.865,9.95,9.865,9.865,9.865,9.783,9.783,9.542,9.313,9.239,9.239,9.166,9.024,8.819,8.753,8.56,8.497,8.436,8.436,8.56,8.753,8.819,8.955,9.024,9.166,9.024,9.166,9.166,9.464,9.701,9.783,9.865,10.036,10.036,10.212,10.212,10.212,10.036,9.783,9.464,9.239,8.819,8.753,8.56,8.375,8.256,8.256,8.198,8.141,8.084,8.084,8.028,7.973,7.973,7.919,7.866,7.813,7.813,7.709,7.709,7.709,7.709,7.659,7.709,7.709,7.761,7.709,7.761,7.761,7.813,7.813,7.813,7.866,7.866,0,0
5.597,5.597,5.624,5.651,5.679,5.679,5.679,5.679,5.679,5.679,5.679,5.651,5.651,5.651,5.624,5.624,5.597,5.597,5.597,5.597,5.57,5.57,5.57,5.57,5.57,5.57,5.57,5.57,5.57,5.57,5.597,5.597,5.624,5.624,5.651,5.679,5.679,5.707,5.735,5.763,5.792,5.821,5.85,5.909,5.939,6.001,6.032,6.095,6.159,6.225,6.327,6.361,0,6.432,6.504,6.54,6.577,6.614,6.614,6.652,6.69,6.69,6.69,6.69,6.69,6.69,6.652,6.652,6.614,6.577,6.577,6.54,6.504,6.432,6.396,6.396,6.361,6.327,6.327,6.327,6.361,6.396,6.467,6.54,6.577,6.614,6.614,6.652,6.69,6.614,6.614,6.614,6.577,6.54,6.54,6.467,6.432,6.396,6.396,0,0,0,0,0,0,0,0,0,0,0,0,0,4.249,4.203,4.128,4.07,4.014,3.933,3.893,3.868,3.855,3.855,3.855,3.842,3.842,3.842,3.842,3.842,3.842,3.842,3.842,3.842,0,0,0,0,0,0,0,0,0,0,0,0,0,0,0,0,0,0,0,0,0,0,3.817,3.755,3.707,3.661,3.661,3.661,3.661,3.627,3.615,3.593,3.593,3.582,3.582,3.582,3.582,3.696,0,3.817,3.973,0,0,4.657,5.018,5.543,5.792,0,6.127,6.259,6.327,6.396,6.432,6.467,6.467,6.504,6.504,6.467,6.467,6.467,6.432,6.396,6.327,6.225,6.225,6.127,6.127,6.127,6.159,6.159,6.159,6.127,6.095,6.095,6.032,6.001,5.939,5.909,5.85,5.85,5.85,5.85,5.85,5.85,5.85,5.909,5.939,6.001,6.001,6.032,6.095,6.127,6.127,6.159,6.225,6.225,6.225,6.225,6.225,6.327,6.327,6.327,6.327,6.361,6.361,6.396,6.396,6.467,6.54,6.54,6.577,6.577,6.577,6.577,6.577,6.577,6.577,6.54,6.54,6.54,6.54,6.54,6.504,6.432,6.432,6.432,6.396,6.361,6.361,6.259,6.259,6.327,6.259,6.259,6.225,6.225,6.159,6.127,6.032,5.939,5.821,5.763,5.707,5.679,5.651,5.597,5.597,5.597,5.57,5.57,5.57,5.57,5.57,5.57,5.57,5.543,5.543,5.543,5.517,5.415,5.34,5.268,5.244,5.174,5.151,5.084,5.04,5.084,5.084,5.174,5.34,5.491,5.597,0,5.679,5.939,6.259,6.432,6.54,6.614,6.614,6.614,6.614,6.54,0,0,5.707,5.597,5.543,5.465,5.34,5.316,5.244,5.174,5.151,5.151,5.106,5.106,5.174,0,0,0,0,0,0,7.866,8.315,8.623,8.819,8.753,8.819,8.955,9.024,9.239,0,9.464,9.701,9.865,10.123,10.302,10.394,10.583,10.779,10.982,11.194,11.526,11.879,12.001,12.254,12.384,12.518,12.518,12.793,12.793,12.518,12.518,12.254,12.001,11.879,11.879,11.641,11.526,11.302,11.302,11.302,11.302,11.302,11.302,11.302,11.302,11.302,11.194,11.087,10.88,10.68,10.583,10.488,10.394,10.394,10.394,10.302,10.302,10.302,10.302,10.394,10.394,10.394,10.488,10.488,10.583,10.583,10.583,10.68,10.68,10.88,11.087,11.302,11.302,11.641,11.641,11.879,11.879,12.001,12.001,12.001,12.001,12.001,12.001,12.001,12.001,12.001,11.879,11.879,11.879,11.641,11.526,11.302,11.194,11.194,11.194,11.087,11.087,10.88,10.88,10.68,10.68,10.583,10.583,10.583,10.488,0,0,0,4.426,4.426,4.426,4.41,4.41,4.41,4.41,4.41,4.426,4.426,4.46,4.477,4.512,4.53,4.565,4.583,4.638,4.638,4.752,0,0,0,5.543,0,5.679,6.001,6.127,6.361,6.432,6.504,6.614,6.768,7.415,7.973,0,8.198,8.315,8.436,8.436,8.436,8.436,8.497,8.436,8.436,8.436,8.436,8.497,8.56,8.56,8.56,8.623,8.753,8.753,8.819,8.955,8.955,9.024,9.024,9.024,9.024,9.024,9.024,8.955,8.955,8.955,8.955,8.955,8.819,8.819,8.819,8.753,8.753,8.753,8.819,8.955,9.024,9.239,9.542,9.701,9.783,9.783,9.865,9.783,9.783,9.701,9.542,9.464,9.239,9.166,9.024,8.819,8.623,8.497,8.436,8.315,8.256,8.256,8.375,8.623,8.819,9.024,9.313,9.464,9.313,9.313,9.239,9.166,9.313,9.313,9.313,9.464,9.464,9.542,9.542,9.542,9.464,9.239,8.753,8.56,8.436,8.375,8.375,8.315,8.256,8.198,8.198,8.141,8.084,8.028,8.028,7.973,7.919,7.813,7.761,7.709,7.659,7.659,7.559,7.511,7.511,7.511,7.511,7.559,7.559,7.559,7.559,7.511,7.559,7.659,7.659,7.659,7.659,7.659,0,0
5.597,5.597,5.624,5.651,5.651,5.651,5.651,5.651,5.651,5.651,5.624,5.624,5.597,5.597,5.597,5.57,5.57,5.543,5.543,5.543,5.543,5.517,5.517,5.517,5.517,5.517,5.517,5.543,5.517,5.543,5.57,5.57,5.597,5.597,5.624,5.651,5.679,5.679,5.707,5.735,5.763,5.792,5.821,5.85,5.909,5.939,6.001,6.032,6.095,6.127,6.159,6.225,6.327,6.396,6.467,0,6.54,6.577,6.614,6.614,6.652,6.69,6.69,6.69,6.69,6.69,6.69,6.652,6.614,6.614,6.577,6.54,6.504,6.432,6.396,6.361,6.361,6.327,6.361,6.396,6.432,6.467,6.54,6.577,6.614,6.652,6.69,6.69,6.729,6.729,6.69,6.69,6.652,6.614,6.577,6.54,6.54,6.467,6.432,6.432,6.396,6.396,0,0,0,0,0,0,0,0,0,4.393,4.328,4.264,4.218,4.158,4.07,3.987,3.92,3.893,3.868,3.868,3.855,3.855,3.855,3.855,3.855,3.855,3.855,3.855,3.842,0,0,0,0,0,0,0,0,0,0,0,0,0,0,0,0,0,0,0,0,0,0,0,0,3.893,3.829,3.78,3.755,3.707,3.672,3.661,3.661,3.627,3.615,3.593,3.593,3.582,3.593,3.696,0,3.792,3.88,0,0,0,4.851,5.34,5.679,0,5.939,6.225,6.327,6.396,6.432,6.432,6.467,6.504,6.467,6.467,6.467,6.467,6.432,6.396,6.259,6.225,6.127,6.127,6.032,6.032,6.001,6.001,6.001,6.001,6.001,5.939,5.939,5.909,5.85,5.821,5.792,5.763,5.763,5.763,5.763,5.792,5.792,5.792,5.821,5.85,5.85,5.85,5.909,5.939,6.001,6.001,6.032,6.032,6.095,6.095,6.095,6.159,6.159,6.159,6.259,6.259,6.259,6.327,6.327,6.396,6.432,6.432,6.504,6.504,6.54,6.54,6.54,6.54,6.54,6.54,6.54,6.504,6.504,6.504,6.432,6.432,6.396,6.396,6.361,6.259,6.225,6.127,6.127,6.127,6.127,6.127,6.095,6.095,6.095,6.032,5.939,5.909,5.792,5.763,5.707,5.679,5.651,5.597,5.597,5.57,5.57,5.57,5.57,5.57,5.57,5.57,5.543,5.543,5.543,5.543,5.543,5.491,5.389,5.316,5.244,5.174,5.151,5.106,5.084,5.106,5.106,5.174,5.316,5.465,5.57,5.651,0,5.763,6.001,6.225,6.396,6.504,6.504,6.504,6.467,6.396,6.159,5.735,5.624,5.57,5.517,5.44,5.389,5.34,5.316,5.22,5.22,5.174,5.151,5.151,5.151,5.174,5.415,0,0,0,0,0,8.141,8.436,8.56,8.623,8.623,8.753,8.819,9.024,9.313,0,9.542,9.865,10.123,10.302,10.394,10.583,10.779,10.982,11.194,11.526,11.879,12.001,12.254,12.518,12.793,12.793,12.793,12.935,12.793,12.518,12.254,12.001,11.879,11.879,11.641,11.302,11.302,11.194,11.302,11.302,11.087,11.087,10.982,10.982,10.88,10.88,10.779,10.68,10.583,10.394,10.302,10.302,10.302,10.212,10.212,10.123,10.212,10.212,10.212,10.302,10.302,10.302,10.394,10.394,10.488,10.583,10.68,10.779,10.88,11.087,11.194,11.526,11.641,11.879,12.001,12.001,12.254,12.254,12.254,12.254,12.254,12.254,12.254,12.254,12.001,12.001,12.001,11.641,11.302,11.302,11.194,10.982,10.982,10.88,10.779,10.68,10.68,10.68,10.583,10.488,10.394,10.394,10.302,10.302,0,0,0,4.426,4.41,4.41,4.41,4.426,4.41,4.41,4.41,4.426,4.46,4.477,4.512,4.53,4.565,4.583,4.601,4.638,4.657,0,0,0,0,5.543,0,5.679,0,0,6.159,6.259,6.361,0,6.768,7.415,0,8.028,8.256,8.375,8.497,8.497,8.497,8.497,8.497,8.497,8.497,8.497,8.497,8.497,8.56,8.623,8.623,8.753,8.753,8.819,8.955,9.024,9.024,9.166,9.239,9.239,9.239,9.239,9.239,9.239,9.166,9.166,9.024,9.024,8.955,8.819,8.819,8.753,8.753,8.753,8.819,8.955,9.024,9.166,9.313,9.542,9.542,9.701,9.701,9.701,9.542,9.542,9.464,9.239,9.166,8.955,8.753,8.56,8.436,8.375,8.256,8.198,8.198,8.198,8.256,8.497,8.623,8.955,9.024,9.166,9.166,9.166,9.024,8.955,9.024,8.955,8.955,8.819,8.819,8.819,8.819,8.623,8.497,8.375,8.256,8.256,8.256,8.198,8.198,8.198,8.198,8.198,8.141,8.084,8.028,7.973,7.866,7.813,7.709,7.559,7.511,7.415,7.368,7.368,7.368,7.322,7.322,7.322,7.368,7.368,7.368,7.368,7.368,7.368,7.368,7.415,7.415,7.415,7.415,7.511,0,0
5.624,5.651,5.651,5.651,5.651,5.651,5.651,5.651,5.651,5.624,5.597,5.597,5.57,5.57,5.543,5.543,5.517,5.517,5.491,5.465,5.465,5.44,5.44,5.44,5.44,5.44,5.465,5.465,5.465,5.491,5.543,5.543,5.57,5.597,5.597,5.624,5.651,5.679,5.679,5.707,5.735,5.763,5.792,5.821,5.821,5.85,5.909,5.939,5.939,6.001,6.032,6.095,6.159,6.259,6.361,6.432,6.467,6.54,6.577,6.577,6.614,6.614,6.69,6.69,6.69,6.69,6.69,6.69,6.652,6.614,6.614,6.577,6.54,6.504,6.467,6.432,6.396,6.361,6.396,6.432,6.504,6.54,6.577,6.614,6.69,6.729,6.729,6.768,6.808,6.808,6.768,6.768,6.729,6.69,6.652,6.614,6.577,6.54,6.54,6.504,6.467,0,0,0,0,0,0,0,0,0,4.583,4.46,4.376,4.28,4.249,4.188,4.114,4.014,3.946,3.92,3.88,3.868,3.868,3.855,3.855,3.855,3.855,3.855,3.855,3.855,3.855,3.855,0,0,0,0,0,0,0,0,0,0,0,0,0,6.225,0,6.327,6.361,6.327,6.225,6.001,0,0,0,0,4.028,3.868,3.817,3.78,3.731,3.696,3.661,3.649,3.627,3.615,3.593,3.582,3.593,3.661,3.743,0,3.829,3.987,0,0,4.657,5.018,5.57,5.821,0,6.159,6.259,6.361,6.396,6.432,6.432,6.467,6.432,6.467,6.432,6.432,6.396,6.361,6.259,6.159,6.127,6.095,6.032,6.032,6.001,5.939,5.939,5.939,5.939,5.909,5.85,5.821,5.792,5.763,5.735,5.735,5.707,5.707,5.707,5.707,5.707,5.735,5.735,5.735,5.792,5.792,5.821,5.821,5.85,5.909,5.909,5.939,5.939,5.939,6.001,6.001,6.032,6.032,6.032,6.095,6.095,6.127,6.127,6.159,6.259,6.259,6.361,6.396,6.396,6.432,6.432,6.467,6.432,6.432,6.432,6.432,6.432,6.396,6.396,6.327,6.327,6.327,6.225,6.127,6.095,6.001,6.001,6.001,5.939,5.939,5.939,5.909,5.909,5.85,5.821,5.792,5.735,5.707,5.679,5.651,5.624,5.597,5.597,5.57,5.57,5.57,5.57,5.57,5.57,5.57,5.543,5.543,5.543,5.543,5.543,5.491,5.415,5.34,5.268,5.244,5.174,5.106,5.106,5.106,5.151,5.174,5.268,5.415,5.543,5.597,5.679,0,5.821,6.001,6.127,6.327,6.259,6.225,6.159,5.85,5.707,5.651,5.57,5.517,5.465,5.44,5.415,5.389,5.34,5.268,5.244,5.22,5.174,5.174,5.174,5.151,5.316,5.597,0,0,0,0,8.028,8.256,8.375,8.436,8.497,8.56,8.753,8.819,9.166,9.313,0,9.701,10.036,10.212,10.394,10.583,10.68,10.88,11.194,11.526,11.641,12.001,12.254,12.518,12.793,12.793,12.935,12.935,12.935,12.935,12.793,12.793,12.793,12.793,12.518,12.384,11.641,11.526,11.526,11.302,11.194,11.087,11.087,10.982,10.88,10.779,10.68,10.488,10.394,10.302,10.212,10.036,9.95,9.783,9.783,9.783,9.783,9.865,9.865,9.95,10.123,10.212,10.302,10.394,10.488,10.583,10.68,10.88,10.982,11.302,11.526,11.641,11.879,12.254,12.254,12.384,12.384,12.518,12.518,12.518,12.518,12.518,12.518,12.518,12.518,12.254,12.254,11.526,11.302,11.087,10.88,10.779,10.68,10.68,10.583,10.583,10.583,10.394,10.394,10.302,10.302,10.302,10.212,10.212,10.123,0,4.426,4.426,4.41,4.426,4.41,4.41,4.41,4.41,4.41,4.426,4.46,4.477,4.512,4.53,4.565,4.583,4.638,4.657,4.694,4.791,0,0,0,0,0,0,0,6.001,6.127,6.159,0,0,0,0,0,0,0,8.497,8.56,8.56,8.56,8.56,8.56,8.56,8.497,8.497,8.56,8.56,8.56,8.623,8.753,8.753,8.819,8.955,9.024,9.166,9.239,9.313,9.313,9.464,9.464,9.464,9.464,9.313,9.313,9.313,9.239,9.166,9.024,8.955,8.955,8.819,8.753,8.753,8.819,8.955,8.955,9.024,9.239,9.313,9.464,9.464,9.542,9.464,9.464,9.464,9.464,9.239,9.024,8.819,8.753,8.497,8.436,8.256,8.256,8.141,8.141,0,8.256,0,0,8.753,8.819,8.955,8.955,8.819,8.819,8.753,8.623,8.56,8.497,8.497,8.497,8.436,8.375,8.315,8.256,8.198,8.198,8.141,8.084,8.084,8.084,8.084,8.084,8.084,8.028,7.973,7.973,7.813,7.709,7.559,7.511,7.368,7.322,7.231,7.186,7.186,7.186,7.186,7.186,7.186,7.186,7.186,7.186,7.231,7.231,7.231,7.231,7.322,7.322,7.322,7.322,7.368,0,0
5.651,5.651,5.651,5.651,5.651,5.651,5.651,5.651,5.624,5.597,5.57,5.57,5.543,5.543,5.517,5.465,5.465,5.44,5.415,5.389,5.389,5.34,5.34,5.34,5.389,5.34,5.389,5.415,5.44,5.44,5.491,5.517,5.543,5.57,5.597,5.597,5.624,5.651,5.679,5.679,5.679,5.707,5.735,5.763,5.763,5.763,5.792,5.821,5.85,5.909,5.939,6.001,6.032,6.127,6.259,6.327,6.432,6.467,6.54,6.54,6.577,6.614,6.652,6.652,6.69,6.69,6.69,6.69,6.69,6.652,6.614,6.614,6.577,6.54,6.54,6.467,6.467,6.467,6.504,6.504,6.54,6.577,6.614,6.69,6.729,6.768,6.808,6.888,6.929,6.929,6.929,6.848,6.848,6.768,6.729,6.69,6.652,6.614,6.577,6.54,6.54,0,0,0,0,0,0,0,0,0,4.601,4.512,4.41,4.296,4.264,4.218,4.128,4.056,3.987,3.933,3.906,3.88,3.868,3.868,3.868,3.868,3.855,3.855,3.855,3.855,3.855,0,0,0,0,0,0,0,0,0,6.127,6.127,6.127,6.159,6.225,6.327,6.327,6.361,6.396,6.396,6.396,6.361,6.225,0,0,0,0,4.085,3.906,3.829,3.767,3.707,3.696,3.649,3.627,3.627,3.615,3.593,3.593,3.627,3.672,0,3.78,3.855,0,0,0,4.81,5.244,5.624,0,5.939,6.159,6.259,6.396,6.396,6.396,6.432,6.361,6.361,6.361,6.361,6.361,6.327,6.225,6.159,6.127,6.095,6.032,6.032,6.001,6.001,5.939,5.909,5.85,5.85,5.792,5.763,5.735,5.707,5.679,5.679,5.679,5.651,5.651,5.679,5.679,5.679,5.679,5.679,5.707,5.735,5.735,5.792,5.792,5.821,5.821,5.821,5.85,5.909,5.85,5.85,5.85,5.909,5.909,5.909,5.939,6.001,6.001,6.032,6.095,6.095,6.127,6.159,6.225,6.259,6.327,6.327,6.327,6.327,6.327,6.327,6.327,6.327,6.159,6.159,6.159,6.127,6.095,6.001,5.939,5.821,5.821,5.821,5.792,5.792,5.763,5.763,5.735,5.735,5.707,5.707,5.679,5.679,5.651,5.651,5.624,5.597,5.57,5.57,5.57,5.57,5.57,5.57,5.57,5.543,5.543,5.543,5.543,5.543,5.543,5.517,5.465,5.389,5.316,5.244,5.22,5.174,5.151,5.151,5.151,5.174,5.268,5.389,5.491,5.57,5.624,5.679,0,5.735,5.821,5.939,5.909,5.85,5.792,5.735,5.651,5.597,5.57,5.543,5.491,5.465,5.44,5.415,5.389,5.316,5.268,5.268,5.244,5.244,5.22,5.22,5.268,5.597,6.032,0,0,0,7.919,8.198,8.256,8.256,8.315,8.436,8.497,8.753,8.955,9.166,9.464,0,9.783,10.123,10.302,10.394,10.583,10.779,10.982,11.194,11.526,12.001,12.254,12.384,12.518,12.518,12.793,12.793,12.793,12.793,12.518,12.793,12.793,12.935,12.793,12.518,12.518,12.518,12.254,12.254,11.879,11.302,11.302,11.194,11.087,10.88,10.68,10.488,10.394,10.302,10.123,9.865,9.542,9.313,9.313,9.313,9.313,9.313,9.464,9.701,9.95,10.212,10.302,10.394,10.488,10.68,10.779,10.982,11.194,11.526,11.641,11.879,12.254,12.384,12.384,12.518,12.793,12.793,12.793,12.935,12.935,12.793,12.793,12.793,12.518,12.384,12.001,11.302,11.087,10.88,10.68,10.583,10.583,10.488,10.394,10.394,10.302,10.302,10.212,10.212,10.123,10.123,10.036,9.95,9.542,0,4.426,4.426,4.426,4.41,4.41,4.41,4.41,4.41,4.41,4.426,4.46,4.477,4.512,4.53,4.565,4.601,4.638,4.657,4.713,4.791,4.851,0,0,0,0,0,5.821,5.909,6.032,6.032,0,0,0,0,0,0,0,8.56,8.623,8.623,8.623,8.623,8.623,8.623,8.56,8.56,8.623,8.623,8.623,8.753,8.753,8.819,8.819,8.955,9.166,9.239,9.239,9.464,9.542,9.542,9.542,9.701,9.701,9.701,9.701,9.542,9.542,9.313,9.313,9.239,9.166,9.024,9.024,9.024,9.024,9.166,9.166,9.239,9.464,9.464,9.542,9.542,9.542,9.542,9.542,9.542,9.464,9.313,9.166,8.819,8.753,8.56,8.436,8.315,8.256,8.198,8.141,0,8.256,0,0,8.753,8.819,8.955,8.955,8.819,8.819,8.56,8.497,8.436,8.315,8.256,8.256,8.256,8.256,8.198,8.198,8.084,8.084,8.084,8.028,8.028,8.028,8.028,8.028,8.028,7.973,7.973,7.866,7.761,7.559,7.511,7.368,7.231,7.186,7.186,7.055,7.055,7.055,7.055,7.055,7.098,7.055,7.098,7.098,7.055,7.055,7.098,7.098,7.186,7.186,7.186,7.186,7.186,0,0
5.651,5.651,5.651,5.651,5.651,5.651,5.624,5.624,5.597,5.57,5.57,5.543,5.543,5.491,5.44,5.44,5.389,5.389,5.34,5.34,5.316,5.268,5.268,5.268,5.316,5.316,5.316,5.34,5.389,5.44,5.465,5.517,5.543,5.57,5.597,5.597,5.624,5.651,5.651,5.679,5.679,5.679,5.707,5.735,5.735,5.735,5.763,5.763,5.763,5.792,5.821,5.85,5.939,6.032,6.127,6.159,6.327,6.396,6.467,6.504,6.577,6.577,6.614,6.614,6.652,6.652,6.69,6.652,6.652,6.614,6.614,6.577,6.577,6.54,6.504,6.504,6.467,6.504,6.54,6.54,6.577,6.614,6.69,6.69,6.768,6.848,6.929,6.971,7.055,7.055,7.055,7.055,6.971,6.929,6.848,6.808,6.768,6.69,6.652,6.614,6.614,6.577,6.577,6.577,0,0,0,0,0,4.996,4.891,4.791,4.601,4.312,4.28,4.233,4.173,4.07,3.987,3.946,3.906,3.88,3.88,3.868,3.868,3.868,3.868,3.855,3.855,3.855,3.855,0,0,0,0,0,0,0,0,6.127,6.159,6.159,6.159,6.225,6.259,6.327,6.327,6.396,6.396,6.432,6.467,6.467,6.432,6.327,6.001,0,0,0,0,3.906,3.817,3.743,3.707,3.661,3.649,3.627,3.615,3.593,3.593,3.615,3.649,3.731,0,3.817,3.933,0,4.41,0,4.851,5.268,5.597,5.735,5.85,5.821,6.127,6.032,6.225,6.225,6.259,6.327,6.259,6.327,6.327,6.259,6.225,6.159,6.159,6.095,6.095,6.032,6.001,6.001,5.939,5.85,5.821,5.792,5.763,5.735,5.679,5.679,5.679,5.651,5.651,5.651,5.651,5.651,5.651,5.651,5.651,5.651,5.679,5.679,5.707,5.735,5.735,5.763,5.792,5.792,5.792,5.792,5.792,5.821,5.792,5.792,5.821,5.821,5.821,5.85,5.821,5.85,5.909,5.909,5.939,6.001,6.032,6.095,6.127,6.127,6.127,6.159,6.159,6.159,6.159,6.127,6.095,6.032,6.001,6.001,5.939,5.909,5.821,5.763,5.792,5.763,5.735,5.735,5.707,5.707,5.679,5.679,5.679,5.679,5.651,5.651,5.651,5.624,5.597,5.597,5.57,5.57,5.57,5.57,5.57,5.57,5.543,5.543,5.543,5.543,5.543,5.543,5.543,5.543,5.491,5.415,5.34,5.316,5.244,5.22,5.174,5.151,5.174,5.22,5.316,5.34,5.44,5.517,5.57,5.597,5.651,5.679,5.707,5.707,5.679,5.679,5.651,5.651,5.597,5.57,5.57,5.543,5.543,5.517,5.517,5.491,5.44,5.44,5.389,5.34,5.34,5.316,5.268,5.34,5.44,5.679,6.159,0,0,0,7.866,8.141,8.198,8.198,8.256,8.315,8.375,8.56,8.753,8.955,9.239,9.464,0,9.865,10.123,10.302,10.394,10.583,10.779,11.087,11.302,11.879,12.001,12.254,12.254,12.518,12.518,12.935,12.793,12.935,12.935,13.229,13.229,13.229,13.229,13.229,12.793,12.935,12.518,12.518,11.879,11.879,11.526,11.526,11.194,10.779,10.583,10.302,10.212,10.036,9.701,9.239,9.024,8.623,8.623,8.753,8.753,8.955,9.024,9.313,9.701,10.123,10.302,10.394,10.583,10.779,10.88,11.194,11.526,11.879,12.001,12.254,12.384,12.518,12.793,12.793,12.935,12.935,12.935,13.229,12.935,12.935,12.793,12.793,12.518,12.384,11.879,11.194,10.982,10.779,10.583,10.488,10.394,10.394,10.302,10.302,10.212,10.212,10.123,10.123,10.036,10.036,9.95,8.56,0,0,4.46,4.46,4.41,4.426,4.41,4.41,4.41,4.41,4.41,4.426,4.46,4.477,4.512,4.53,4.583,4.601,4.657,4.694,4.713,4.791,4.851,0,0,0,0,0,5.651,0,0,0,0,0,0,0,0,0,8.56,8.623,8.753,8.753,8.753,8.753,8.753,8.623,8.623,8.623,8.623,8.753,8.753,8.753,8.819,8.819,8.955,9.024,9.239,9.313,0,9.464,9.542,9.701,9.783,9.865,9.95,9.95,9.95,9.783,9.783,9.542,9.542,9.313,9.313,9.239,9.166,9.166,9.166,9.166,9.239,9.239,9.313,9.464,9.464,9.464,9.313,9.464,9.464,9.464,9.464,9.313,9.024,8.819,8.753,8.497,8.436,8.315,8.256,8.141,8.141,0,0,0,0,0,8.753,8.819,8.819,8.753,8.497,8.436,8.375,8.315,8.256,8.198,8.198,8.198,8.198,8.141,8.084,8.084,8.028,8.028,8.028,7.973,8.028,7.973,7.973,7.973,7.919,7.866,7.761,7.659,7.511,7.415,7.368,7.231,7.186,7.098,7.055,7.055,7.055,7.055,6.971,7.055,7.055,7.055,7.055,7.055,7.055,7.055,7.055,7.055,7.055,7.098,7.098,7.186,0,0
5.651,5.679,5.651,5.651,5.651,5.651,5.624,5.597,5.597,5.57,5.543,5.543,5.465,5.44,5.389,5.34,5.316,5.316,5.268,5.244,5.244,5.22,5.22,5.22,5.244,5.268,5.316,5.34,5.389,5.44,5.465,5.517,5.543,5.57,5.597,5.597,5.651,5.651,5.679,5.679,5.679,5.707,5.707,5.707,5.707,5.707,5.707,5.735,5.735,5.735,5.763,5.792,5.821,5.909,6.001,6.095,6.225,6.259,6.396,6.467,6.54,6.54,6.577,6.614,6.614,6.614,6.614,6.652,6.652,6.614,6.614,6.577,6.577,6.54,6.54,6.504,6.504,6.54,6.54,6.577,6.614,6.652,6.729,6.768,6.808,6.929,6.971,7.098,7.186,7.231,7.231,7.231,7.186,7.186,7.055,6.929,6.888,6.808,6.729,6.69,6.69,0,6.652,6.652,0,0,0,0,0,0,5.57,5.084,4.891,4.752,4.53,4.296,4.218,4.085,4.014,3.946,3.92,3.893,3.88,3.88,3.868,3.868,3.868,3.868,3.868,3.855,3.868,0,0,0,0,0,0,0,0,6.159,6.225,6.225,6.259,6.259,6.327,6.361,6.396,6.432,6.467,6.467,6.467,6.504,6.467,6.432,6.259,6.001,5.679,5.44,0,0,3.855,3.78,3.707,3.661,3.649,3.627,3.615,3.593,3.593,3.593,3.615,3.672,3.767,0,3.842,0,0,4.53,0,4.891,5.244,5.174,5.465,5.651,5.821,0,6.095,6.127,6.159,6.159,6.225,6.225,6.259,6.225,6.225,6.225,6.159,6.159,6.127,6.095,6.032,6.001,5.939,5.909,5.821,5.792,5.735,5.707,5.679,5.651,5.651,5.651,5.624,5.624,5.624,5.651,5.651,5.651,5.651,5.651,5.679,5.679,5.679,5.735,5.735,5.763,5.763,5.763,5.763,5.763,5.763,5.763,5.763,5.792,5.763,5.763,5.763,5.763,5.763,5.792,5.792,5.821,5.85,5.909,5.909,0,6.001,6.001,6.001,6.032,6.032,6.032,6.032,6.001,5.939,5.939,5.909,5.909,5.85,5.821,5.763,5.735,5.707,5.707,5.707,5.679,5.679,5.679,5.679,5.651,5.651,5.651,5.651,5.624,5.624,5.597,5.597,5.597,5.57,5.57,5.57,5.57,5.57,5.57,5.57,5.57,5.543,5.543,5.543,5.543,5.543,5.543,5.517,5.415,5.389,5.34,5.268,5.22,5.22,5.174,5.22,5.22,5.316,5.34,5.389,5.465,5.517,5.543,5.57,5.57,5.597,5.597,5.597,5.597,5.597,5.597,5.597,0,0,0,0,5.543,5.543,5.57,5.543,5.543,5.517,5.517,5.491,5.491,5.465,0,5.597,5.821,0,0,0,0,7.866,8.141,8.198,8.198,8.256,8.256,8.315,8.436,8.497,8.623,8.955,9.166,9.464,0,9.783,10.123,10.212,10.394,10.583,10.779,11.194,11.526,11.879,12.001,12.254,12.384,12.518,12.518,12.793,12.935,13.229,13.381,13.536,13.859,13.696,13.859,13.696,13.859,13.536,13.381,12.935,12.384,12.001,11.879,11.526,10.982,10.583,10.394,10.212,9.95,9.166,8.753,8.375,8.375,8.375,8.436,8.623,0,8.819,9.239,9.783,10.212,10.583,10.68,10.88,11.302,11.641,11.879,12.254,12.384,12.518,12.518,12.793,12.935,12.793,12.935,13.229,13.229,13.229,13.229,13.229,13.229,12.935,12.935,12.518,12.254,12.001,11.087,10.88,10.68,10.583,10.488,10.394,10.302,10.302,10.212,10.212,10.212,10.123,10.036,10.036,9.783,8.436,7.973,0,0,4.477,4.46,4.426,4.426,4.426,4.41,4.41,4.41,4.41,4.426,4.46,4.477,4.512,4.53,4.583,4.601,4.657,4.713,4.732,4.771,4.83,0,0,0,5.34,0,0,0,0,0,0,0,0,0,0,0,8.753,8.753,8.753,8.753,8.753,8.753,8.753,8.753,8.623,8.623,0,8.753,8.753,8.819,8.819,8.955,9.024,9.166,9.239,9.313,0,9.542,9.701,9.783,9.95,10.036,10.036,10.123,10.036,9.95,9.865,9.783,9.783,9.701,9.542,9.464,9.313,9.313,9.313,9.313,9.239,9.239,9.313,9.313,9.464,9.464,9.313,9.313,9.313,9.313,9.313,9.239,9.024,8.819,8.753,8.56,8.436,8.315,8.198,8.084,8.084,8.198,8.256,0,8.375,8.497,8.56,8.497,8.56,8.375,8.256,8.256,8.198,8.198,8.141,8.084,8.084,8.084,8.084,8.084,8.084,8.028,8.028,8.028,7.973,7.973,7.973,7.973,7.973,7.919,7.866,7.813,7.709,7.559,7.415,7.368,7.322,7.231,7.186,7.186,7.098,7.098,7.098,7.055,7.055,7.055,7.055,7.055,6.971,6.971,6.971,6.971,6.971,7.055,7.055,7.055,7.055,7.186,0,0
5.679,5.679,5.651,5.651,5.651,5.651,5.624,5.597,5.57,5.57,5.517,5.465,5.44,5.389,5.316,5.268,5.244,5.22,5.22,5.22,5.174,5.174,5.174,5.174,5.22,5.244,5.268,5.34,5.389,5.44,5.491,5.543,5.543,5.57,5.597,5.624,5.651,5.651,5.679,5.679,5.679,5.679,5.707,5.707,5.707,5.707,5.707,5.707,5.707,5.735,5.735,5.735,5.792,5.821,5.909,6.001,6.095,6.159,6.327,6.396,6.467,6.54,6.54,6.577,6.577,6.614,6.614,6.614,6.614,6.614,6.614,6.577,6.577,6.54,6.54,6.54,6.54,6.54,6.577,6.577,6.614,6.69,6.729,6.808,6.888,6.971,7.098,7.186,7.322,7.368,7.368,7.368,7.322,7.368,7.231,7.098,7.055,6.888,6.848,6.768,6.729,6.729,6.729,6.729,0,0,0,0,0,0,0,0,0,0,0,0,4.312,4.203,4.085,3.973,3.933,3.906,3.88,3.88,3.88,3.868,3.88,3.868,3.868,3.868,0,0,0,0,0,0,0,0,0,6.259,6.259,6.259,0,6.327,6.361,6.396,6.432,6.467,6.467,6.504,6.54,6.54,6.54,6.504,6.467,6.327,6.032,5.679,5.465,0,0,3.804,3.731,3.672,3.661,3.649,3.627,3.615,3.593,3.582,3.615,3.649,3.707,0,3.804,0,0,4.085,0,0,0,0,5.151,5.543,5.679,5.939,6.032,6.095,6.127,6.159,6.159,6.225,6.225,6.225,6.225,6.225,6.159,6.127,6.127,6.127,6.032,6.032,6.001,5.909,5.821,5.792,5.735,5.679,5.679,5.651,5.651,5.624,5.624,5.624,5.624,5.624,5.651,5.651,5.651,5.651,5.679,5.679,5.679,5.707,5.707,5.735,5.735,5.763,5.763,5.735,5.735,5.735,5.735,5.735,5.735,5.707,5.707,5.707,5.707,5.763,5.763,5.792,5.792,5.821,5.85,5.909,5.909,5.85,5.909,5.909,5.909,5.909,5.909,5.909,5.85,5.821,5.821,5.821,5.792,5.763,5.735,5.679,5.679,5.679,5.679,5.679,5.679,5.679,5.651,5.651,5.651,5.651,5.651,5.624,5.624,5.597,5.597,5.597,5.57,5.57,5.57,5.57,5.57,5.57,5.57,5.57,5.57,5.57,5.543,5.543,5.543,5.543,5.517,5.44,5.389,5.34,5.316,5.244,5.22,5.22,5.22,5.244,5.316,5.389,5.415,5.465,5.517,5.57,5.57,5.597,5.624,5.624,5.624,5.624,5.624,5.624,5.597,5.597,5.597,0,0,5.651,5.679,5.679,5.679,5.679,5.651,5.679,5.679,5.651,5.679,0,0,0,0,0,0,0,7.919,8.141,8.198,8.198,8.198,8.198,8.256,8.315,8.375,8.497,8.623,8.819,9.024,9.313,0,9.783,10.036,10.212,10.394,10.583,10.88,11.194,11.641,11.641,11.879,12.001,12.384,12.518,12.793,13.229,13.381,13.696,14.026,14.372,14.372,14.372,14.372,14.372,14.372,14.197,13.696,13.381,13.229,12.793,11.879,11.302,10.68,10.488,10.302,10.212,9.783,9.464,9.024,8.753,8.436,8.56,0,8.819,9.166,9.542,10.123,10.394,10.88,11.302,11.526,12.001,12.384,12.793,12.793,12.935,13.229,13.229,13.229,12.935,12.935,12.935,12.935,12.935,12.935,12.935,13.229,12.935,12.935,12.793,12.518,12.254,11.879,11.087,10.779,10.68,10.583,10.488,10.394,10.302,10.302,10.302,10.212,10.212,10.036,9.95,9.865,9.542,8.028,0,0,0,4.477,4.46,4.46,4.46,4.426,4.426,4.426,4.41,4.426,4.426,4.46,4.477,4.512,4.565,4.583,4.638,4.657,4.713,4.732,4.732,4.771,0,0,0,0,0,0,0,0,0,0,0,0,0,0,0,8.753,8.819,8.819,8.819,8.753,8.753,8.753,8.753,8.623,8.623,8.753,8.753,8.753,8.819,0,8.955,9.024,0,9.166,9.313,9.542,9.701,9.865,9.95,10.036,10.123,10.123,10.212,10.212,10.212,10.036,9.95,9.865,9.865,9.783,9.701,9.701,9.542,9.542,9.464,9.464,9.313,9.313,9.464,9.313,9.313,9.313,9.239,9.239,9.239,9.239,9.166,8.955,8.753,8.623,8.497,8.375,8.256,8.198,8.084,8.028,8.084,8.084,8.141,8.198,8.198,8.198,8.141,8.084,8.084,8.028,7.973,7.973,7.973,7.973,7.973,8.028,8.028,8.028,8.084,8.084,8.028,8.028,8.028,7.973,7.973,7.973,7.973,7.973,7.866,7.813,7.761,7.659,7.511,7.368,7.322,7.231,7.231,7.186,7.186,7.186,7.098,7.098,7.098,7.098,7.098,7.098,7.055,7.055,6.971,6.971,6.971,6.971,6.971,7.055,7.055,7.055,7.186,0,7.231
5.651,5.651,5.651,5.651,5.624,5.624,5.597,5.597,5.57,5.543,5.517,5.44,5.415,5.34,5.268,5.244,5.22,5.174,5.174,5.151,5.151,5.106,5.106,5.151,5.22,5.244,5.316,5.389,5.415,5.465,5.517,5.543,5.57,5.57,5.597,5.624,5.651,5.651,5.651,5.679,5.679,5.679,5.679,5.707,5.707,5.707,5.707,5.707,5.707,5.735,5.735,5.735,5.763,5.792,5.85,5.939,6.032,6.127,6.259,6.361,6.432,6.54,6.54,6.577,6.577,6.577,6.577,6.614,6.614,6.577,6.577,6.577,6.54,6.54,6.54,6.54,6.54,6.54,6.577,6.614,6.652,6.69,6.768,6.848,6.929,7.055,7.186,7.322,7.368,7.368,7.415,7.415,7.415,7.368,7.322,7.231,7.098,6.971,6.888,6.808,6.768,6.729,6.768,6.768,6.808,0,0,0,0,0,0,0,0,0,0,0,0,0,0,0,3.973,3.906,3.893,3.88,3.88,3.88,3.88,3.868,3.868,3.868,0,0,0,0,0,0,0,0,6.259,6.259,6.327,6.327,6.327,6.361,6.396,6.432,6.467,6.504,6.54,6.54,6.54,6.54,6.54,6.54,6.54,6.467,6.361,6.127,5.707,4.83,0,3.829,3.731,3.672,3.661,3.649,3.627,3.615,3.593,3.593,3.593,3.615,3.627,3.661,3.731,3.804,0,3.88,4.114,4.312,0,0,4.871,5.22,5.543,5.763,5.821,5.909,6.001,6.032,6.127,6.127,6.159,6.159,6.159,6.159,6.159,6.159,6.159,6.159,6.095,6.032,6.001,5.909,5.821,5.792,5.707,5.679,5.651,5.651,5.651,5.624,5.624,5.624,5.624,5.651,5.651,5.651,5.651,5.679,5.679,5.707,5.707,5.735,5.735,5.763,5.792,5.792,5.763,5.763,5.763,5.735,5.735,5.735,5.707,5.707,5.707,5.679,5.707,5.707,5.707,5.735,5.735,5.763,5.763,5.821,5.821,5.792,5.821,5.821,5.821,5.821,5.821,5.792,5.792,5.763,5.792,5.792,5.763,5.763,5.707,5.679,5.679,5.679,5.679,5.679,5.679,5.679,5.679,5.679,5.679,5.651,5.651,5.651,5.624,5.624,5.597,5.597,5.597,5.57,5.57,5.57,5.57,5.57,5.57,5.57,5.57,5.57,5.57,5.57,5.57,5.543,5.543,5.517,5.415,5.389,5.316,5.268,5.244,5.244,5.244,5.268,5.316,5.415,5.465,5.517,5.543,5.597,5.624,5.651,5.651,5.651,5.679,5.679,5.679,5.679,5.679,5.679,5.679,5.707,5.735,5.821,5.85,5.939,5.909,5.909,5.909,5.939,6.001,5.939,6.032,6.159,0,6.396,6.614,0,0,0,7.973,8.084,8.198,8.198,8.198,8.198,8.198,8.256,8.256,8.315,8.436,8.56,8.753,9.024,9.239,9.701,0,9.95,10.212,10.394,10.583,10.982,11.194,11.526,11.526,11.641,11.879,12.254,12.518,13.229,13.536,13.696,14.197,0,0,0,0,0,0,0,14.197,13.696,13.381,12.935,12.254,11.526,10.982,10.583,10.394,10.302,10.036,9.701,9.313,9.166,9.166,9.239,9.542,9.865,9.783,10.123,10.394,10.779,11.526,12.001,12.254,12.793,13.229,13.229,13.381,13.381,13.381,13.381,13.381,13.381,13.229,12.935,12.935,12.935,12.793,12.935,12.793,12.793,12.793,12.518,12.384,12.254,11.879,11.194,10.982,10.779,10.68,10.583,10.488,10.394,10.394,10.302,10.212,10.212,9.95,9.783,9.783,8.141,7.368,0,0,4.694,4.53,4.512,4.477,4.46,4.46,4.46,4.426,4.426,4.426,4.46,4.477,4.512,4.53,4.565,4.583,4.638,4.694,4.713,4.732,4.752,4.771,4.83,0,0,0,0,0,0,0,0,0,0,0,0,0,0,0,8.819,8.819,8.819,8.753,8.753,8.753,8.623,8.623,8.623,8.753,8.753,8.819,8.819,0,8.955,9.024,9.166,9.239,9.464,9.701,9.783,9.95,10.036,10.123,10.212,10.212,10.212,10.212,10.212,10.123,10.123,9.95,9.95,9.95,9.865,9.783,9.783,9.783,9.701,9.542,9.464,9.464,9.464,9.313,9.239,9.239,9.239,9.239,9.239,9.239,9.166,8.955,8.819,8.623,8.56,8.436,8.256,8.084,8.084,7.973,7.973,7.973,7.973,7.919,7.919,7.866,7.813,7.761,7.761,7.659,7.559,7.659,7.709,7.709,7.813,7.919,7.973,8.028,8.028,8.084,8.084,8.084,8.084,8.028,8.028,8.028,7.973,7.973,7.973,7.866,7.761,7.659,7.511,7.368,7.322,7.322,7.231,7.231,7.231,7.231,7.186,7.186,7.186,7.186,7.186,7.186,7.098,7.098,7.098,7.098,7.098,7.055,7.098,7.055,7.186,7.186,7.231,0,7.368
5.624,5.624,5.624,5.597,5.597,5.597,5.597,5.597,5.57,5.543,5.465,5.44,5.415,5.316,5.244,5.22,5.174,5.151,5.151,5.106,5.106,5.106,5.151,5.174,5.244,5.316,5.34,5.389,5.465,5.517,5.543,5.57,5.57,5.57,5.597,5.624,5.651,5.651,5.651,5.679,5.679,5.679,5.707,5.707,5.735,5.735,5.735,5.735,5.763,5.763,5.763,5.763,5.763,5.792,5.85,5.909,6.001,6.127,6.225,6.361,6.432,6.504,6.54,6.54,6.577,6.577,6.577,6.577,6.577,6.54,6.54,6.54,6.54,6.54,6.54,6.54,6.54,6.54,6.577,6.614,6.652,6.729,6.768,6.888,6.971,7.098,7.231,7.322,7.415,7.415,7.511,7.511,7.511,7.415,7.368,7.322,7.098,7.055,6.929,6.848,6.808,6.768,6.768,6.768,6.848,6.888,6.888,6.888,6.808,6.729,6.614,0,0,0,0,0,0,0,0,0,0,3.92,3.906,3.893,3.893,3.88,3.88,3.88,3.88,3.88,0,0,0,0,0,0,0,0,6.361,6.361,6.396,6.396,6.396,6.432,6.432,6.467,6.504,6.54,6.54,6.577,6.577,6.577,6.577,6.577,6.577,6.54,6.54,6.432,6.159,5.679,0,0,3.731,3.672,3.672,3.649,3.649,3.615,3.593,3.593,3.582,3.593,3.593,3.593,3.627,3.696,3.804,0,3.893,4.158,0,0,4.732,5.018,5.465,5.679,5.763,5.792,5.85,5.939,6.032,6.032,6.095,6.127,6.127,6.159,6.159,6.159,6.225,6.159,6.127,6.095,6.032,5.939,5.85,5.792,5.735,5.707,5.679,5.679,5.651,5.651,5.651,5.651,5.651,5.651,5.679,5.679,5.679,5.707,5.735,5.735,5.763,5.792,5.792,5.792,5.792,5.792,5.792,5.792,5.792,5.763,5.763,5.763,5.735,5.707,5.707,5.679,5.679,5.679,5.679,5.679,5.707,5.735,5.735,5.763,5.792,5.792,5.792,5.763,5.763,5.792,5.763,5.763,5.735,5.735,5.735,5.735,5.735,5.707,5.707,5.679,5.679,5.679,5.679,5.679,5.679,5.679,5.679,5.679,5.679,5.679,5.651,5.651,5.651,5.624,5.624,5.597,5.597,5.57,5.57,5.57,5.57,5.57,5.57,5.57,5.57,5.57,5.57,5.57,5.57,5.57,5.543,5.543,5.44,5.44,5.389,5.34,5.316,5.268,5.268,5.34,5.415,5.465,5.543,5.57,5.597,5.651,5.679,5.679,5.707,5.735,5.735,5.707,5.735,5.735,5.735,5.735,5.792,5.85,5.909,0,6.032,6.127,6.159,6.225,6.259,6.259,6.327,6.327,6.361,6.432,6.54,6.614,6.768,0,7.511,7.761,7.973,8.084,8.141,8.141,8.141,8.141,8.198,8.198,8.198,8.256,8.256,8.315,8.436,8.56,8.819,9.166,9.464,0,9.865,10.123,10.302,10.583,10.68,10.779,10.88,11.194,11.302,11.879,12.384,12.935,13.536,14.026,14.372,0,0,0,0,0,0,0,0,13.859,13.696,13.381,12.935,11.879,11.087,10.68,10.583,10.394,10.212,9.95,9.701,9.464,9.542,9.701,9.95,10.123,10.302,0,0,11.879,12.793,12.793,12.935,13.381,13.536,13.536,13.696,13.696,13.536,13.381,13.381,13.381,12.935,12.793,12.793,12.793,12.793,12.793,12.518,12.793,12.518,12.384,12.384,12.254,12.001,11.879,11.194,11.087,10.88,10.779,10.68,10.583,10.394,10.394,10.302,10.123,9.95,9.701,8.256,0,0,0,4.81,4.657,4.565,4.53,4.477,4.477,4.477,4.46,4.46,4.46,4.46,4.477,4.477,4.512,4.53,4.565,4.601,4.638,4.694,4.732,4.732,4.771,4.791,4.81,0,0,0,0,0,0,0,0,0,0,0,0,0,0,0,0,8.819,8.819,8.753,8.753,8.623,8.623,8.623,8.623,8.623,0,8.753,8.819,8.819,8.955,9.024,0,9.239,9.464,9.542,9.783,9.95,10.036,10.212,10.212,10.302,10.302,10.212,10.212,10.212,10.212,10.123,10.123,10.036,9.95,10.036,9.865,9.783,9.701,9.464,9.464,9.313,9.313,9.239,9.166,9.166,9.166,9.024,9.024,9.166,9.024,8.955,8.753,8.623,8.56,8.436,8.315,8.084,8.028,7.919,7.866,7.709,7.559,7.415,7.368,7.231,7.231,7.186,7.186,7.055,7.098,7.186,7.231,7.368,7.511,7.709,7.761,7.919,8.028,8.084,8.084,8.084,8.141,8.141,8.198,8.198,8.141,8.084,8.028,7.973,7.866,7.813,7.559,7.415,7.368,7.368,7.322,7.368,7.322,7.322,7.231,7.231,7.231,7.231,7.231,7.231,7.186,7.186,7.186,7.231,7.186,7.186,7.231,7.231,7.322,7.322,7.368,7.415,7.511
5.597,5.597,5.597,5.597,5.597,5.597,5.597,5.57,5.57,5.543,5.465,5.44,5.415,5.34,5.316,5.244,5.22,5.22,5.22,5.174,5.174,5.174,5.22,5.244,5.316,5.34,5.415,5.465,5.517,5.543,5.57,5.57,5.597,5.597,5.597,5.624,5.651,5.651,5.651,5.651,5.679,5.679,5.707,5.707,5.735,5.735,5.763,5.763,5.792,5.792,5.792,5.792,5.792,5.821,5.909,5.939,6.032,6.127,6.225,6.361,6.396,6.504,6.54,6.54,6.54,6.577,6.577,6.577,6.577,6.54,6.54,6.504,6.504,6.467,6.504,6.504,6.504,6.54,6.54,6.577,6.614,6.69,6.768,6.848,6.971,7.098,7.231,7.368,7.415,7.511,7.559,7.559,7.559,7.511,7.415,7.322,7.186,7.098,6.971,6.888,6.848,6.808,6.808,6.808,6.848,6.888,6.971,6.971,6.971,6.971,6.848,6.729,6.69,6.614,6.467,0,0,0,0,0,0,3.92,3.906,3.906,3.906,3.906,3.88,3.88,3.88,3.88,0,0,0,0,0,0,0,0,6.396,6.396,6.432,6.432,6.467,6.467,6.504,6.54,6.54,6.577,6.577,6.614,6.614,6.614,6.614,6.614,6.577,6.577,6.54,6.54,6.432,6.001,0,0,3.804,3.707,3.696,3.672,3.661,3.627,3.615,3.593,3.582,3.582,3.56,3.549,3.56,3.593,3.696,3.804,0,3.92,4.203,0,0,0,5.268,5.597,5.679,5.735,5.792,5.909,5.939,6.032,6.032,6.127,6.127,6.159,6.159,6.225,6.225,6.225,6.159,6.127,6.095,6.001,5.909,5.821,5.792,5.735,5.679,5.679,5.679,5.679,5.651,5.651,5.651,5.679,5.679,5.679,5.707,5.735,5.763,5.792,5.821,5.821,5.85,5.85,5.85,5.85,5.821,5.821,5.821,5.821,5.821,5.792,5.792,5.735,5.707,5.707,5.679,5.679,5.679,5.679,5.707,5.707,5.735,5.735,5.735,5.735,5.735,5.735,5.735,5.735,5.735,5.707,5.679,5.707,5.679,5.707,5.707,5.679,5.679,5.679,5.679,5.707,5.707,5.735,5.735,5.707,5.707,5.707,5.707,5.679,5.679,5.679,5.651,5.651,5.624,5.597,5.597,5.597,5.57,5.57,5.597,5.597,5.597,5.597,5.597,5.597,5.597,5.597,5.597,5.597,5.57,5.543,5.517,5.465,5.44,5.389,5.34,5.316,5.34,5.415,5.465,5.543,5.57,5.597,5.651,5.679,0,5.735,5.763,5.792,5.792,5.792,5.792,5.821,5.85,5.85,0,5.909,6.032,6.095,6.159,6.259,6.361,6.396,6.396,6.467,6.504,6.54,6.54,6.577,6.614,6.729,6.929,0,7.511,7.761,7.919,8.028,8.084,8.084,8.084,8.084,8.084,8.141,8.141,8.198,8.198,8.198,8.256,8.315,8.436,8.623,8.819,9.166,9.542,0,9.95,10.212,10.394,10.488,10.583,10.779,11.087,11.641,12.384,13.229,13.696,14.197,14.552,14.925,14.925,15.119,15.119,15.119,14.925,14.736,14.372,14.197,14.026,13.696,13.381,12.001,11.302,10.88,10.68,10.488,10.302,10.212,9.95,9.783,9.865,9.95,0,0,10.488,0,11.087,12.001,13.229,13.381,13.536,13.859,14.026,13.859,13.859,13.696,13.536,13.381,13.381,13.381,12.935,12.793,12.793,12.518,12.518,12.793,12.518,12.518,12.518,12.518,12.384,12.384,12.254,12.001,11.879,11.302,11.087,10.88,10.779,10.68,10.583,10.488,10.302,0,9.701,9.313,8.56,0,0,5.106,4.771,4.601,4.565,4.53,4.512,4.512,4.477,4.477,4.477,4.477,4.477,4.512,4.512,4.53,4.565,4.583,4.638,4.657,4.694,4.732,4.752,4.771,4.791,4.81,0,0,0,0,0,0,0,0,0,0,0,0,0,0,0,8.955,8.955,8.819,8.753,8.753,8.623,8.56,8.56,8.56,8.623,8.623,8.753,8.753,8.819,8.819,9.024,0,9.166,9.313,9.542,9.783,9.95,10.036,10.212,10.212,10.302,10.302,10.302,10.212,10.212,10.212,10.212,10.036,10.036,9.95,9.865,9.865,9.542,9.313,9.239,9.166,9.166,9.024,9.024,8.955,8.819,8.819,8.819,8.819,8.819,8.819,8.753,8.623,8.56,8.497,8.436,8.315,8.084,8.028,7.866,7.709,7.511,7.231,7.055,6.888,6.848,6.808,6.768,6.729,6.729,6.729,6.768,6.848,6.929,7.055,7.231,7.368,7.709,7.813,7.973,8.028,8.141,8.198,8.256,8.256,8.256,8.256,8.198,8.084,8.028,8.028,7.919,7.659,7.511,7.415,7.415,7.368,7.368,7.368,7.322,7.322,7.322,7.322,7.322,7.322,7.231,7.322,7.322,7.322,7.322,7.368,7.368,7.368,7.368,7.415,7.415,7.511,0,0
5.57,5.57,5.57,5.57,5.57,5.57,5.57,5.57,5.543,5.543,5.517,5.465,5.44,5.389,5.316,5.316,5.268,5.268,5.244,5.244,5.244,5.268,5.268,5.34,5.415,5.44,5.491,5.517,5.543,5.57,5.597,5.597,5.597,5.597,5.624,5.651,5.651,5.651,5.651,5.679,5.679,5.679,5.707,5.735,5.763,5.763,5.792,5.821,5.821,5.821,5.821,5.85,5.85,5.85,5.909,5.939,6.032,6.127,6.259,6.361,6.432,6.467,6.54,6.54,6.54,6.54,6.54,6.54,6.54,6.54,6.504,6.467,6.467,6.432,6.432,6.432,6.467,6.504,6.54,6.577,6.614,6.69,6.729,6.848,6.929,7.055,7.231,7.368,7.415,7.511,7.559,7.559,7.559,7.559,7.415,7.368,7.231,7.098,7.055,6.929,6.888,6.848,6.808,6.848,6.888,6.929,6.971,7.055,7.098,7.098,7.098,7.098,6.971,6.848,6.729,6.614,6.54,0,0,0,0,0,3.906,3.906,3.906,3.893,3.893,3.893,3.88,3.893,0,0,0,0,0,0,0,6.396,6.396,6.432,6.467,6.467,6.504,6.54,6.54,6.54,6.577,6.577,6.614,6.614,6.652,6.652,6.652,6.614,6.614,6.577,6.577,6.577,6.504,6.327,0,0,3.804,3.731,3.707,3.696,3.672,3.649,3.615,3.615,3.582,3.56,3.549,3.549,3.538,3.549,3.649,3.743,3.829,0,4.014,4.28,0,0,4.996,5.517,5.597,5.679,5.735,5.821,5.85,5.939,6.001,6.032,6.127,6.127,6.159,6.225,6.259,6.225,6.159,6.127,6.127,6.032,5.939,5.85,5.792,5.763,5.735,5.707,5.679,5.679,5.679,5.679,5.679,5.679,5.707,5.735,5.763,5.763,5.821,5.85,5.909,5.909,5.939,5.939,6.001,6.001,5.939,5.939,5.909,5.85,5.85,5.85,5.85,5.763,5.763,5.735,5.707,5.707,5.679,5.679,5.679,5.707,5.707,5.735,5.735,5.735,5.735,5.735,5.735,5.707,5.707,5.707,5.679,5.679,5.679,5.679,5.679,5.707,5.707,5.707,5.735,5.735,5.735,5.763,5.763,5.735,5.735,5.735,5.707,5.707,5.679,5.679,5.651,5.651,5.651,5.624,5.597,5.597,5.597,5.597,5.597,5.597,5.597,5.597,5.597,5.624,5.624,5.624,5.624,5.597,5.597,5.57,5.543,5.517,5.517,5.465,5.44,5.415,5.44,5.491,5.543,5.57,5.597,0,5.651,5.679,5.735,5.792,5.821,5.85,5.85,5.85,5.85,5.85,5.909,5.909,5.909,6.001,6.032,6.127,6.259,6.396,6.432,6.504,6.54,6.54,6.577,6.577,6.614,6.614,6.69,6.768,6.929,7.186,7.368,7.511,7.761,7.919,7.973,7.973,8.028,8.028,8.028,8.028,8.028,8.028,8.028,8.084,8.084,8.141,8.198,8.256,8.375,8.56,8.955,9.239,9.701,10.036,0,10.212,10.394,10.583,10.779,11.302,12.254,12.935,13.536,14.197,14.372,14.736,14.925,15.119,14.925,14.925,14.925,14.552,14.372,14.197,14.026,13.696,13.229,12.001,11.302,10.982,10.68,10.583,10.394,10.302,10.212,10.123,10.123,10.212,10.302,10.394,10.68,10.982,11.526,12.384,13.229,13.536,13.696,13.696,13.859,14.026,13.859,13.696,13.536,13.536,13.229,12.935,12.518,12.518,12.384,12.254,12.254,12.254,12.254,12.384,12.384,12.518,12.518,12.384,12.518,12.384,12.001,11.879,11.302,11.087,10.982,10.779,10.68,10.583,10.302,9.95,9.166,8.084,6.971,6.432,0,4.83,4.713,4.638,4.583,4.565,4.53,4.512,4.512,4.512,4.512,4.512,4.512,4.53,4.565,4.565,4.583,4.601,4.657,4.694,4.713,4.752,4.752,4.771,4.791,4.791,0,0,0,0,0,0,0,0,0,0,0,0,0,0,0,9.024,8.955,8.819,8.753,8.623,8.623,8.56,8.56,8.497,8.56,8.56,8.56,8.623,8.753,8.753,8.819,9.024,0,9.239,9.464,9.542,9.783,9.95,10.123,10.212,10.212,10.302,10.212,10.212,10.212,10.212,10.123,10.036,9.95,9.865,9.783,9.542,9.464,9.239,8.955,8.819,8.819,8.819,8.753,8.753,8.623,8.623,8.623,8.623,8.753,8.753,8.623,8.623,8.56,8.497,8.436,8.315,8.084,8.028,7.866,7.709,7.368,7.186,6.971,6.808,6.729,6.69,6.69,6.652,6.652,6.69,6.69,6.729,6.729,6.848,6.971,7.098,7.415,7.761,7.919,8.028,8.198,8.315,8.497,8.497,8.497,8.436,8.375,8.256,8.198,8.141,7.973,7.761,7.559,7.511,7.511,7.511,7.415,7.415,7.415,7.368,7.368,7.368,7.368,7.322,7.322,7.322,7.322,7.322,7.368,7.368,7.368,7.415,7.415,7.415,7.415,7.511,0,0
5.543,5.543,5.543,5.543,5.57,5.57,5.57,5.57,5.57,5.543,5.517,5.517,5.465,5.44,5.389,5.389,5.34,5.34,5.34,5.34,5.34,5.389,5.415,5.44,5.491,5.543,5.543,5.57,5.597,5.597,5.624,5.624,5.624,5.624,5.624,5.651,5.651,5.651,5.679,5.679,5.679,5.707,5.735,5.763,5.792,5.821,5.85,5.85,5.909,5.909,5.909,5.909,5.939,5.939,6.001,6.001,6.095,6.159,6.259,6.361,6.432,6.467,6.54,6.54,6.54,6.54,6.54,6.54,6.504,6.504,6.467,6.467,6.432,6.396,6.396,6.432,6.432,6.467,6.54,6.54,6.614,6.652,6.729,6.768,6.888,6.971,7.098,7.231,7.322,7.368,7.415,7.415,7.415,7.415,7.368,7.322,7.231,7.098,7.055,6.929,6.888,6.848,6.808,6.848,6.848,6.888,6.929,6.971,7.055,7.098,7.055,6.971,6.929,6.888,6.848,6.808,6.729,6.729,6.614,0,0,0,0,3.906,3.893,3.906,3.893,3.893,3.893,3.893,0,0,0,0,0,5.939,0,6.327,6.432,6.432,6.467,6.504,6.54,6.54,6.577,6.577,6.577,6.614,6.614,6.652,6.69,6.69,6.69,6.69,6.614,6.614,6.577,6.504,6.327,6.032,0,0,3.817,3.755,3.755,3.707,3.696,3.661,3.649,3.615,3.582,3.549,3.538,3.528,3.538,3.538,3.593,3.672,3.804,3.893,0,4.158,4.393,0,4.81,5.22,5.415,5.57,5.651,5.707,5.821,5.821,5.909,6.001,6.001,6.095,6.127,6.159,6.225,6.225,6.159,6.159,6.127,6.032,5.939,5.909,5.85,5.792,5.763,5.735,5.735,5.707,5.707,5.735,5.735,5.735,5.763,5.763,5.792,5.85,5.909,5.939,6.001,6.032,6.032,6.095,6.095,6.095,6.032,6.032,6.032,6.001,6.001,5.939,5.909,5.85,5.792,5.763,5.735,5.735,5.735,5.707,5.707,5.735,5.735,5.735,5.735,5.763,5.735,5.735,5.735,5.707,5.735,5.707,5.707,5.707,5.707,5.735,5.735,5.735,5.763,5.763,5.763,5.763,5.763,5.792,5.792,5.763,5.763,5.763,5.735,5.735,5.707,5.679,5.679,5.651,5.651,5.651,5.624,5.597,5.597,5.597,5.597,5.597,5.624,5.624,5.624,5.651,5.651,5.651,5.651,5.651,5.624,5.597,5.57,5.543,5.543,5.543,5.491,5.465,5.517,5.543,5.57,5.597,0,5.651,5.679,5.707,5.792,5.821,5.85,5.909,5.909,5.939,5.939,5.909,5.939,6.001,6.001,6.032,6.095,6.159,6.361,6.467,6.504,6.54,6.577,6.614,6.614,6.652,6.652,6.652,6.69,6.768,6.888,6.971,7.098,7.322,7.511,7.709,7.813,7.866,7.866,7.919,7.919,7.973,7.973,7.973,7.973,7.973,8.028,8.028,8.084,8.084,8.198,8.256,8.436,8.623,9.166,9.464,9.865,0,10.212,10.394,10.68,11.087,11.879,12.935,13.536,13.859,14.372,14.552,14.736,14.925,14.925,14.736,14.552,14.372,14.197,14.026,13.696,13.229,12.793,11.879,11.302,10.982,10.68,10.583,10.488,10.394,10.302,10.302,10.302,10.394,10.488,10.583,10.779,11.194,11.641,12.254,12.793,13.229,13.381,13.536,13.696,13.696,13.536,13.381,13.229,12.793,12.518,12.254,12.001,12.254,12.001,12.001,12.001,12.001,12.001,12.254,12.254,12.384,12.384,12.518,12.384,12.384,12.384,12.254,11.879,11.302,11.194,11.087,10.779,10.68,10.394,9.701,8.753,7.709,5.792,5.491,0,4.771,4.694,4.638,4.601,4.565,4.53,4.53,4.512,4.512,4.512,4.512,4.512,4.53,4.565,4.583,4.601,4.638,4.657,4.713,4.732,4.752,4.771,4.791,4.771,4.81,0,0,0,0,0,0,0,0,0,0,0,0,0,0,0,9.024,8.955,8.819,8.623,8.623,8.56,8.497,8.436,8.497,8.497,8.497,8.497,8.56,8.56,8.623,8.623,8.819,9.024,0,9.239,9.464,9.542,9.783,9.95,10.036,10.123,10.212,10.212,10.123,10.123,10.036,10.036,9.95,9.865,9.783,9.701,9.464,9.239,8.819,8.623,8.497,8.497,8.436,8.436,8.375,8.375,8.375,8.497,8.56,8.56,8.56,8.56,8.56,8.497,8.497,8.436,8.315,8.256,8.028,7.866,7.709,7.368,7.055,6.848,6.729,6.69,6.614,6.577,6.577,6.577,6.577,6.577,6.614,6.652,6.69,6.768,6.888,7.098,7.415,7.761,7.973,8.084,8.256,8.623,8.819,8.955,9.024,9.024,8.819,0,0,0,0,0,7.709,7.559,7.511,7.511,7.511,7.415,7.415,7.368,7.368,7.368,7.368,7.322,7.322,7.368,7.322,7.322,7.322,7.368,7.368,7.368,7.415,7.415,0,0,0
5.465,5.491,5.517,5.543,5.543,5.543,5.57,5.57,5.57,5.543,5.543,5.517,5.491,5.465,5.44,5.44,5.44,5.44,5.44,5.44,5.465,5.465,5.517,5.543,5.57,5.597,5.597,5.624,5.651,5.651,5.651,5.651,5.651,5.651,5.651,5.651,5.651,5.651,5.679,5.679,5.707,5.735,5.763,5.792,5.821,5.821,5.85,5.939,5.939,5.939,6.001,6.001,6.001,6.032,6.095,6.095,6.127,6.225,6.327,6.396,6.432,6.504,6.504,6.54,6.54,6.54,6.54,6.504,6.504,6.467,6.467,6.432,6.396,6.396,6.396,6.396,6.432,6.467,6.504,6.54,6.577,6.614,6.69,6.729,6.808,6.888,6.971,7.098,7.186,7.231,7.231,7.322,7.322,7.322,7.231,7.186,7.098,7.055,6.971,6.888,6.848,6.808,6.768,6.808,6.808,6.888,6.888,6.929,6.971,6.971,6.971,6.929,6.848,6.808,6.768,6.729,6.729,6.69,6.69,0,0,0,0,0,3.906,3.906,3.893,3.893,3.906,3.906,0,0,0,0,0,5.491,5.679,5.939,6.127,6.259,0,6.327,6.432,6.54,6.577,6.577,6.577,6.614,6.614,6.69,6.69,6.729,6.729,6.69,6.652,6.614,6.432,6.225,5.939,5.244,0,0,0,3.78,3.767,3.755,3.707,3.672,3.649,3.627,3.582,3.549,3.538,3.517,3.517,3.528,3.582,0,0,0,0,4.028,4.28,4.601,0,4.912,5.106,5.415,5.57,5.679,5.735,5.792,5.821,5.85,5.939,6.032,6.095,6.127,6.159,6.159,6.127,6.127,6.127,6.032,6.001,5.909,5.909,5.821,5.821,5.821,5.792,5.792,5.792,5.792,5.763,5.792,5.821,5.821,5.85,5.939,6.001,6.032,6.095,6.127,6.159,6.159,6.225,6.225,6.159,6.159,6.159,6.127,6.127,6.095,6.032,6.001,5.939,5.821,5.821,5.763,5.763,5.763,5.763,5.792,5.792,5.763,5.763,5.763,5.763,5.763,5.735,5.735,5.735,5.735,5.735,5.735,5.735,5.735,5.763,5.792,5.792,5.792,5.792,5.821,5.821,5.821,5.821,5.821,5.792,5.792,5.763,5.763,5.735,5.707,5.679,5.679,5.679,5.651,5.651,5.624,5.624,5.624,5.624,5.651,5.651,5.651,5.651,5.651,5.679,5.679,5.679,5.651,5.651,5.624,5.597,5.57,5.57,5.57,5.543,5.543,5.543,0,5.57,5.597,5.651,5.679,5.707,5.763,5.821,5.85,5.939,5.939,6.001,5.939,6.001,6.001,6.001,6.032,6.095,6.127,6.225,6.327,6.432,6.54,6.577,6.614,6.614,6.69,6.69,6.69,6.69,6.69,6.729,6.808,6.888,6.929,7.055,7.186,7.322,7.511,7.659,7.709,7.709,7.761,7.813,7.866,7.866,7.919,7.919,7.919,7.973,7.973,8.028,8.028,8.084,8.198,8.256,8.497,8.819,9.239,9.542,10.036,0,10.302,10.583,11.087,12.001,12.935,13.696,14.026,14.372,14.552,14.736,14.925,14.925,14.552,14.552,14.372,14.197,13.859,13.536,13.229,12.518,11.879,11.302,11.087,10.88,10.779,10.68,10.583,10.583,10.583,10.583,10.68,10.68,10.779,10.982,11.302,11.641,12.254,12.384,12.793,13.229,13.536,13.536,13.696,13.381,13.381,12.935,12.518,12.254,12.001,11.641,11.302,11.302,11.302,11.526,11.526,11.641,12.001,12.001,12.254,12.384,12.384,12.384,12.518,12.518,12.384,12.254,11.879,11.526,11.302,10.982,10.68,10.394,9.542,8.436,8.141,6.095,0,4.933,4.752,4.694,4.657,4.601,4.583,4.565,4.53,4.53,4.53,4.53,4.53,4.565,4.565,4.583,4.601,4.638,4.657,4.713,4.732,4.752,4.771,4.791,4.791,4.81,4.81,0,0,0,0,0,0,0,0,0,0,0,0,0,9.464,9.313,9.166,8.955,8.819,8.753,8.56,8.497,8.497,8.375,8.436,8.436,8.375,8.436,8.436,8.436,8.497,8.497,8.623,8.819,8.955,9.166,9.313,0,9.542,9.701,9.783,9.95,9.865,9.865,9.865,9.865,9.865,9.783,9.542,9.464,9.239,9.024,8.819,8.56,8.256,8.198,8.198,8.141,8.084,8.141,8.141,8.198,8.198,8.256,8.375,8.436,8.436,8.497,8.56,8.497,8.436,8.436,8.315,8.256,8.028,7.866,7.709,7.322,6.971,6.768,6.69,6.614,6.577,6.54,6.54,6.504,6.54,6.54,6.54,6.577,6.614,6.652,6.729,6.808,6.971,7.322,7.659,7.866,8.084,8.436,8.753,0,9.166,9.313,9.464,9.542,0,0,0,0,0,0,7.659,7.559,7.511,7.511,7.511,7.415,7.415,7.368,7.368,7.368,7.322,7.322,7.322,7.322,7.368,7.322,7.368,7.368,7.415,7.511,0,0,0
5.415,5.44,5.465,5.491,5.543,5.543,5.57,5.57,5.57,5.57,5.57,5.57,5.543,5.543,5.491,5.491,5.491,5.491,5.517,5.543,5.543,5.57,5.57,5.597,5.651,5.651,5.679,5.679,5.679,5.679,5.679,5.651,5.651,5.651,5.651,5.651,5.651,5.651,5.651,5.679,5.679,5.707,5.763,5.763,5.821,5.85,5.909,6.001,6.032,6.032,6.095,6.095,6.127,6.127,6.127,6.127,6.159,6.259,6.327,6.396,6.432,6.467,6.54,6.54,6.54,6.54,6.504,6.504,6.467,6.432,6.432,6.396,6.361,6.361,6.361,6.361,6.396,6.432,6.467,6.504,6.54,6.577,6.614,6.69,6.729,6.768,6.848,6.929,6.971,7.055,7.098,7.098,7.098,7.098,7.098,7.055,6.971,6.929,6.888,6.808,6.808,6.729,6.729,6.729,6.768,6.808,6.848,6.848,6.888,6.888,6.888,6.848,6.808,6.768,6.729,6.729,6.69,6.69,6.652,0,0,0,0,0,3.893,3.893,3.893,3.893,3.893,3.893,0,0,0,0,0,4.933,5.268,5.57,5.679,5.821,5.939,6.159,6.361,6.225,6.396,6.577,6.54,6.614,6.614,6.69,6.69,6.69,6.729,6.729,6.69,6.54,6.225,5.679,5.268,4.851,0,0,0,3.804,3.792,3.767,3.731,3.672,3.649,3.627,3.582,3.549,3.528,3.506,3.506,3.517,3.549,3.615,0,0,0,0,4.173,4.36,0,0,4.891,5.084,5.415,5.597,5.679,5.707,5.735,5.821,5.909,5.939,6.001,6.032,6.095,6.127,6.127,6.127,6.127,6.095,6.001,5.939,5.909,5.909,5.909,5.85,5.821,5.821,5.85,5.85,5.85,5.821,5.85,5.85,5.909,6.001,6.032,6.095,6.127,6.225,6.225,6.259,6.327,6.327,6.259,6.259,6.259,6.259,6.225,6.159,6.159,6.095,6.095,6.001,5.939,5.85,0,5.85,5.85,5.85,5.821,5.85,5.792,5.792,5.792,5.763,5.763,5.763,5.763,5.763,5.763,5.763,5.763,5.763,5.792,5.792,5.821,5.792,5.821,5.821,5.85,5.821,5.821,5.821,5.821,5.792,5.792,5.763,5.735,5.735,5.707,5.679,5.679,5.679,5.651,5.651,5.651,5.651,5.651,5.651,5.651,5.679,5.679,5.679,5.679,5.679,5.679,5.679,5.679,5.651,5.651,5.597,5.597,5.597,5.597,5.57,5.57,5.597,5.597,5.651,5.679,5.679,5.763,5.792,5.85,5.909,5.939,6.001,6.001,6.032,6.032,6.032,6.032,6.095,6.159,6.225,6.361,6.432,6.54,6.577,6.614,6.614,6.69,6.69,6.729,6.729,6.729,6.729,6.729,6.768,6.808,6.848,6.888,6.971,7.098,7.231,7.368,7.415,7.511,7.559,7.659,7.761,7.761,7.813,7.813,7.866,7.866,7.973,7.973,8.028,8.028,8.141,8.256,8.375,8.623,9.024,9.313,9.865,0,10.302,10.488,10.982,11.879,12.793,13.536,14.026,14.372,14.552,14.552,14.736,14.736,14.552,14.372,14.372,14.026,13.696,13.381,12.793,12.384,11.879,11.526,11.302,11.087,11.087,10.982,10.982,10.88,10.982,10.982,10.982,10.982,11.087,11.194,11.526,11.641,12.001,12.254,12.384,12.793,13.229,13.229,13.381,12.935,12.793,12.384,12.001,11.641,11.526,11.302,11.194,11.194,11.194,11.194,11.194,11.302,11.526,11.879,12.001,12.254,12.384,12.384,12.518,12.518,12.384,12.384,12.001,11.641,11.302,11.087,10.88,10.302,9.464,0,5.763,5.44,0,4.912,4.771,4.694,4.657,4.638,4.583,4.583,4.565,4.565,4.53,4.53,4.53,4.565,4.583,4.601,4.638,4.657,4.713,4.732,4.752,4.771,4.791,4.791,4.81,4.81,4.81,0,0,0,0,0,0,0,0,0,0,0,9.783,9.701,9.542,9.313,9.166,9.024,8.819,8.623,8.56,8.497,8.436,8.315,8.315,8.315,8.315,8.315,8.315,8.315,8.375,8.375,8.436,8.56,8.623,8.819,9.024,9.024,9.239,9.313,9.313,9.464,9.464,9.464,9.464,9.542,9.542,9.313,9.239,8.955,8.623,8.497,8.256,8.198,8.028,7.919,7.919,7.919,7.919,7.973,7.973,8.028,8.084,8.141,8.256,8.256,8.375,8.436,8.436,8.497,8.436,8.436,8.315,8.256,8.028,7.866,7.659,7.186,6.888,6.729,6.614,6.577,6.54,6.467,6.467,6.396,6.432,6.432,6.467,6.504,6.54,6.54,6.614,6.652,6.729,0,7.098,7.559,7.973,8.256,8.753,0,9.313,9.865,10.212,10.212,0,0,0,0,0,0,0,0,7.559,7.511,7.511,7.511,7.415,7.415,7.368,7.368,7.322,7.322,7.322,7.231,7.322,7.322,7.322,7.368,7.368,7.415,0,0,0
