6.361,6.361,6.396,6.432,6.432,6.432,6.467,6.432,6.432,6.432,6.432,6.396,6.361,6.361,6.327,6.259,6.225,6.225,6.159,6.159,6.159,6.159,6.159,6.225,6.259,6.259,6.259,6.327,6.361,6.361,6.396,6.432,6.432,6.432,6.432,6.432,6.432,6.432,6.432,6.432,6.432,6.432,6.432,6.432,6.432,6.432,6.432,6.432,6.432,6.467,6.467,6.504,6.504,6.504,6.504,6.504,6.504,6.504,6.467,6.467,6.467,6.432,6.432,6.396,6.361,6.327,6.259,6.225,6.159,6.127,6.127,6.001,5.939,5.821,5.735,5.679,5.624,5.57,5.415,5.34,5.22,5.084,0.0,4.9350000000000005,0.0,0.0,0.0,0.0,4.36,4.312,4.264,4.218,4.128,3.946,3.906,3.868,3.868,3.855,3.855,3.842,3.829,3.829,3.829,3.817,3.804,3.804,3.792,3.78,3.767,3.755,3.743,3.707,3.696,3.672,3.627,3.615,3.593,3.56,3.56,3.549,3.549,3.538,3.528,3.528,3.528,3.528,3.528,3.517,3.517,3.506,3.506,3.496,3.496,3.496,3.496,3.496,3.485,3.485,3.485,3.475,3.475,3.465,3.465,3.465,3.465,3.465,3.465,3.465,3.465,3.465,3.475,3.485,3.485,3.496,3.496,3.506,3.517,3.528,3.538,3.549,3.549,3.56,3.582,3.586125,3.593,3.627,3.649,3.661,3.672,3.696,3.707,3.731,3.743,3.755,3.755,3.767,3.767,3.78,3.78,3.78,3.792,3.792,3.792,3.804,3.804,3.804,3.804,3.817,3.817,3.829,3.855,3.88,3.946,4.07,4.188,4.28,4.344,4.477,4.638,4.695,4.752,4.83,4.851,4.871,4.891,4.912,4.912,4.933,4.975,4.975,4.996,4.996,5.018,5.018,5.018,5.018,5.04,5.04,5.084,5.084,5.106,5.151,5.174,5.22,5.244,5.268,5.316,5.389,5.415,5.491,5.543,5.57,5.624,5.679,5.679,5.735,5.792,5.85,5.85,5.85,5.909,5.909,5.85,5.85,5.821,5.821,5.792,5.792,5.792,5.792,5.763,5.792,5.792,5.821,5.85,5.909,6.001,6.032,6.095,6.159,6.225,6.259,6.327,6.361,6.396,6.432,6.432,6.467,6.432,6.432,6.432,6.396,6.396,6.361,6.259,6.225,6.159,6.095,6.095,6.032,6.001,5.939,5.939,5.939,5.939,5.909,5.909,5.85,5.821,5.821,5.792,5.763,5.735,5.707,5.679,5.651,5.597,5.517,5.415,5.316,5.22,5.084,4.996,4.912,4.851,4.81,4.752,4.512,4.393,4.328,4.296,4.264,4.249,4.218,4.188,4.173,4.173,4.188,4.218,4.249,4.28,4.312,4.36,4.426,4.53,4.657,4.7044999999999995,4.752,4.81,4.851,4.891,4.933,4.996,5.084,5.106,5.174,5.174,5.22,5.22,5.244,5.244,5.268,5.268,5.316,5.316,5.316,5.316,5.316,5.268,5.244,5.244,5.244,5.22,5.174,5.174,5.22,5.22,5.22,5.22,5.22,5.22,5.22,5.174,5.174,5.174,5.174,5.22,5.22,5.244,5.244,5.268,5.316,5.34,5.34,5.34,5.389,5.389,5.389,5.389,5.389,5.389,5.389,5.389,5.34,5.316,5.268,5.244,5.22,5.174,5.151,5.106,5.084,5.04,5.018,5.018,4.996,4.996,4.996,4.975,4.975,4.975,4.975,4.996,4.996,4.975,4.975,4.975,4.975,4.975,4.954,4.954,4.933,4.933,4.933,4.933,4.954,4.975,4.996,5.04,5.084,5.106,5.174,5.22,5.244,5.268,5.268,5.244,5.244,5.22,5.151,5.106,5.04,4.975,4.933,4.912,4.891,4.871,4.851,4.83,4.81,4.771,4.713,4.583,4.512,4.426,4.376,4.344,4.328,4.312,4.28,4.28,4.264,4.233,4.203,4.158,4.07,4.056,4.014,3.987,3.946,3.933,3.92,3.893,3.88,3.868,3.855,3.829,3.817,3.804,3.78,3.743,3.672,3.661,3.649,3.649,3.627,3.593,3.593,3.593,3.593,3.615,3.627,3.627,3.627,3.627,3.707,3.707,3.731,3.743,3.707,3.707,3.707,3.731,3.731,3.731,3.755,3.767,3.78,3.804,3.829,3.842,3.855,3.868,3.868,3.868,3.868,3.868,3.855,3.855,3.842,3.842,3.855,3.855,3.868,3.893,3.906,3.946,3.987,4.028,4.07,4.085,4.158,4.173,4.218,4.249,4.233,4.218,4.203,4.188,4.173,4.173,4.158,4.114,4.07,4.07,4.056,4.056,4.028,0.0
6.225,6.259,6.327,6.327,6.361,6.361,6.327,6.327,6.327,6.327,6.327,6.327,6.259,6.259,6.259,6.259,6.159,6.159,6.159,6.159,6.159,6.159,6.159,6.225,6.259,6.259,6.327,6.361,6.361,6.361,6.396,6.432,6.432,6.432,6.432,6.432,6.432,6.432,6.432,6.432,6.432,6.432,6.396,6.432,6.432,6.432,6.432,6.467,6.467,6.467,6.504,6.54,6.54,6.54,6.54,6.54,6.54,6.54,6.54,6.54,6.54,6.504,6.504,6.467,6.432,6.396,6.327,6.259,6.159,6.127,6.001,5.821,5.707,5.624,5.57,5.316,5.174,5.04,4.954,4.9985,4.823,4.714,4.622,4.53,4.41,4.344,4.296,4.249,4.218,4.173,4.114,4.056,3.933,3.893,3.88,3.868,3.855,3.855,3.842,3.829,3.829,3.817,3.817,3.804,3.804,3.792,3.78,3.767,3.755,3.731,3.707,3.696,3.672,3.661,3.615,3.593,3.582,3.56,3.56,3.549,3.549,3.538,3.538,3.528,3.528,3.528,3.528,3.528,3.517,3.517,3.506,3.506,3.506,3.506,3.496,3.496,3.496,3.496,3.485,3.485,3.485,3.485,3.475,3.475,3.475,3.475,3.475,3.475,3.485,3.485,3.485,3.496,3.496,3.506,3.517,3.517,3.528,3.538,3.549,3.549,3.56,3.5709999999999997,3.582,3.593,3.615,3.627,3.661,3.672,3.672,3.707,3.731,3.731,3.743,3.755,3.767,3.767,3.767,3.78,3.78,3.78,3.792,3.792,3.792,3.804,3.804,3.804,3.804,3.804,3.817,3.829,3.855,3.88,3.973,4.07,4.203,4.28,4.328,4.46,4.583,4.662,4.732,4.81,4.83,4.851,4.871,4.891,4.912,4.933,4.954,4.975,4.996,5.018,5.018,5.04,5.04,5.04,5.04,5.084,5.084,5.084,5.106,5.151,5.174,5.22,5.22,5.244,5.268,5.316,5.389,5.44,5.491,5.543,5.597,5.651,5.679,5.707,5.792,5.821,5.85,5.909,5.909,5.85,5.85,5.85,5.821,5.821,5.792,5.763,5.763,5.763,5.735,5.735,5.763,5.792,5.792,5.85,5.909,5.939,6.001,6.095,6.127,6.159,6.259,6.327,6.361,6.396,6.396,6.432,6.432,6.432,6.396,6.396,6.361,6.361,6.259,6.225,6.159,6.127,6.095,6.032,6.001,5.939,5.939,5.939,5.909,5.909,5.85,5.85,5.821,5.821,5.792,5.763,5.735,5.679,5.679,5.651,5.624,5.597,5.517,5.465,5.415,5.268,5.174,5.018,4.933,4.891,4.83,4.771,4.657,4.41,4.344,4.312,4.28,4.249,4.218,4.203,4.188,4.203,4.233,4.264,4.296,4.328,4.376,4.46,4.565,4.657,4.687625,4.732,4.791,4.83,4.871,4.912,4.975,5.018,5.084,5.106,5.151,5.174,5.22,5.22,5.244,5.244,5.268,5.268,5.316,5.316,5.316,5.268,5.244,5.244,5.244,5.22,5.22,5.174,5.22,5.22,5.22,5.22,5.244,5.22,5.22,5.22,5.174,5.174,5.174,5.174,5.174,5.197,5.22,5.22,5.268,5.316,5.34,5.389,5.389,5.415,5.415,5.415,5.415,5.415,5.415,5.415,5.389,5.34,5.316,5.268,5.244,5.22,5.151,5.151,5.084,5.04,5.04,5.018,5.018,5.018,4.996,4.996,4.996,5.018,5.018,5.018,5.018,5.018,5.018,5.018,4.996,4.996,4.975,4.975,4.975,4.954,4.954,4.954,4.954,4.975,4.996,5.018,5.084,5.106,5.174,5.197,5.22,5.244,5.268,5.316,5.268,5.244,5.22,5.151,5.084,5.018,4.975,4.933,4.912,4.891,4.871,4.851,4.83,4.791,4.732,4.601,4.53,4.46,4.41,4.36,4.328,4.312,4.296,4.28,4.264,4.249,4.218,4.173,4.056,4.014,3.987,3.933,3.92,3.893,3.88,3.868,3.855,3.855,3.829,3.829,3.804,3.792,3.767,3.743,3.661,3.649,3.615,3.593,3.582,3.56,3.56,3.549,3.549,3.549,3.549,3.56,3.56,3.582,3.593,3.593,3.593,3.615,3.615,3.661,3.649,3.661,3.661,3.672,3.672,3.731,3.743,3.767,3.792,3.817,3.842,3.855,3.868,3.868,3.868,3.868,3.868,3.855,3.842,3.829,3.817,3.817,3.817,3.829,3.855,3.855,3.868,3.893,3.933,3.973,3.987,4.028,4.07,4.128,4.173,4.173,4.158,4.128,4.128,4.128,4.128,4.114,0.0,0.0,0.0,0.0,0.0,0.0,0.0
6.032,6.095,6.095,6.159,6.159,6.225,6.225,6.225,6.259,6.259,6.259,6.225,6.225,6.225,6.159,6.159,6.159,6.159,6.159,6.159,6.159,6.159,6.159,6.225,6.259,6.259,6.259,6.327,6.361,6.361,6.396,6.396,6.432,6.432,6.432,6.432,6.432,6.432,6.396,6.396,6.396,6.396,6.396,6.396,6.396,6.396,6.432,6.432,6.467,6.467,6.54,6.54,6.54,6.54,6.577,6.577,6.577,6.577,6.577,6.577,6.577,6.577,6.577,6.504,6.467,6.396,6.361,6.327,6.225,6.095,5.821,5.651,5.57,5.22,5.018,4.912,4.852,4.7,4.65975,4.657,4.426,4.344,4.296,4.264,4.218,4.158,4.07,3.973,3.946,3.933,3.906,3.88,3.868,3.855,3.855,3.855,3.842,3.842,3.829,3.829,3.817,3.817,3.804,3.804,3.792,3.78,3.767,3.743,3.731,3.707,3.696,3.672,3.661,3.649,3.615,3.615,3.593,3.582,3.582,3.56,3.56,3.549,3.549,3.538,3.538,3.538,3.538,3.538,3.538,3.528,3.528,3.528,3.517,3.517,3.517,3.506,3.506,3.496,3.496,3.496,3.496,3.496,3.496,3.496,3.496,3.496,3.496,3.496,3.506,3.517,3.528,3.538,3.549,3.549,3.56,3.56,3.582,3.56,3.56,3.56,3.582,3.582,3.593,3.615,3.627,3.649,3.672,3.672,3.696,3.731,3.731,3.743,3.755,3.767,3.767,3.767,3.767,3.78,3.78,3.78,3.78,3.792,3.792,3.792,3.804,3.804,3.804,3.804,3.817,3.829,3.855,3.88,3.946,4.056,4.173,4.249,4.312,4.393,4.512,4.638,4.67575,4.732,4.791,4.81,4.83,4.851,4.891,4.912,4.954,4.975,4.996,5.018,5.04,5.04,5.04,5.04,5.084,5.084,5.084,5.084,5.106,5.106,5.151,5.174,5.174,5.22,5.244,5.268,5.34,5.389,5.465,5.543,5.57,5.624,5.651,5.679,5.763,5.792,5.85,5.909,5.909,5.909,5.85,5.85,5.85,5.821,5.792,5.792,5.763,5.735,5.735,5.735,5.735,5.763,5.763,5.792,5.821,5.85,5.909,6.001,6.032,6.127,6.159,6.225,6.327,6.327,6.361,6.361,6.396,6.396,6.396,6.361,6.361,6.327,6.259,6.159,6.127,6.095,6.095,6.001,6.001,5.939,5.939,5.909,5.909,5.85,5.85,5.821,5.821,5.792,5.763,5.735,5.707,5.679,5.679,5.651,5.651,5.597,5.597,5.543,5.491,5.44,5.34,5.174,5.04,4.954,4.891,4.851,4.791,4.657,4.426,4.36,4.312,4.28,4.249,4.233,4.203,4.218,4.233,4.264,4.312,4.344,4.41,4.512,4.583,4.62,4.657,4.752,4.791,4.83,4.851,4.891,4.912,4.975,5.018,5.084,5.106,5.174,5.174,5.22,5.22,5.244,5.244,5.268,5.268,5.268,5.268,5.244,5.244,5.22,5.22,5.22,5.22,5.22,5.22,5.22,5.22,5.22,5.244,5.22,5.22,5.174,5.151,5.151,5.151,5.151,5.151,5.174,5.197,5.22,5.244,5.316,5.34,5.389,5.389,5.389,5.415,5.415,5.389,5.389,5.389,5.389,5.34,5.316,5.268,5.244,5.22,5.174,5.151,5.106,5.084,5.04,5.04,5.018,5.018,5.018,5.018,5.018,5.018,5.04,5.04,5.04,5.04,5.04,5.04,5.04,5.04,5.04,5.018,5.018,4.996,4.975,4.954,4.954,4.975,4.996,5.018,5.04,5.084,5.1175,5.151,5.22,5.244,5.268,5.316,5.316,5.316,5.268,5.22,5.151,5.084,5.018,4.975,4.912,4.891,4.891,4.851,4.83,4.81,4.771,4.732,4.583,4.512,4.426,4.393,4.344,4.328,4.312,4.28,4.264,4.249,4.233,4.203,4.158,4.028,3.973,3.933,3.906,3.868,3.855,3.855,3.842,3.829,3.817,3.817,3.804,3.78,3.755,3.731,3.649,3.627,3.582,3.56,3.549,3.538,3.538,3.528,3.528,3.528,3.538,3.538,3.538,3.538,3.538,3.549,3.56,3.56,3.582,3.582,3.582,3.582,3.593,3.627,3.649,3.661,3.707,3.731,3.755,3.792,3.817,3.842,3.868,3.868,3.868,3.868,3.868,3.868,3.855,3.829,3.817,3.804,3.804,3.804,3.804,3.804,3.817,3.829,3.842,3.868,3.88,3.906,3.946,3.987,4.056,4.114,4.114,4.114,4.085,4.114,4.114,0.0,0.0,0.0,0.0,0.0,0.0,0.0,0.0,0.0
5.939,6.001,6.032,6.032,6.095,6.127,6.127,6.159,6.159,6.159,6.159,6.159,6.159,6.127,6.127,6.127,6.095,6.095,6.095,6.127,6.127,6.127,6.159,6.159,6.225,6.259,6.259,6.259,6.327,6.361,6.361,6.361,6.396,6.396,6.396,6.396,6.396,6.361,6.361,6.361,6.361,6.361,6.361,6.361,6.396,6.396,6.396,6.432,6.467,6.504,6.54,6.54,6.577,6.577,6.577,6.577,6.614,6.614,6.614,6.614,6.577,6.577,6.577,6.577,6.504,6.432,6.396,6.225,6.032,5.792,5.597,5.174,4.954,0.0,4.673,4.59875,4.53,4.36,4.328,4.28,4.249,4.188,4.114,4.028,3.946,3.906,3.868,3.855,3.855,3.855,3.855,3.855,3.855,3.842,3.842,3.842,3.829,3.829,3.829,3.817,3.817,3.817,3.804,3.804,3.792,3.78,3.767,3.755,3.743,3.707,3.707,3.696,3.672,3.661,3.661,3.649,3.627,3.627,3.615,3.615,3.615,3.593,3.582,3.582,3.582,3.56,3.56,3.56,3.549,3.549,3.56,3.549,3.56,3.56,3.56,3.582,3.593,3.582,3.582,3.582,3.582,3.56,3.549,3.538,3.538,3.538,3.549,3.56,3.593,3.615,3.627,3.661,3.672,3.672,3.661,3.649,3.627,3.627,3.627,3.615,3.593,3.593,3.615,3.627,3.649,3.661,3.672,3.696,3.707,3.731,3.743,3.755,3.755,3.767,3.767,3.767,3.78,3.78,3.78,3.78,3.78,3.792,3.792,3.792,3.804,3.804,3.804,3.804,3.817,3.829,3.855,3.868,3.933,4.028,4.128,4.233,4.28,4.344,4.426,4.512,4.601,4.694,4.732,4.771,4.81,4.851,4.891,4.912,4.954,4.975,4.996,5.018,5.04,5.04,5.04,5.084,5.084,5.084,5.084,5.084,5.084,5.106,5.106,5.151,5.174,5.174,5.174,5.244,5.244,5.316,5.389,5.491,5.543,5.597,5.651,5.679,5.763,5.821,5.909,5.939,5.939,5.939,5.939,5.909,5.909,5.85,5.821,5.792,5.792,5.735,5.735,5.735,5.735,5.735,5.735,5.763,5.792,5.821,5.85,5.909,6.001,6.032,6.095,6.127,6.225,6.259,6.327,6.327,6.361,6.361,6.327,6.327,6.259,6.259,6.225,6.127,6.095,6.095,6.032,6.001,6.001,5.909,5.909,5.909,5.909,5.85,5.821,5.821,5.792,5.763,5.763,5.735,5.707,5.679,5.679,5.651,5.651,5.624,5.597,5.597,5.543,5.491,5.415,5.268,5.174,5.084,4.975,4.912,4.851,4.791,4.694,4.426,4.36,4.312,4.28,4.249,4.218,4.218,4.249,4.28,4.312,4.36,4.426,4.53,4.638,4.671,4.732,4.771,4.81,4.83,4.83,4.871,4.912,4.933,4.996,5.04,5.084,5.151,5.174,5.174,5.22,5.22,5.244,5.268,5.268,5.268,5.268,5.244,5.22,5.22,5.22,5.22,5.22,5.22,5.22,5.22,5.22,5.22,5.244,5.22,5.22,5.174,5.151,5.106,5.106,5.106,5.106,5.151,5.174,5.22,5.231999999999999,5.244,5.268,5.316,5.34,5.34,5.34,5.34,5.34,5.34,5.316,5.316,5.268,5.268,5.22,5.22,5.151,5.151,5.084,5.084,5.04,5.04,5.018,5.018,5.018,5.018,5.018,5.04,5.04,5.084,5.084,5.084,5.084,5.106,5.106,5.084,5.084,5.084,5.04,5.018,5.018,4.996,4.975,4.975,4.975,4.996,5.018,5.04,5.084,5.1175,5.151,5.174,5.244,5.268,5.316,5.316,5.268,5.244,5.174,5.106,5.04,4.996,4.954,4.912,4.891,4.871,4.851,4.83,4.81,4.752,4.694,4.565,4.477,4.41,4.376,4.344,4.328,4.296,4.28,4.264,4.249,4.218,4.188,4.128,3.987,3.946,3.906,3.868,3.842,3.829,3.817,3.804,3.792,3.78,3.767,3.767,3.743,3.731,3.672,3.615,3.593,3.56,3.549,3.538,3.528,3.517,3.517,3.517,3.506,3.517,3.517,3.517,3.517,3.528,3.528,3.538,3.538,3.549,3.549,3.549,3.549,3.582,3.615,3.627,3.661,3.707,3.743,3.767,3.804,3.829,3.855,3.868,3.868,3.88,3.88,3.88,3.868,3.855,3.842,3.829,3.804,3.792,3.792,3.804,3.804,3.804,3.817,3.817,3.829,3.842,2.6550000000000002,2.6735,2.6915,2.7235,2.75,2.7475,0.0,0.0,0.0,0.0,0.0,0.0,0.0,0.0,0.0,0.0,0.0,0.0,0.0
5.939,5.939,6.001,6.032,6.032,6.032,6.095,6.095,6.095,6.095,6.095,6.095,6.095,6.095,6.095,6.095,6.095,6.095,6.095,6.095,6.095,6.127,6.127,6.159,6.159,6.225,6.259,6.259,6.259,6.327,6.327,6.361,6.361,6.361,6.361,6.361,6.361,6.361,6.361,6.327,6.327,6.327,6.327,6.327,6.361,6.361,6.396,6.432,6.467,6.504,6.54,6.54,6.577,6.577,6.577,6.614,6.614,6.614,6.614,6.614,6.614,6.577,6.577,6.54,6.504,6.361,6.225,5.909,5.679,5.244,4.933,0.0,4.609,4.468500000000001,4.328,4.28,4.249,4.218,4.158,4.085,4.028,3.987,3.933,3.906,3.868,3.868,3.855,3.855,3.855,3.842,3.842,3.842,3.842,3.829,3.829,3.829,3.829,3.829,3.829,3.817,3.817,3.804,3.804,3.804,3.792,3.78,3.767,3.755,3.743,3.743,3.731,3.731,3.707,3.707,3.696,3.696,3.672,3.672,3.661,3.649,3.649,3.649,3.627,3.627,3.615,3.615,3.615,3.593,3.593,3.615,3.615,3.615,3.649,3.661,3.696,3.707,3.743,3.743,3.731,3.731,3.707,3.696,3.649,3.627,3.627,3.627,3.649,3.672,3.707,3.743,3.767,3.792,3.804,3.792,3.78,3.755,3.731,3.696,3.672,3.661,3.649,3.649,3.627,3.649,3.661,3.672,3.696,3.707,3.731,3.731,3.743,3.755,3.755,3.767,3.767,3.767,3.78,3.78,3.78,3.78,3.78,3.792,3.792,3.792,3.792,3.804,3.804,3.804,3.817,3.829,3.842,3.868,3.92,3.987,4.085,4.188,4.249,4.312,4.36,4.477,4.583,4.694,4.7325,4.771,4.83,4.851,4.891,4.912,4.954,4.975,4.996,5.018,5.04,5.084,5.084,5.084,5.084,5.084,5.084,5.084,5.084,5.084,5.106,5.106,5.106,5.106,5.151,5.151,5.22,5.244,5.316,5.44,5.517,5.57,5.651,5.679,5.735,5.85,5.939,6.001,6.032,6.032,6.001,6.001,5.939,5.909,5.85,5.821,5.792,5.763,5.735,5.707,5.707,5.707,5.707,5.735,5.763,5.763,5.821,5.85,5.909,6.001,6.032,6.095,6.127,6.225,6.225,6.259,6.259,6.259,6.259,6.225,6.225,6.159,6.127,6.127,6.032,6.032,6.001,6.001,5.939,5.909,5.909,5.85,5.85,5.821,5.821,5.792,5.763,5.763,5.735,5.707,5.679,5.679,5.679,5.651,5.651,5.624,5.597,5.597,5.543,5.543,5.465,5.389,5.268,5.22,5.106,4.996,4.912,4.851,4.81,4.713,4.46,4.344,4.312,4.264,4.249,4.233,4.249,4.264,4.312,4.376,4.46,4.565,4.6295,4.694,4.752,4.81,4.83,4.83,4.851,4.851,4.891,4.912,4.954,4.996,5.04,5.106,5.151,5.174,5.174,5.22,5.244,5.268,5.268,5.268,5.268,5.244,5.22,5.22,5.22,5.174,5.174,5.174,5.22,5.22,5.22,5.22,5.22,5.174,5.174,5.151,5.106,5.084,5.084,5.106,5.106,5.106,5.151,5.174,5.22,5.244,5.244,5.268,5.268,5.268,5.268,5.268,5.268,5.268,5.268,5.244,5.22,5.22,5.174,5.151,5.106,5.084,5.084,5.04,5.018,5.018,5.018,5.018,5.018,5.018,5.04,5.04,5.084,5.084,5.084,5.106,5.106,5.151,5.151,5.151,5.106,5.084,5.084,5.04,5.018,5.018,4.996,4.975,4.975,4.996,5.018,5.04,5.084,5.114625,5.151,5.174,5.22,5.244,5.268,5.244,5.244,5.22,5.151,5.084,5.018,4.975,4.912,4.891,4.891,4.851,4.83,4.81,4.791,4.732,4.694,4.565,4.477,4.41,4.376,4.328,4.312,4.296,4.28,4.264,4.249,4.218,4.188,4.114,3.973,3.92,3.88,3.855,3.829,3.817,3.804,3.78,3.755,3.755,3.755,3.743,3.707,3.707,3.661,3.593,3.56,3.549,3.528,3.528,3.517,3.517,3.506,3.506,3.506,3.496,3.506,3.506,3.506,3.496,3.496,3.506,3.506,3.528,3.538,3.538,3.549,3.549,3.582,3.615,3.649,0.0,0.0,0.0,0.0,3.829,3.855,3.88,3.893,3.893,3.88,3.893,3.88,3.868,2.6105,2.605,2.5934999999999997,2.589,2.59,2.598,2.601,2.3025,1.404,1.408,1.408,1.404,1.404,1.401,1.396,1.391,1.386,1.381,0.0,0.0,0.0,0.0,0.0,0.0,0.0,0.0,0.0,0.0,0.0,1.36,1.363
5.909,5.939,5.939,6.001,6.001,6.001,6.032,6.032,6.032,6.032,6.032,6.032,6.032,6.032,6.032,6.001,6.001,6.032,6.032,6.032,6.095,6.095,6.095,6.127,6.159,6.159,6.225,6.225,6.259,6.259,6.259,6.327,6.327,6.327,6.327,6.327,6.259,6.259,6.259,6.259,6.259,6.259,6.259,6.327,6.327,6.361,6.361,6.396,6.432,6.467,6.54,6.54,6.577,6.577,6.614,6.614,6.614,6.614,6.614,6.614,6.614,6.577,6.577,6.504,6.361,6.095,5.792,5.597,5.018,4.851,0.0,0.0,4.264,4.218,4.128,4.085,4.028,3.987,3.946,3.92,3.906,3.893,3.88,3.868,3.868,3.855,3.855,3.842,3.842,3.842,3.842,3.842,3.829,3.829,3.829,3.829,3.829,3.829,3.829,3.817,3.817,3.817,3.817,3.804,3.804,3.792,3.78,3.78,3.78,3.767,3.767,3.755,3.755,3.755,3.755,3.755,3.743,3.755,3.743,3.743,3.743,3.731,3.707,3.707,3.696,3.672,3.672,3.661,3.672,3.672,3.696,3.707,3.755,3.78,3.804,3.817,3.829,3.829,3.829,3.817,3.817,3.804,3.792,3.767,3.767,3.755,3.78,3.804,3.817,3.829,3.855,3.855,3.868,3.855,3.829,3.817,3.804,3.767,3.743,3.707,3.672,3.661,3.661,3.661,3.672,3.696,3.707,3.731,3.731,3.743,3.743,3.755,3.767,3.767,3.767,3.767,3.767,3.78,3.78,3.78,3.78,3.792,3.792,3.792,3.804,3.804,3.804,3.804,3.817,3.8292500000000005,3.842,3.868,3.893,3.946,4.056,4.128,4.233,4.28,4.344,4.46,4.565,4.657,4.7044999999999995,4.752,4.81,4.851,4.891,4.912,4.954,4.975,5.018,5.04,5.04,5.084,5.084,5.084,5.084,5.084,5.084,5.084,5.084,5.084,5.084,5.084,5.084,5.084,5.106,5.106,5.151,5.174,5.244,5.389,5.491,5.57,5.624,5.679,5.763,5.85,6.001,6.095,6.095,6.095,6.095,6.032,6.001,5.939,5.909,5.85,5.792,5.763,5.735,5.707,5.707,5.707,5.707,5.707,5.735,5.763,5.763,5.792,5.821,5.909,5.939,6.001,6.032,6.127,6.127,6.159,6.225,6.225,6.159,6.159,6.127,6.127,6.095,6.032,6.001,6.001,5.939,5.939,5.909,5.909,5.85,5.85,5.821,5.821,5.792,5.763,5.735,5.735,5.707,5.707,5.679,5.679,5.679,5.651,5.651,5.624,5.624,5.597,5.57,5.543,5.517,5.465,5.389,5.316,5.244,5.151,5.04,4.954,4.871,4.81,4.713,4.41,4.328,4.28,4.264,4.249,4.249,4.264,4.312,4.376,4.477,4.583,4.640875,4.713,4.771,4.81,4.83,4.851,4.851,4.851,4.891,4.912,4.933,4.975,5.04,5.106,5.106,5.151,5.174,5.22,5.22,5.244,5.268,5.268,5.244,5.244,5.22,5.22,5.22,5.174,5.174,5.174,5.174,5.22,5.22,5.22,5.22,5.174,5.151,5.106,5.084,5.04,5.04,5.084,5.084,5.084,5.084,5.106,5.151,5.174,5.174,5.22,5.22,5.22,5.244,5.244,5.244,5.244,5.22,5.22,5.174,5.174,5.151,5.106,5.084,5.04,5.04,5.018,5.018,5.018,5.018,5.018,5.018,5.04,5.04,5.084,5.084,5.106,5.106,5.151,5.151,5.174,5.174,5.151,5.151,5.106,5.106,5.084,5.04,5.018,4.996,4.975,4.996,4.996,5.018,5.04,5.084,5.106,5.1285,5.151,5.174,5.22,5.22,5.22,5.174,5.151,5.106,5.018,4.975,4.933,4.912,4.891,4.851,4.83,4.83,4.81,4.752,4.713,4.583,4.53,4.46,4.393,4.36,4.328,4.312,4.296,4.28,4.264,4.249,4.218,4.173,4.114,3.973,3.92,3.88,3.855,3.817,3.804,3.792,3.767,3.743,3.743,3.731,3.707,3.707,3.696,3.615,3.593,3.549,3.549,3.538,3.517,3.517,3.506,3.506,3.517,0.0,0.0,0.0,0.0,0.0,0.0,0.0,0.0,2.463,1.414,1.408,2.468,0.0,0.0,2.4825,2.497,2.5135,0.0,0.0,0.0,0.0,2.6035,2.6165,2.629,2.6355,2.320625,1.378,2.6345,2.628,2.31275,1.379,1.381,1.383,1.386,1.388,1.392,1.398,1.401,1.401,1.403,1.404,1.403,1.403,1.398,1.396,1.391,1.384,1.381,1.378,1.373,1.371,1.366,1.362,1.349,1.341,1.341,1.341,1.346,1.35,1.355,1.36
5.909,5.909,5.939,5.939,6.001,6.001,6.001,6.001,6.001,6.001,6.001,6.001,6.001,6.001,6.001,6.001,6.001,6.001,6.001,6.032,6.032,6.095,6.095,6.095,6.127,6.159,6.159,6.159,6.225,6.225,6.259,6.259,6.259,6.259,6.259,6.259,6.259,6.259,6.259,6.259,6.259,6.259,6.259,6.259,6.327,6.361,6.361,6.396,6.432,6.467,6.54,6.54,6.577,6.577,6.577,6.614,6.614,6.614,6.614,6.577,6.577,6.54,6.396,6.127,5.85,5.651,5.517,5.22,0.0,4.55,4.3915,4.233,4.158,4.085,4.014,3.973,3.933,3.92,3.92,3.893,3.88,3.88,3.868,3.868,3.868,3.855,3.855,3.842,3.842,3.842,3.842,3.829,3.829,3.829,3.829,3.829,3.829,3.829,3.829,3.829,3.829,3.829,3.829,3.817,3.817,3.817,3.817,3.804,3.804,3.804,3.804,3.804,3.804,3.804,3.804,3.804,3.804,3.804,3.817,3.817,3.804,3.804,3.804,3.792,3.78,3.767,3.767,3.755,3.767,3.78,3.792,3.817,3.829,3.855,3.868,3.893,3.933,4.001,3.98775,3.933,3.947,3.88,3.868,3.855,3.855,3.855,3.855,3.868,3.906,3.946,3.987,3.987,3.987,3.946,3.92,3.868,3.855,3.817,3.804,3.767,3.731,3.696,3.672,3.672,3.696,3.696,3.731,3.731,3.731,3.743,3.755,3.755,3.767,3.767,3.767,3.767,3.767,3.78,3.78,3.78,3.78,3.792,3.792,3.792,3.804,3.804,3.804,3.817,3.817,3.829,3.829,3.855,3.893,3.946,4.028,4.128,4.233,4.28,4.344,4.46,4.565,4.657,4.7044999999999995,4.752,4.81,4.851,4.891,4.912,4.954,4.996,5.018,5.04,5.084,5.084,5.106,5.106,5.106,5.084,5.084,5.084,5.084,5.084,5.084,5.04,5.04,5.04,5.04,5.084,5.084,5.106,5.174,5.316,5.44,5.543,5.597,5.651,5.735,5.85,6.032,6.127,6.127,6.159,6.127,6.095,6.032,6.001,5.939,5.85,5.821,5.792,5.735,5.707,5.707,5.707,5.707,5.707,5.707,5.707,5.735,5.763,5.792,5.821,5.909,5.939,6.001,6.032,6.095,6.095,6.127,6.127,6.095,6.095,6.032,6.032,6.032,6.001,5.939,5.939,5.909,5.909,5.909,5.85,5.821,5.821,5.821,5.792,5.792,5.763,5.735,5.707,5.707,5.707,5.679,5.679,5.651,5.651,5.651,5.624,5.624,5.597,5.597,5.57,5.543,5.491,5.465,5.415,5.34,5.268,5.174,5.084,4.954,4.871,4.81,4.512,4.376,4.312,4.28,4.264,4.264,4.28,4.328,4.393,4.512,4.574999999999999,4.638,4.732,4.791,4.83,4.851,4.871,4.871,4.891,4.891,4.912,4.954,4.996,5.018,5.084,5.106,5.151,5.174,5.22,5.22,5.244,5.268,5.268,5.244,5.22,5.22,5.22,5.174,5.174,5.174,5.174,5.174,5.174,5.174,5.174,5.174,5.151,5.106,5.084,5.04,5.018,5.018,5.018,5.018,5.018,5.04,5.084,5.084,5.106,5.151,5.174,5.174,5.174,5.22,5.22,5.22,5.174,5.174,5.174,5.151,5.106,5.106,5.084,5.04,5.04,5.018,5.018,5.018,5.018,5.018,5.018,5.04,5.04,5.084,5.106,5.106,5.106,5.151,5.174,5.174,5.174,5.174,5.174,5.151,5.151,5.106,5.084,5.04,5.04,5.018,4.996,4.975,4.996,4.996,5.018,5.04,5.084,5.106,5.151,5.151,5.174,5.151,5.151,5.106,5.084,5.018,4.975,4.933,4.912,4.891,4.851,4.851,4.83,4.81,4.771,4.732,4.694,4.565,4.512,4.46,4.41,4.36,4.328,4.312,4.296,4.28,4.264,4.249,4.233,4.203,4.158,3.987,3.933,3.88,3.842,3.817,3.804,3.78,3.743,3.731,3.707,3.696,3.696,3.707,3.696,3.615,0.0,0.0,0.0,0.0,0.0,0.0,0.0,2.4725,2.477,0.0,0.0,0.0,0.0,0.0,0.0,0.0,0.0,1.42,1.414,1.404,1.398,0.0,0.0,1.383,1.379,1.378,1.379,1.379,1.381,1.381,1.378,1.378,1.378,1.378,1.376,1.376,1.376,1.376,1.376,1.376,1.378,1.379,1.381,1.386,1.391,1.396,1.398,1.401,1.403,1.404,1.403,1.403,1.398,1.396,1.391,1.386,1.381,1.378,1.373,1.371,1.366,1.35,1.344,1.337,1.335,1.337,1.34,1.346,1.35,1.357
5.909,5.909,5.909,5.909,5.939,5.939,5.939,5.939,5.939,5.939,5.939,5.939,5.939,5.939,6.001,6.001,6.001,6.001,6.001,6.001,6.032,6.032,6.095,6.095,6.127,6.127,6.159,6.159,6.159,6.159,6.159,6.225,6.225,6.225,6.225,6.225,6.225,6.225,6.225,6.225,6.225,6.225,6.259,6.259,6.327,6.361,6.361,6.396,6.432,6.467,6.504,6.54,6.577,6.577,6.577,6.577,6.577,6.577,6.577,6.577,6.396,6.259,6.001,5.707,5.57,4.996,0.0,0.0,0.0,4.249,4.173,4.114,4.056,3.987,3.933,3.92,3.906,3.893,3.893,3.88,3.88,3.868,3.868,3.868,3.868,3.855,3.855,3.855,3.842,3.842,3.842,3.842,3.842,3.842,3.842,3.842,3.842,3.855,3.855,3.855,3.842,3.855,3.842,3.842,3.842,3.829,3.829,3.829,3.829,3.829,3.829,3.842,3.842,3.842,3.842,3.855,3.855,3.855,3.855,3.868,3.868,3.855,3.855,3.842,3.842,3.842,3.829,3.817,3.842,3.855,3.868,3.912,3.893,3.933,4.014,4.056,4.085,4.173,4.188,4.188,4.158,4.128,4.08,4.028,4.014,3.987,4.014,4.056,4.114,4.1245,4.158,4.188,4.188,4.128,4.07,3.987,3.906,3.868,3.829,3.804,3.78,3.743,3.707,3.707,3.707,3.707,3.731,3.731,3.743,3.743,3.755,3.755,3.767,3.767,3.767,3.767,3.767,3.78,3.78,3.78,3.78,3.792,3.792,3.804,3.804,3.804,3.817,3.817,3.817,3.829,3.842,3.855,3.88,3.933,4.028,4.128,4.233,4.28,4.344,4.46,4.583,4.694,4.7325,4.771,4.81,4.851,4.891,4.912,4.975,4.996,5.04,5.04,5.084,5.084,5.106,5.106,5.106,5.106,5.084,5.084,5.084,5.04,5.04,5.04,5.04,5.018,5.018,5.018,5.04,5.04,5.106,5.244,5.389,5.517,5.57,5.651,5.735,5.85,6.032,6.127,6.159,6.159,6.159,6.127,6.095,6.032,5.939,5.909,5.85,5.792,5.763,5.735,5.707,5.707,5.707,5.707,5.707,5.735,5.735,5.763,5.792,5.821,5.85,5.909,5.939,6.001,6.032,6.032,6.032,6.032,6.032,6.001,6.001,5.939,5.939,5.909,5.85,5.85,5.85,5.85,5.821,5.821,5.792,5.792,5.792,5.792,5.763,5.735,5.707,5.707,5.679,5.679,5.679,5.679,5.651,5.651,5.651,5.624,5.624,5.597,5.597,5.57,5.543,5.543,5.491,5.465,5.415,5.34,5.268,5.174,5.04,4.912,4.851,4.771,4.477,4.36,4.312,4.28,4.28,4.296,4.328,4.41,4.512,4.574999999999999,4.638,4.752,4.81,4.851,4.871,4.891,4.891,4.891,4.912,4.933,4.954,4.996,5.018,5.084,5.106,5.151,5.174,5.174,5.22,5.244,5.268,5.244,5.244,5.22,5.22,5.174,5.174,5.151,5.151,5.151,5.151,5.151,5.151,5.151,5.151,5.106,5.04,5.018,5.018,4.996,4.996,4.996,4.996,4.996,5.018,5.018,5.04,5.084,5.106,5.106,5.151,5.151,5.151,5.174,5.174,5.174,5.174,5.151,5.106,5.106,5.106,5.084,5.04,5.04,5.018,5.018,5.018,5.018,5.04,5.04,5.04,5.084,5.084,5.106,5.106,5.151,5.151,5.174,5.174,5.174,5.174,5.174,5.151,5.151,5.106,5.084,5.04,5.04,5.018,4.996,4.975,4.996,4.996,4.996,5.018,5.04,5.084,5.084,5.084,5.106,5.084,5.084,5.04,5.018,4.975,4.933,4.912,4.891,4.871,4.83,4.83,4.81,4.791,4.752,4.713,4.657,4.565,4.512,4.426,4.393,4.36,4.328,4.328,4.312,4.28,4.264,4.264,4.249,4.218,4.173,4.014,3.933,3.88,3.829,3.804,3.78,3.755,3.731,3.707,3.707,3.696,3.731,3.731,3.743,3.707,0.0,0.0,0.0,0.0,0.0,0.0,0.0,1.439,1.437,1.437,1.435,1.434,1.432,1.43,1.428,1.427,1.423,1.418,1.409,1.403,1.396,1.388,1.383,1.379,1.378,1.378,1.378,1.378,1.378,1.378,1.378,1.378,1.378,1.376,1.376,1.376,1.374,1.374,1.374,1.376,1.376,1.378,1.379,1.383,1.388,1.392,1.398,1.401,1.403,1.403,1.403,1.401,1.398,1.396,1.391,1.384,1.381,1.378,1.373,1.371,1.363,1.341,1.333,1.329,1.327,1.327,1.332,1.335,1.341,1.35
5.85,5.85,5.85,5.909,5.909,5.909,5.909,5.909,5.939,5.939,5.939,5.939,5.939,5.939,5.939,5.939,5.939,6.001,6.001,6.001,6.001,6.032,6.032,6.095,6.095,6.095,6.127,6.127,6.127,6.159,6.159,6.159,6.159,6.159,6.159,6.159,6.159,6.159,6.159,6.159,6.225,6.225,6.225,6.259,6.327,6.361,6.361,6.396,6.432,6.467,6.504,6.54,6.54,6.54,6.54,6.54,6.577,6.577,6.577,6.54,6.159,5.909,5.651,5.491,5.174,0.0,0.0,0.0,4.249,4.173,4.07,4.028,3.973,3.946,3.906,3.92,3.906,3.893,3.893,3.893,3.88,3.88,3.868,3.868,3.868,3.868,3.855,3.855,3.855,3.855,3.855,3.855,3.855,3.855,3.855,3.855,3.868,3.868,3.868,3.868,3.868,3.868,3.868,3.868,3.868,3.868,3.868,3.868,3.868,3.868,3.88,3.88,3.88,3.893,3.893,3.906,3.906,3.92,3.933,3.973,3.946,3.946,3.933,3.933,0.0,4.03,3.973,3.987,3.946,3.987,4.028,4.07,4.128,4.188,4.203,4.249,4.264,4.296,4.312,4.312,4.312,4.296,4.296,4.249499999999999,4.264,4.264,4.249,4.249,4.249,4.28,4.28,4.28,4.28,4.264,4.249,4.158,4.056,3.946,3.88,3.855,3.817,3.78,3.755,3.731,3.731,3.731,3.743,3.743,3.743,3.755,3.755,3.755,3.767,3.767,3.767,3.767,3.78,3.78,3.78,3.78,3.792,3.792,3.804,3.804,3.804,3.817,3.817,3.817,3.829,3.829,3.842,3.855,3.88,3.933,4.028,4.128,4.233,4.28,4.344,4.46,4.601,4.713,4.752000000000001,4.791,4.83,4.851,4.891,4.912,4.975,5.018,5.04,5.04,5.084,5.084,5.106,5.106,5.106,5.106,5.084,5.084,5.04,5.04,5.04,5.018,5.018,5.018,4.996,5.018,5.018,5.018,5.106,5.22,5.34,5.491,5.57,5.651,5.707,5.85,6.032,6.127,6.159,6.225,6.159,6.159,6.127,6.095,6.001,5.939,5.85,5.821,5.763,5.763,5.735,5.735,5.735,5.735,5.763,5.763,5.763,5.792,5.821,5.85,5.85,5.909,5.939,5.939,6.001,6.001,6.001,5.939,5.939,5.909,5.909,5.85,5.85,5.821,5.821,5.821,5.821,5.821,5.821,5.792,5.792,5.763,5.763,5.763,5.735,5.707,5.707,5.679,5.679,5.679,5.679,5.679,5.651,5.651,5.651,5.624,5.597,5.597,5.597,5.57,5.543,5.543,5.517,5.491,5.465,5.415,5.389,5.244,5.106,4.975,4.891,4.83,4.713,4.426,4.344,4.312,4.312,4.328,4.36,4.426,4.53,0.0,4.6475,4.752,4.81,4.851,4.891,4.891,4.912,4.912,4.912,4.954,4.975,4.996,5.018,5.084,5.106,5.106,5.151,5.174,5.22,5.22,5.244,5.22,5.244,5.22,5.22,5.174,5.174,5.151,5.106,5.106,5.106,5.106,5.106,5.106,5.084,5.084,5.018,4.996,4.996,4.975,4.975,4.975,4.975,4.975,4.975,4.996,5.018,5.018,5.04,5.084,5.106,5.151,5.151,5.151,5.151,5.174,5.151,5.106,5.106,5.106,5.084,5.04,5.04,5.04,5.04,5.018,5.04,5.04,5.04,5.04,5.04,5.084,5.084,5.106,5.106,5.106,5.151,5.174,5.174,5.174,5.174,5.174,5.106,5.106,5.106,5.084,5.04,5.018,5.018,4.996,4.975,4.996,4.996,4.996,4.996,5.018,5.018,5.018,5.04,5.04,5.018,5.018,4.996,4.954,4.933,4.912,4.891,4.851,4.83,4.83,4.81,4.791,4.752,4.732,4.694,4.638,4.53,4.477,4.426,4.393,4.36,4.344,4.328,4.312,4.296,4.28,4.264,4.249,4.233,4.203,4.128,3.973,3.88,3.829,3.792,3.767,3.743,3.731,0.0,0.0,0.0,2.5755,2.577,2.29475,1.432,1.435,1.437,1.441,1.441,1.443,1.443,1.443,1.439,1.439,1.437,1.435,1.434,1.432,1.43,1.428,1.427,1.423,1.418,1.409,1.401,1.391,1.388,1.383,1.378,1.378,1.376,1.376,1.378,1.379,1.379,1.378,1.378,1.378,1.376,1.376,1.374,1.373,1.373,1.373,1.374,1.374,1.376,1.378,1.381,1.386,1.392,1.396,1.398,1.401,1.403,1.403,1.401,1.396,1.392,1.388,1.384,1.381,1.378,1.373,1.368,1.34,1.332,1.326,1.323,1.321,1.321,1.323,1.327,1.332,1.341
5.85,5.85,5.85,5.85,5.85,5.85,5.909,5.909,5.909,5.909,5.939,5.939,5.939,5.939,5.939,6.001,6.001,6.001,6.001,6.001,6.032,6.032,6.095,6.095,6.095,6.095,6.095,6.095,6.127,6.127,6.127,6.127,6.127,6.127,6.127,6.127,6.127,6.159,6.159,6.159,6.159,6.225,6.225,6.259,6.259,6.361,6.361,6.396,6.396,6.467,6.504,6.54,6.54,6.54,6.54,6.54,6.54,6.54,6.54,6.225,5.821,5.624,0.0,5.0280000000000005,4.775,4.551500000000001,4.328,4.218,4.158,4.07,4.014,3.987,3.946,3.933,3.92,3.92,3.906,3.893,3.893,3.893,3.893,3.88,3.88,3.88,3.88,3.868,3.868,3.868,3.868,3.868,3.868,3.868,3.868,3.868,3.88,3.88,3.893,3.893,3.906,3.906,3.92,3.92,3.92,3.92,3.933,3.933,3.933,3.933,3.946,3.946,3.946,3.973,3.987,3.987,4.014,4.028,4.028,4.07,4.085,4.114,4.114,4.158,4.158,4.173,4.1955,4.218,4.233,4.233,4.233,4.249,4.264,4.28,4.312,4.312,4.328,4.36,4.393,4.46,4.53,4.53,4.512,4.46,4.426,4.41,4.376,4.344,4.328,4.312,4.312,4.328,4.328,4.344,4.344,4.328,4.312,4.28,4.188,4.085,3.987,3.906,3.855,3.817,3.792,3.767,3.743,3.743,3.743,3.743,3.743,3.755,3.755,3.755,3.767,3.767,3.767,3.767,3.78,3.78,3.78,3.792,3.792,3.804,3.804,3.804,3.804,3.817,3.817,3.817,3.829,3.829,3.842,3.855,3.88,3.933,4.028,4.128,4.233,4.28,4.344,4.46,4.601,4.713,4.742,4.771,4.83,4.851,4.891,4.912,4.975,4.996,5.04,5.04,5.084,5.084,5.084,5.106,5.106,5.084,5.084,5.084,5.04,5.04,5.04,5.018,5.018,5.018,4.996,4.996,4.996,5.04,5.106,5.22,5.316,5.465,5.57,5.624,5.679,5.821,6.001,6.127,6.159,6.225,6.225,6.159,6.127,6.127,6.032,6.001,5.909,5.85,5.821,5.792,5.792,5.792,5.792,5.792,5.792,5.821,5.821,5.85,5.85,5.939,5.939,6.001,6.001,6.001,6.001,6.001,5.939,5.939,5.909,5.85,5.821,5.821,5.792,5.792,5.792,5.792,5.792,5.792,5.792,5.792,5.763,5.763,5.763,5.735,5.735,5.707,5.679,5.679,5.679,5.679,5.651,5.651,5.651,5.651,5.651,5.624,5.597,5.597,5.57,5.57,5.543,5.543,5.517,5.517,5.491,5.465,5.415,5.34,5.22,5.04,4.933,4.851,4.791,4.53,4.393,4.344,4.328,4.328,4.376,4.46,4.565,4.611000000000001,4.657,4.752,4.81,4.851,4.891,4.912,4.912,4.933,4.954,4.975,4.996,5.018,5.018,5.04,5.084,5.106,5.151,5.174,5.22,5.22,5.22,5.22,5.22,5.174,5.174,5.174,5.151,5.106,5.106,5.084,5.084,5.084,5.084,5.084,5.04,4.996,4.996,4.975,4.954,4.954,4.954,4.954,4.954,4.954,4.954,4.975,4.996,5.018,5.018,5.04,5.084,5.106,5.151,5.151,5.151,5.151,5.174,5.151,5.151,5.106,5.106,5.084,5.04,5.04,5.084,5.04,5.04,5.04,5.04,5.04,5.04,5.084,5.084,5.106,5.106,5.106,5.151,5.151,5.151,5.151,5.151,5.151,5.151,5.106,5.084,5.084,5.04,5.04,5.018,4.996,4.996,4.975,4.975,4.975,4.975,4.975,4.975,4.996,4.996,4.996,4.975,4.975,4.954,4.912,4.891,4.891,4.851,4.83,4.81,4.81,4.771,4.752,4.732,4.694,4.657,4.601,4.53,4.477,4.426,4.393,4.36,4.344,4.328,4.312,4.312,4.28,4.28,4.264,4.249,4.218,0.0,0.0,0.0,0.0,0.0,0.0,0.0,0.0,0.0,0.0,0.0,1.42,1.423,1.427,1.43,1.432,1.437,1.437,1.441,1.443,1.443,1.443,1.441,1.441,1.439,1.437,1.435,1.434,1.432,1.428,1.427,1.423,1.416,1.408,1.398,1.391,1.386,1.381,1.378,1.376,1.376,1.378,1.378,1.379,1.379,1.378,1.376,1.376,1.376,1.376,1.374,1.373,1.373,1.373,1.373,1.373,1.374,1.376,1.379,1.384,1.391,1.396,1.398,1.401,1.401,1.401,1.401,1.398,1.392,1.391,1.384,1.381,1.376,1.373,1.365,1.33,1.321,1.311,1.298,1.289,1.286,1.289,1.296,1.308,1.318
5.821,5.821,5.85,5.85,5.85,5.85,5.909,5.909,5.939,5.939,5.939,5.939,6.001,6.001,6.001,6.001,6.001,6.001,6.032,6.032,6.032,6.095,6.095,6.095,6.095,6.095,6.095,6.095,6.095,6.095,6.095,6.127,6.127,6.127,6.127,6.127,6.127,6.127,6.159,6.159,6.159,6.225,6.225,6.259,6.327,6.327,6.361,6.361,6.396,6.432,6.504,6.504,6.54,6.504,6.504,6.504,6.467,6.467,6.361,5.939,0.0,0.0,0.0,4.565,4.376,4.296,4.203,4.114,4.056,4.014,3.987,3.946,3.933,3.933,3.92,3.92,3.906,3.906,3.906,3.906,3.906,3.906,3.906,3.906,3.906,3.906,3.906,3.906,3.906,3.906,3.906,3.906,3.906,3.906,3.92,3.933,3.933,3.946,3.973,3.973,3.973,3.987,4.014,4.014,4.014,4.028,4.028,4.056,4.056,4.07,4.085,4.085,4.114,4.128,4.158,4.173,4.188,4.203,4.233,4.249,4.264,4.28,4.28,4.296,4.328,4.344,4.376,4.393,4.41,4.426,4.426,4.46,4.49925,4.512,4.53,4.565,4.601,4.657,4.713,4.732,4.713,4.694,4.657,4.601,4.601,4.53,4.477,4.41,4.393,4.393,4.426,4.41,4.426,4.426,4.393,4.36,4.312,4.218,4.128,4.028,3.92,3.855,3.817,3.804,3.78,3.767,3.767,3.755,3.755,3.755,3.755,3.755,3.767,3.767,3.767,3.767,3.78,3.78,3.78,3.792,3.792,3.804,3.804,3.804,3.817,3.817,3.829,3.829,3.829,3.829,3.84525,3.855,3.88,3.946,4.028,4.128,4.233,4.28,4.328,4.46,4.583,4.694,4.73475,4.771,4.81,4.851,4.891,4.912,4.954,4.996,5.018,5.04,5.084,5.084,5.084,5.084,5.106,5.084,5.084,5.084,5.04,5.04,5.04,5.018,5.018,5.018,5.018,5.018,5.018,5.04,5.106,5.22,5.34,5.465,5.543,5.597,5.679,5.792,5.939,6.032,6.127,6.159,6.159,6.159,6.159,6.127,6.095,6.032,5.939,5.939,5.909,5.85,5.85,5.85,5.85,5.85,5.909,5.909,5.939,5.939,6.001,6.001,6.032,6.032,6.032,6.032,6.001,6.001,5.939,5.909,5.85,5.821,5.821,5.792,5.763,5.763,5.763,5.763,5.763,5.763,5.763,5.763,5.735,5.735,5.735,5.735,5.707,5.679,5.679,5.679,5.679,5.651,5.651,5.651,5.651,5.624,5.624,5.624,5.597,5.597,5.57,5.57,5.543,5.543,5.517,5.517,5.491,5.465,5.44,5.389,5.244,5.106,4.975,4.891,4.83,4.752,4.477,4.393,4.36,4.376,4.41,4.477,4.565,4.611000000000001,4.657,4.732,4.81,4.851,4.912,4.912,4.933,4.954,4.975,4.996,5.018,5.04,5.04,5.04,5.084,5.106,5.106,5.151,5.174,5.22,5.22,5.22,5.174,5.174,5.151,5.106,5.084,5.04,5.084,5.04,5.04,5.04,5.018,5.018,5.018,4.975,4.975,4.954,4.954,4.954,4.954,4.954,4.954,4.954,4.954,4.975,4.975,4.996,5.018,5.04,5.084,5.106,5.151,5.174,5.174,5.174,5.22,5.174,5.174,5.151,5.106,5.106,5.084,5.084,5.084,5.04,5.04,5.04,5.04,5.04,5.084,5.084,5.084,5.084,5.084,5.106,5.106,5.106,5.106,5.106,5.106,5.106,5.084,5.084,5.04,5.04,5.018,5.018,4.996,4.996,4.954,4.954,4.933,4.933,4.933,4.933,4.933,4.933,4.933,4.933,4.933,4.912,4.912,4.891,4.891,4.851,4.83,4.81,4.81,4.771,4.752,4.713,4.694,4.657,4.601,4.53,4.512,4.46,4.426,4.393,4.36,4.344,4.328,4.328,4.312,4.312,4.296,4.28,4.264,4.249,0.0,0.0,0.0,0.0,0.0,0.0,0.0,0.0,0.0,0.0,0.0,1.4115,1.42,1.425,1.427,1.432,1.435,1.439,1.441,1.446,1.446,1.446,1.443,1.441,1.439,1.437,1.437,1.435,1.432,1.428,1.427,1.423,1.416,1.408,1.396,1.388,1.383,1.379,1.376,1.376,1.376,1.378,1.378,1.378,1.378,1.378,1.376,1.376,1.374,1.373,1.373,1.371,1.371,1.371,1.37,1.371,1.371,1.374,1.378,1.383,1.391,1.392,1.398,1.398,1.401,1.403,1.401,1.398,1.392,1.391,1.384,1.381,1.378,1.373,1.341,1.326,1.314,1.292,1.276,1.274,1.275,1.278,1.283,1.29325,1.301
5.821,5.821,5.821,5.85,5.85,5.85,5.909,5.939,5.939,5.939,6.001,6.001,6.001,6.032,6.032,6.032,6.032,6.032,6.095,6.095,6.095,6.095,6.095,6.095,6.095,6.095,6.095,6.095,6.095,6.095,6.095,6.127,6.127,6.127,6.127,6.127,6.127,6.159,6.159,6.159,6.225,6.225,6.259,6.259,6.327,6.361,6.361,6.396,6.396,6.432,6.467,6.504,6.504,6.467,6.467,6.432,6.396,6.361,6.225,5.809,0.0,0.0,4.53,4.328,4.28,4.188,4.128,4.07,4.056,3.987,3.987,3.973,3.973,3.946,3.933,3.933,3.933,3.92,3.92,3.92,3.933,3.933,3.933,3.933,3.933,3.946,3.946,3.946,3.946,3.946,3.946,3.946,3.973,3.973,3.973,3.987,4.014,4.014,4.028,4.056,4.07,4.07,4.085,4.114,4.128,4.128,4.128,4.158,4.173,4.188,4.203,4.218,4.233,4.233,4.249,4.264,4.264,4.28,4.296,4.328,4.344,4.376,4.41,4.46,4.565,4.6015,4.638,4.713,4.6765,4.732,4.732,4.713,4.713,4.694,4.694,4.694,4.713,4.732,4.752,4.771,4.752,4.752,4.732,4.713,4.694,4.657,4.601,4.565,4.53,4.512,4.53,4.53,4.53,4.53,4.53,4.477,4.393,4.328,4.264,4.203,4.07,3.946,3.868,3.829,3.817,3.804,3.792,3.78,3.767,3.755,3.755,3.767,3.767,3.767,3.767,3.767,3.78,3.78,3.792,3.792,3.804,3.804,3.804,3.817,3.817,3.829,3.829,3.829,3.842,3.842,3.855,3.86775,3.893,3.946,4.028,4.128,4.218,4.28,4.328,4.426,4.565,4.638,4.732,4.7615,4.791,4.83,4.851,4.891,4.933,4.975,4.996,5.04,5.084,5.084,5.084,5.084,5.084,5.084,5.084,5.084,5.04,5.04,5.04,5.04,5.04,5.04,5.018,5.04,5.04,5.084,5.151,5.244,5.34,5.465,5.543,5.597,5.679,5.763,5.85,6.001,6.095,6.159,6.127,6.159,6.159,6.159,6.127,6.095,6.032,6.001,6.001,6.001,6.001,6.001,6.001,6.001,6.032,6.032,6.095,6.095,6.127,6.159,6.159,6.127,6.127,6.127,6.095,6.032,6.001,5.909,5.85,5.821,5.821,5.821,5.792,5.792,5.763,5.763,5.763,5.763,5.763,5.735,5.735,5.707,5.707,5.707,5.707,5.679,5.679,5.679,5.651,5.651,5.651,5.651,5.624,5.624,5.597,5.597,5.597,5.57,5.57,5.543,5.543,5.517,5.517,5.517,5.491,5.465,5.44,5.389,5.268,5.151,5.018,4.912,4.851,4.81,4.713,4.46,4.41,4.41,4.46,4.512,4.583,4.6129999999999995,4.657,4.732,4.81,4.851,4.912,4.933,4.954,4.975,4.996,5.018,5.018,5.04,5.04,5.04,5.04,5.106,5.106,5.151,5.174,5.174,5.174,5.174,5.174,5.151,5.106,5.084,5.084,5.04,5.018,4.996,4.996,5.018,4.996,4.996,4.975,4.975,4.954,4.954,4.954,4.954,4.954,4.954,4.954,4.954,4.954,4.975,4.975,4.996,5.018,5.04,5.084,5.151,5.151,5.174,5.174,5.22,5.22,5.174,5.174,5.174,5.151,5.151,5.106,5.106,5.084,5.084,5.084,5.04,5.084,5.084,5.084,5.084,5.084,5.084,5.106,5.106,5.106,5.106,5.106,5.106,5.106,5.084,5.084,5.04,5.04,5.018,5.018,4.996,4.996,4.975,4.933,4.912,4.912,4.912,4.912,4.912,4.912,4.912,4.912,4.912,4.912,4.891,4.891,4.871,4.851,4.83,4.83,4.81,4.771,4.752,4.713,4.694,4.657,4.638,4.583,4.565,4.477,4.46,4.41,4.393,4.376,4.36,4.344,4.328,4.312,4.312,4.312,4.312,4.296,4.28,0.0,0.0,0.0,0.0,0.0,0.0,0.0,0.0,1.381,1.384,1.391,1.403,1.414,1.423,1.427,1.43,1.434,1.439,1.441,1.446,1.446,1.448,1.446,1.443,1.439,1.439,1.437,1.435,1.432,1.432,1.427,1.423,1.414,1.404,1.392,1.386,1.381,1.378,1.374,1.374,1.374,1.376,1.376,1.376,1.376,1.376,1.376,1.374,1.373,1.371,1.37,1.37,1.368,1.368,1.366,1.366,1.368,1.371,1.376,1.381,1.388,1.392,1.396,1.398,1.403,1.401,1.401,1.398,1.392,1.388,1.386,1.381,1.378,1.373,1.337,1.321,1.304,1.274,1.268,1.259,1.259,1.265,1.274,1.281,1.2907499999999998
5.821,5.821,5.85,5.85,5.85,5.909,5.939,5.939,6.001,6.001,6.032,6.032,6.095,6.095,6.095,6.095,6.095,6.095,6.095,6.095,6.127,6.127,6.127,6.127,6.127,6.127,6.127,6.095,6.095,6.095,6.095,6.127,6.127,6.127,6.127,6.159,6.159,6.159,6.225,6.225,6.225,6.259,6.327,6.327,6.361,6.361,6.396,6.396,6.432,6.432,6.467,6.504,6.504,6.467,6.432,6.396,6.361,6.259,6.127,5.679,0.0,0.0,4.426,4.28,4.188,4.158,4.114,4.07,4.056,4.028,4.014,3.987,3.987,3.973,3.973,3.946,3.946,3.946,3.973,3.973,3.973,3.973,3.973,3.987,3.987,3.987,4.014,4.014,4.014,4.014,4.014,4.028,4.028,4.028,4.056,4.056,4.07,4.085,4.114,4.114,4.128,4.158,4.173,4.188,4.203,4.218,4.218,4.249,4.249,4.249,4.264,4.264,4.28,4.28,4.296,4.312,4.328,4.328,4.376,4.41,4.477,4.50025,4.565,4.601,4.694,4.733874999999999,4.81,4.851,4.851,4.851,4.83,4.83,4.81,4.771,4.752,4.732,4.732,4.752,4.771,4.791,4.771,4.771,4.771,4.791,4.771,4.752,4.713,4.657,4.638,4.638,4.638,4.601,4.601,4.601,4.601,4.583,4.512,4.426,4.376,4.28,4.218,4.085,3.946,3.88,3.842,3.817,3.804,3.792,3.78,3.78,3.767,3.767,3.767,3.78,3.78,3.78,3.78,3.78,3.792,3.792,3.804,3.804,3.817,3.817,3.817,3.829,3.829,3.8355,3.842,3.8485,3.855,3.868,3.893,3.946,4.028,4.128,4.218,4.264,4.312,4.376,4.477,4.583,4.694,4.752,4.781,4.81,4.83,4.871,4.912,4.954,4.996,5.018,5.04,5.084,5.084,5.084,5.084,5.084,5.084,5.084,5.084,5.04,5.04,5.04,5.04,5.04,5.084,5.084,5.084,5.151,5.174,5.268,5.389,5.491,5.543,5.597,5.651,5.707,5.821,5.939,6.001,6.095,6.127,6.127,6.159,6.159,6.159,6.127,6.127,6.095,6.095,6.095,6.095,6.095,6.095,6.127,6.127,6.159,6.159,6.225,6.259,6.259,6.259,6.225,6.159,6.159,6.127,6.095,6.032,5.939,5.909,5.909,5.85,5.821,5.792,5.792,5.792,5.763,5.763,5.763,5.763,5.735,5.735,5.707,5.679,5.679,5.679,5.679,5.679,5.651,5.651,5.651,5.651,5.624,5.597,5.597,5.57,5.57,5.57,5.543,5.543,5.517,5.517,5.491,5.491,5.491,5.491,5.44,5.44,5.389,5.268,5.174,5.04,4.954,4.891,4.83,4.771,4.53,4.477,4.477,4.512,4.565,4.583,4.601,4.657,4.732,4.81,4.851,4.891,4.933,4.954,4.975,4.996,5.018,5.04,5.04,5.04,5.04,5.084,5.084,5.106,5.151,5.151,5.174,5.174,5.174,5.151,5.106,5.106,5.084,5.04,5.018,4.996,4.996,4.996,4.996,4.996,4.975,4.954,4.954,4.954,4.954,4.954,4.954,4.954,4.954,4.954,4.954,4.954,4.975,4.975,4.996,5.018,5.084,5.106,5.151,5.151,5.174,5.22,5.22,5.22,5.22,5.22,5.174,5.174,5.151,5.106,5.106,5.106,5.084,5.084,5.084,5.084,5.106,5.106,5.106,5.106,5.084,5.084,5.084,5.106,5.106,5.084,5.084,5.084,5.04,5.04,5.04,5.018,5.018,4.996,4.975,4.975,4.954,4.933,4.912,4.912,4.912,4.912,4.912,4.891,4.891,4.891,4.891,4.891,4.891,4.871,4.851,4.851,4.83,4.81,4.791,4.752,4.713,4.694,4.638,4.601,4.583,4.565,4.512,4.477,4.426,4.41,4.393,4.376,4.36,4.344,4.328,4.328,4.328,4.328,4.312,4.312,0.0,0.0,0.0,0.0,0.0,0.0,0.0,1.373,1.376,1.378,1.383,1.3874999999999997,1.392,1.408,1.42,1.425,1.43,1.432,1.437,1.441,1.446,1.448,1.448,1.446,1.446,1.443,1.441,1.439,1.435,1.434,1.432,1.427,1.421,1.413,1.403,1.391,1.383,1.378,1.376,1.373,1.371,1.371,1.373,1.373,1.374,1.374,1.373,1.373,1.371,1.371,1.37,1.366,1.365,1.363,1.362,1.36,1.36,1.363,1.3679999999999999,1.373,1.378,1.384,1.391,1.392,1.398,1.401,1.401,1.398,1.396,1.392,1.388,1.386,1.383,1.378,1.374,1.332,1.317,1.289,1.261,1.252,1.245,1.244,1.249,1.257,1.274,1.283
5.821,5.821,5.85,5.85,5.85,5.909,5.939,5.970000000000001,6.001,6.032,6.032,6.095,6.095,6.095,6.095,6.095,6.095,6.127,6.127,6.127,6.127,6.127,6.127,6.127,6.127,6.127,6.127,6.127,6.095,6.095,6.127,6.127,6.127,6.159,6.159,6.159,6.159,6.225,6.225,6.259,6.259,6.327,6.361,6.361,6.396,6.396,6.432,6.432,6.432,6.467,6.467,6.504,6.504,6.432,6.396,6.396,6.327,6.259,6.127,5.707,5.2295,4.752,4.41,4.264,4.173,4.158,4.114,4.085,4.07,4.07,4.056,4.028,4.028,4.028,4.014,4.014,4.014,4.014,4.014,4.014,4.014,4.028,4.028,4.056,4.056,4.07,4.07,4.07,4.07,4.085,4.085,4.085,4.085,4.114,4.114,4.114,4.128,4.158,4.173,4.188,4.203,4.218,4.233,4.249,4.249,4.249,4.264,4.264,4.28,4.296,4.312,4.312,4.312,4.328,4.328,4.344,4.36,4.393,4.426,4.4695,4.512,4.583,4.657,4.732,4.791,4.83,4.871,4.891,4.912,4.912,4.891,4.851,4.83,4.81,4.752,4.732,4.732,4.752,4.771,4.771,4.791,4.791,4.791,4.81,4.81,4.791,4.771,4.752,4.713,4.713,4.713,4.713,4.732,4.732,4.713,4.694,4.657,4.583,4.512,4.426,4.264,4.188,4.07,3.933,3.88,3.855,3.842,3.817,3.804,3.792,3.78,3.78,3.78,3.78,3.78,3.78,3.78,3.78,3.792,3.804,3.804,3.804,3.817,3.817,3.829,3.829,3.829,3.842,3.8485,3.855,3.8615,3.868,3.893,3.946,4.014,4.085,4.188,4.249,4.296,4.344,4.41,4.512,4.583,4.694,4.771,4.800249999999999,4.81,4.851,4.891,4.933,4.975,5.018,5.04,5.04,5.084,5.084,5.084,5.084,5.084,5.084,5.084,5.084,5.084,5.084,5.084,5.084,5.084,5.106,5.151,5.174,5.244,5.316,5.415,5.491,5.543,5.597,5.624,5.679,5.763,5.85,5.939,6.032,6.095,6.127,6.159,6.225,6.225,6.159,6.159,6.127,6.127,6.127,6.127,6.159,6.159,6.225,6.225,6.225,6.259,6.259,6.327,6.327,6.259,6.259,6.259,6.225,6.159,6.127,6.032,6.001,5.939,5.909,5.909,5.85,5.85,5.821,5.792,5.792,5.792,5.763,5.763,5.735,5.707,5.679,5.679,5.679,5.679,5.679,5.651,5.651,5.651,5.624,5.597,5.597,5.597,5.57,5.543,5.543,5.543,5.543,5.491,5.491,5.465,5.465,5.465,5.44,5.44,5.415,5.415,5.34,5.268,5.174,5.084,4.975,4.912,4.851,4.81,4.732,4.638,4.583,4.565,4.583,4.583,4.638,4.694,4.752,4.81,4.851,4.891,4.912,4.954,4.975,4.996,5.018,5.04,5.018,5.04,5.04,5.04,5.084,5.084,5.151,5.151,5.151,5.151,5.151,5.106,5.106,5.106,5.04,5.04,5.018,4.996,4.996,4.996,4.996,4.996,4.996,4.975,4.975,4.954,4.954,4.954,4.954,4.954,4.954,4.954,4.954,4.975,4.975,4.975,4.996,5.04,5.084,5.106,5.151,5.151,5.22,5.22,5.244,5.244,5.244,5.244,5.22,5.174,5.151,5.151,5.106,5.106,5.106,5.106,5.084,5.106,5.106,5.106,5.151,5.151,5.106,5.106,5.106,5.084,5.084,5.084,5.04,5.04,5.018,5.018,4.996,4.996,4.996,4.975,4.954,4.954,4.933,4.912,4.912,4.912,4.891,4.891,4.891,4.891,4.891,4.891,4.891,4.891,4.891,4.851,4.851,4.83,4.81,4.81,4.771,4.732,4.694,4.657,4.601,4.583,4.565,4.53,4.477,4.46,4.426,4.393,4.393,4.376,4.36,4.344,4.344,4.328,4.328,4.328,4.328,4.328,0.0,0.0,0.0,0.0,0.0,0.0,0.0,1.366,1.37,1.373,1.376,1.384,1.3895,1.398,1.413,1.423,1.428,1.432,1.437,1.441,1.448,1.452,1.452,1.452,1.448,1.446,1.443,1.441,1.437,1.434,1.432,1.427,1.421,1.413,1.403,1.388,1.381,1.376,1.373,1.371,1.37,1.37,1.371,1.371,1.371,1.371,1.371,1.37,1.37,1.368,1.365,1.362,1.357,1.355,1.352,1.352,1.35,1.355,0.0,1.3705,1.376,1.383,1.388,1.392,1.396,1.401,1.398,1.398,1.396,1.392,1.388,1.384,1.383,1.379,1.376,1.327,1.311,1.267,1.248,1.24,1.237,1.237,1.237,1.242,1.259,1.276
5.821,5.821,5.85,5.85,5.8795,5.909,5.939,5.9855,6.032,6.032,6.095,6.095,6.127,6.127,6.127,6.127,6.127,6.127,6.159,6.159,6.159,6.159,6.159,6.159,6.159,6.159,6.127,6.127,6.127,6.127,6.127,6.159,6.159,6.159,6.159,6.225,6.225,6.259,6.327,6.327,6.327,6.361,6.361,6.396,6.432,6.432,6.432,6.467,6.467,6.467,6.504,6.504,6.467,6.432,6.396,6.361,6.327,6.327,6.159,5.763,0.0,0.0,4.53,4.312,4.203,4.173,4.128,4.114,4.114,4.085,4.07,4.085,4.07,4.07,4.07,4.07,4.07,4.07,4.07,4.07,4.085,4.085,4.085,4.114,4.114,4.128,4.128,4.128,4.128,4.158,4.158,4.158,4.173,4.173,4.173,4.188,4.203,4.218,4.218,4.233,4.249,4.264,4.264,4.28,4.28,4.28,4.296,4.312,4.312,4.328,4.328,4.344,4.36,4.376,4.393,4.41,4.426,4.452,4.477,4.53,4.601,4.694,4.752,4.81,4.83,4.891,4.912,4.954,4.933,4.933,4.912,4.891,4.851,4.81,4.732,4.713,4.713,4.732,4.752,4.771,4.771,4.771,4.791,4.81,4.81,4.81,4.791,4.791,4.791,4.791,4.791,4.81,4.83,4.83,4.83,4.83,4.81,4.771,4.713,4.601,4.46,4.264,4.249,4.114,3.987,3.906,3.855,3.829,3.817,3.804,3.792,3.792,3.78,3.78,3.78,3.78,3.78,3.78,3.792,3.804,3.804,3.804,3.817,3.817,3.829,3.829,3.8355,3.842,3.855,3.855,3.863125,3.868,3.893,3.933,4.014,4.085,4.173,4.249,4.28,4.328,4.376,4.46,4.53,4.638,4.732,4.81,4.82,4.83,4.871,4.912,4.954,4.996,5.04,5.04,5.084,5.084,5.084,5.084,5.084,5.084,5.084,5.084,5.084,5.106,5.106,5.106,5.151,5.174,5.174,5.244,5.268,5.389,5.44,5.517,5.543,5.597,5.624,5.679,5.735,5.821,5.909,6.001,6.032,6.127,6.225,6.259,6.259,6.225,6.225,6.225,6.225,6.225,6.225,6.225,6.259,6.259,6.259,6.327,6.327,6.361,6.361,6.361,6.361,6.361,6.327,6.259,6.259,6.159,6.095,6.095,6.001,6.001,5.939,5.939,5.909,5.909,5.821,5.821,5.792,5.763,5.763,5.735,5.707,5.679,5.679,5.679,5.651,5.651,5.651,5.624,5.624,5.597,5.597,5.57,5.57,5.543,5.543,5.465,5.465,5.44,5.44,5.44,5.415,5.415,5.44,5.415,5.415,5.415,5.389,5.316,5.244,5.151,5.084,4.996,4.933,4.891,4.851,4.791,4.732,4.694,4.657,4.657,4.657,4.694,4.713,4.771,4.81,4.851,4.891,4.912,4.954,4.975,4.996,5.018,5.018,5.04,5.04,5.04,5.04,5.084,5.084,5.106,5.151,5.151,5.151,5.106,5.084,5.084,5.084,5.04,5.04,5.018,4.996,4.996,4.996,4.996,4.996,4.996,4.996,4.975,4.975,4.975,4.975,4.975,4.975,4.975,4.975,4.975,4.975,4.996,4.996,5.018,5.04,5.084,5.106,5.151,5.174,5.22,5.244,5.268,5.268,5.268,5.268,5.22,5.174,5.174,5.151,5.106,5.106,5.106,5.084,5.106,5.106,5.106,5.151,5.151,5.151,5.106,5.106,5.106,5.084,5.084,5.04,5.018,5.018,4.996,4.996,4.996,4.975,4.975,4.954,4.954,4.933,4.933,4.912,4.912,4.891,4.891,4.891,4.891,4.891,4.891,4.891,4.891,4.891,4.871,4.851,4.851,4.83,4.81,4.791,4.752,4.713,4.657,4.601,4.583,4.565,4.53,4.477,4.46,4.426,4.41,4.393,4.376,4.376,4.36,4.36,4.344,4.344,4.344,4.344,4.328,4.328,0.0,0.0,0.0,0.0,0.0,0.0,0.0,1.355,1.36,1.366,1.37,1.376,1.384,1.3922499999999998,1.401,1.416,1.425,1.432,1.435,1.441,1.452,1.453,1.453,1.453,1.452,1.448,1.446,1.441,1.439,1.435,1.432,1.425,1.42,1.409,1.401,1.386,1.378,1.376,1.371,1.37,1.366,1.366,1.368,1.368,1.37,1.368,1.366,1.365,1.365,1.362,1.357,1.352,1.35,1.346,1.344,1.344,1.341,1.346,1.3570000000000002,1.368,1.373,1.379,1.386,1.388,1.396,1.398,1.398,1.398,1.396,1.392,1.388,1.386,1.383,1.379,1.376,1.36,1.3085,1.257,1.237,1.234,1.233,1.232,1.232,1.234,1.242,1.268
5.821,5.85,5.85,5.85,5.886875,5.909,5.939,6.001,6.032,6.032,6.095,6.095,6.127,6.127,6.127,6.127,6.127,6.127,6.159,6.159,6.159,6.159,6.159,6.159,6.159,6.159,6.159,6.127,6.127,6.127,6.159,6.159,6.159,6.159,6.225,6.225,6.259,6.327,6.327,6.361,6.361,6.396,6.396,6.432,6.467,6.467,6.432,6.467,6.467,6.432,6.467,6.467,6.432,6.396,6.361,6.361,6.327,6.327,6.159,5.821,0.0,0.0,4.791,4.512,4.344,4.28,4.203,4.173,4.128,4.128,4.114,4.114,4.114,4.114,4.114,4.114,4.114,4.114,4.114,4.128,4.128,4.128,4.158,4.158,4.173,4.173,4.188,4.188,4.203,4.203,4.203,4.203,4.218,4.218,4.233,4.233,4.249,4.249,4.249,4.264,4.264,4.28,4.28,4.296,4.312,4.312,4.328,4.328,4.344,4.344,4.36,4.376,4.393,4.41,4.426,4.46,4.477,4.512,4.53,4.583,4.657,4.732,4.791,4.83,4.871,4.912,4.954,4.975,4.975,4.933,4.912,4.871,4.83,4.771,4.732,4.694,4.694,4.713,4.732,4.732,4.752,4.752,4.791,4.81,4.81,4.81,4.81,4.81,4.81,4.81,4.83,4.851,4.891,4.891,4.891,4.891,4.871,4.83,4.81,4.81,4.694,4.512,4.28,4.173,4.056,3.946,3.868,3.855,3.829,3.817,3.804,3.804,3.792,3.792,3.792,3.78,3.792,3.792,3.792,3.804,3.804,3.804,3.817,3.817,3.829,3.829,3.8371250000000003,3.842,3.855,3.855,3.868,3.8804999999999996,3.893,3.933,3.987,4.07,4.128,4.218,4.264,4.296,4.328,4.393,4.477,4.601,4.713,4.771,4.80775,4.83,4.851,4.912,4.954,4.996,5.018,5.04,5.04,5.084,5.084,5.084,5.084,5.084,5.084,5.106,5.106,5.106,5.106,5.151,5.151,5.22,5.244,5.268,5.34,5.415,5.465,5.543,5.57,5.597,5.624,5.651,5.707,5.792,5.85,5.939,6.032,6.127,6.159,6.259,6.259,6.259,6.259,6.259,6.259,6.259,6.259,6.259,6.259,6.327,6.327,6.361,6.361,6.396,6.396,6.396,6.396,6.361,6.361,6.361,6.259,6.225,6.159,6.095,6.095,6.032,6.032,6.001,5.939,5.939,5.909,5.85,5.821,5.792,5.763,5.735,5.679,5.679,5.651,5.651,5.651,5.624,5.624,5.597,5.597,5.57,5.57,5.543,5.543,5.465,5.465,5.415,5.389,5.389,5.389,5.389,5.389,5.389,5.415,5.389,5.389,5.389,5.34,5.316,5.244,5.151,5.106,5.018,4.954,4.912,4.871,4.83,4.791,4.752,4.752,4.732,4.732,4.732,4.752,4.791,4.83,4.851,4.891,4.912,4.933,4.975,4.996,5.018,5.018,5.018,5.04,5.04,5.04,5.084,5.084,5.084,5.106,5.106,5.106,5.106,5.084,5.084,5.084,5.04,5.018,5.018,4.996,4.996,4.996,4.996,4.996,4.996,4.996,4.996,4.996,4.996,4.975,4.975,4.975,4.975,4.975,4.975,4.996,4.996,4.996,5.018,5.04,5.106,5.151,5.151,5.174,5.244,5.268,5.268,5.316,5.316,5.316,5.244,5.22,5.174,5.174,5.151,5.151,5.106,5.106,5.106,5.106,5.151,5.151,5.151,5.106,5.106,5.106,5.084,5.084,5.04,5.04,5.018,0.0,0.0,0.0,0.0,0.0,0.0,0.0,0.0,4.933,4.912,4.912,4.912,4.891,4.891,4.891,4.891,4.891,4.891,4.891,4.891,4.871,4.871,4.851,4.83,4.81,4.81,4.771,4.732,4.694,4.601,4.583,4.565,4.53,4.512,4.46,4.46,4.426,4.41,4.393,4.376,4.376,4.36,4.344,4.344,4.344,4.344,4.328,4.328,0.0,0.0,0.0,0.0,0.0,0.0,0.0,1.341,1.344,1.346,1.352,1.362,1.37,1.376,1.386,1.3935,1.403,1.42,1.427,1.434,1.441,1.452,1.453,1.457,1.453,1.452,1.452,1.446,1.443,1.439,1.435,1.432,1.425,1.416,1.404,1.396,1.383,1.376,1.373,1.37,1.365,1.362,1.363,1.363,1.363,1.363,1.362,1.36,1.357,1.355,1.352,1.349,1.344,1.341,1.337,1.335,1.333,1.333,1.335,1.3467500000000001,1.36,1.37,1.376,1.381,1.386,1.391,1.396,1.398,1.396,1.392,1.391,1.386,1.384,1.381,1.378,1.376,1.362,1.3075,1.253,1.233,1.232,1.229,1.228,1.228,1.229,1.233,1.249
5.85,5.85,5.85,5.85,5.909,5.939,5.939,6.001,6.032,6.032,6.095,6.095,6.127,6.127,6.127,6.127,6.127,6.127,6.159,6.159,6.159,6.159,6.159,6.159,6.159,6.159,6.159,6.159,6.159,6.159,6.159,6.159,6.225,6.225,6.259,6.327,6.327,6.361,6.396,6.396,6.396,6.396,6.432,6.432,6.467,6.467,6.467,6.432,6.432,6.432,6.396,6.396,6.361,6.361,6.361,6.327,6.327,6.327,6.259,5.939,5.679,5.3165,4.954,4.83,4.638,4.426,4.344,4.264,4.233,4.203,4.188,4.158,4.158,4.128,4.158,4.158,4.158,4.158,4.158,4.158,4.173,4.173,4.188,4.203,4.203,4.218,4.218,4.233,4.233,4.233,4.249,4.249,4.249,4.249,4.249,4.249,4.264,4.264,4.264,4.28,4.28,4.296,4.312,4.312,4.312,4.328,4.328,4.344,4.36,4.376,4.393,4.41,4.426,4.46,4.477,4.512,4.53,4.565,4.601,4.638,4.713,4.771,4.81,4.851,4.891,4.933,4.975,4.975,4.954,4.912,4.891,4.851,4.771,4.732,4.694,4.657,4.657,4.694,4.694,4.713,4.732,4.752,4.771,4.791,4.791,4.81,4.81,4.81,4.81,4.83,0.0,0.0,0.0,4.912,4.933,4.92775,4.933,4.891,4.851,4.81,4.732,4.53,4.296,4.218,4.114,3.987,3.906,3.868,3.842,3.817,3.817,3.804,3.804,3.804,3.792,3.792,3.792,3.792,3.804,3.804,3.804,3.804,3.817,3.817,3.829,3.8355,3.842,3.855,3.855,3.8615,3.868,3.8804999999999996,3.893,3.92,3.973,4.028,4.085,4.173,4.233,4.264,4.312,4.36,4.426,4.565,4.657,4.752,4.81,4.8305,4.851,4.891,4.933,4.975,5.018,5.018,5.04,5.084,5.084,5.084,5.084,5.106,5.106,5.106,5.106,5.151,5.151,5.151,5.22,5.244,5.268,5.316,5.34,5.415,5.491,5.543,5.57,5.597,5.624,5.651,5.707,5.792,5.85,5.939,6.032,6.095,6.225,6.259,6.327,6.327,6.327,6.327,6.327,6.327,6.327,6.327,6.327,6.361,6.361,6.396,6.396,6.396,6.432,6.396,6.396,6.396,6.361,6.361,6.327,6.259,6.159,6.127,6.095,6.095,6.032,6.032,6.032,6.001,5.939,5.909,5.85,5.792,5.763,5.707,5.679,5.651,5.651,5.624,5.624,5.597,5.597,5.597,5.57,5.543,5.543,5.517,5.44,5.415,5.389,5.34,5.316,5.316,5.268,5.316,5.316,5.316,5.316,5.34,5.389,5.389,5.316,5.268,5.244,5.151,5.106,5.04,4.975,4.912,4.891,4.851,4.81,4.791,4.771,4.771,4.752,4.771,4.791,4.81,4.83,4.851,4.891,4.912,4.933,4.954,4.996,5.018,5.018,5.018,5.018,5.018,5.018,5.04,5.084,5.084,5.106,5.084,5.106,5.084,5.084,5.04,5.04,5.04,5.018,5.018,4.996,4.996,4.996,5.018,4.996,4.996,4.996,4.996,4.996,4.996,4.996,4.996,4.996,4.996,4.996,4.996,4.996,4.996,5.018,5.04,5.084,5.106,5.151,5.174,5.22,5.244,5.268,5.292,5.316,5.316,5.316,5.268,5.244,5.22,5.174,5.174,5.174,5.151,5.106,5.106,5.151,5.151,5.151,5.151,5.106,5.106,5.106,5.084,0.0,0.0,0.0,0.0,0.0,0.0,0.0,0.0,0.0,0.0,0.0,0.0,0.0,0.0,0.0,0.0,4.891,4.891,4.891,4.891,4.891,4.871,4.871,4.871,4.871,4.851,4.851,4.83,4.81,4.791,4.752,4.694,4.657,4.601,4.565,4.53,4.512,4.477,4.426,4.426,4.41,4.393,4.393,4.376,4.36,4.36,4.344,4.328,4.328,4.328,4.328,0.0,0.0,0.0,0.0,0.0,0.0,0.0,0.0,1.327,1.327,1.33,1.333,1.34,1.352,1.368,1.376,1.384,1.3937499999999998,1.404,1.421,1.428,1.434,1.443,1.446,1.452,1.452,1.452,1.448,1.446,1.443,1.439,1.434,1.43,1.42,1.408,1.396,1.383,1.376,1.371,1.368,1.357,1.355,1.355,1.355,1.355,1.355,1.352,1.352,1.35,1.349,1.344,1.341,1.34,1.335,1.332,1.33,1.329,1.327,1.327,1.329,1.335,1.35,1.366,1.373,1.378,1.383,1.386,1.392,1.392,1.392,1.391,1.388,1.386,1.383,1.379,1.378,1.376,1.363,1.306,1.249,1.231,1.227,1.224,1.223,1.215,1.215,1.224,1.234
5.85,5.85,5.85,5.8795,5.909,5.939,5.939,6.001,6.001,6.032,6.095,6.095,6.095,6.127,6.127,6.095,6.127,6.127,6.127,6.159,6.159,6.159,6.159,6.159,6.159,6.159,6.159,6.159,6.159,6.159,6.225,6.225,6.259,6.259,6.327,6.361,6.396,6.396,6.396,6.432,6.432,6.467,6.467,6.467,6.467,6.467,6.432,6.432,6.396,6.396,6.361,6.361,6.361,6.327,6.327,6.327,6.361,6.361,6.327,6.095,5.821,5.651,5.3165,5.146875,4.871,4.771,4.657,4.512,4.393,4.296,4.264,4.249,4.218,4.188,4.173,4.173,4.173,4.188,4.188,4.188,4.188,4.218,4.218,4.233,4.249,4.249,4.249,4.249,4.249,4.249,4.249,4.249,4.264,4.264,4.264,4.264,4.264,4.264,4.28,4.28,4.296,4.312,4.312,4.328,4.328,4.344,4.36,4.376,4.393,4.41,4.426,4.46,4.477,4.512,4.53,4.53,4.565,4.601,4.638,4.694,4.732,4.791,4.83,4.871,4.891,4.933,4.975,4.954,4.912,4.891,4.851,4.83,4.752,4.713,4.657,4.638,4.657,4.657,4.657,4.694,4.694,4.713,4.713,4.732,4.752,4.771,4.771,4.791,4.81,4.83,0.0,0.0,0.0,4.933,4.975,4.954,4.933,4.912,4.871,4.83,4.732,4.565,4.312,4.249,4.158,4.028,3.933,3.88,3.855,3.829,3.817,3.817,3.804,3.804,3.804,3.804,3.804,3.804,3.804,3.804,3.804,3.804,3.817,3.8230000000000004,3.829,3.8371250000000003,3.842,3.855,3.855,3.868,3.868,3.880375,3.893,3.92,3.946,4.014,4.056,4.114,4.188,4.249,4.28,4.328,4.393,4.512,4.638,4.732,4.81,4.8305,4.851,4.891,4.912,4.954,4.996,5.018,5.04,5.04,5.084,5.084,5.106,5.106,5.106,5.151,5.151,5.151,5.174,5.174,5.22,5.244,5.316,5.34,5.389,5.44,5.517,5.543,5.57,5.597,5.624,5.651,5.707,5.792,5.85,5.939,6.032,6.127,6.225,6.259,6.327,6.327,6.327,6.327,6.327,6.327,6.327,6.361,6.361,6.361,6.361,6.361,6.396,6.396,6.396,6.396,6.396,6.361,6.361,6.327,6.327,6.259,6.225,6.159,6.159,6.127,6.127,6.095,6.095,6.032,6.001,5.939,5.85,5.821,5.763,5.707,5.679,5.651,5.624,5.597,5.597,5.597,5.57,5.57,5.543,5.543,5.491,5.415,5.389,5.316,5.268,5.244,5.244,5.244,5.22,5.244,5.22,5.244,5.268,5.268,5.316,5.268,5.268,5.244,5.174,5.151,5.084,5.018,4.954,4.912,4.891,4.851,4.83,4.81,4.81,4.791,4.81,4.81,4.81,4.83,4.83,4.871,4.891,4.912,4.933,4.954,4.975,4.975,4.996,5.018,5.018,5.018,5.018,5.04,5.04,5.084,5.084,5.084,5.084,5.084,5.04,5.04,5.04,5.04,5.018,5.018,5.018,5.018,5.018,5.018,5.018,5.018,4.996,4.996,4.996,4.996,4.996,4.996,4.996,4.996,4.996,5.018,5.018,5.04,5.04,5.04,5.084,5.106,5.151,5.174,5.22,5.244,0.0,0.0,0.0,0.0,0.0,0.0,3.15,3.138,3.115,3.115,3.1140000000000003,2.5935,1.055,1.055,1.054,1.054,1.055,1.055,1.054,1.054,1.054,1.054,0.0,0.0,0.0,0.0,0.0,0.0,0.0,0.0,0.0,0.0,0.0,0.0,0.0,0.0,0.0,0.0,0.0,0.0,0.0,0.0,4.871,4.871,4.871,4.871,4.851,4.851,4.83,4.81,4.791,4.752,4.732,4.657,4.601,4.565,4.53,4.512,4.477,4.393,4.36,4.328,4.328,4.312,4.296,4.28,4.28,4.28,4.264,4.28,4.28,4.296,0.0,0.0,0.0,0.0,0.0,0.0,0.0,0.0,1.32,1.32,1.32,1.321,1.323,1.326,1.333,1.349,1.365,1.373,1.384,1.392,1.404,1.421,1.427,1.434,1.439,1.441,1.446,1.448,1.448,1.448,1.443,1.439,1.434,1.43,1.418,1.403,1.388,1.379,1.366,1.346,1.344,1.341,1.341,1.344,1.344,1.344,1.344,1.341,1.341,1.337,1.337,1.333,1.332,1.329,1.327,1.327,1.326,1.326,1.326,1.326,1.327,1.335,1.349,1.363,1.373,1.378,1.381,1.386,1.391,1.391,1.391,1.388,1.386,1.384,1.383,1.379,1.379,1.378,1.368,1.3065000000000002,1.245,1.225,1.22,1.215,1.203,1.2,1.203,1.21025,1.219
5.85,5.85,5.85,5.909,5.909,5.909,5.939,6.001,6.001,6.001,6.032,6.095,6.095,6.095,6.095,6.095,6.095,6.095,6.127,6.127,6.127,6.159,6.159,6.159,6.159,6.159,6.159,6.159,6.159,6.225,6.259,6.259,6.259,6.327,6.361,6.396,6.396,6.432,6.467,6.467,6.467,6.467,6.504,6.504,6.467,6.467,6.432,6.396,6.396,6.361,6.327,6.327,6.259,6.259,6.327,6.327,6.361,6.396,6.396,6.259,6.095,5.821,5.679,5.57,5.261,5.1165,4.891,4.83,4.732,4.638,4.53,4.344,4.312,4.28,4.249,4.249,4.218,4.218,4.203,4.218,4.233,4.233,4.249,4.249,4.249,4.249,4.249,4.264,4.264,4.264,4.264,4.264,4.264,4.264,4.264,4.264,4.28,4.28,4.28,4.28,4.296,4.312,4.312,4.328,4.328,4.344,4.36,4.376,4.393,4.426,4.46,4.477,4.512,4.512,4.53,4.565,4.583,4.601,4.657,4.694,4.752,4.81,4.83,4.851,4.891,4.933,4.954,4.933,4.912,4.891,4.83,4.771,4.732,4.694,4.638,4.638,4.638,4.638,4.638,4.638,4.638,4.657,4.657,4.713,4.713,4.732,4.752,4.771,4.81,4.81,4.83,4.871,4.912,4.912,4.933,4.933,4.912,4.891,4.851,4.81,4.713,4.565,4.312,4.249,4.173,4.07,3.973,3.906,3.868,3.842,3.829,3.829,3.817,3.817,3.804,3.804,3.804,3.804,3.804,3.804,3.804,3.8105,3.817,3.829,3.829,3.842,3.842,3.855,3.855,3.868,3.868,3.88,3.8930000000000002,3.906,3.92,3.973,4.014,4.07,4.158,4.218,4.264,4.312,4.36,4.477,4.583,4.713,4.81,4.835624999999999,4.851,4.891,4.912,4.954,4.996,5.018,5.04,5.084,5.084,5.106,5.106,5.106,5.151,5.151,5.174,5.174,5.174,5.22,5.244,5.268,5.316,5.34,5.415,5.465,5.517,5.543,5.57,5.597,5.624,5.679,5.707,5.792,5.85,5.939,6.032,6.127,6.225,6.259,6.327,6.327,6.327,6.327,6.327,6.327,6.327,6.327,6.361,6.361,6.361,6.361,6.361,6.361,6.361,6.361,6.361,6.327,6.259,6.259,6.259,6.259,6.225,6.159,6.159,6.159,6.159,6.127,6.127,6.095,6.032,6.001,5.909,5.821,5.763,5.707,5.679,5.624,5.597,5.57,5.57,5.57,5.543,5.543,5.517,5.491,5.415,5.34,5.316,5.244,5.22,5.174,5.151,5.151,5.106,5.106,5.151,5.151,5.174,5.209,5.244,5.22,5.22,5.174,5.151,5.084,5.084,5.018,4.954,4.933,4.891,4.871,4.851,4.83,4.83,4.83,4.83,4.83,4.851,4.851,4.851,4.891,4.912,4.912,0.0,0.0,0.0,0.0,0.0,4.996,4.996,4.996,5.018,5.018,5.04,5.04,5.04,5.04,5.04,5.04,5.018,5.018,5.018,5.018,5.018,5.018,5.018,5.018,5.018,5.018,5.018,5.018,5.018,5.018,4.996,4.996,4.996,4.996,4.996,4.996,5.04,5.04,5.04,5.04,5.04,5.04,5.084,0.0,0.0,0.0,0.0,0.0,0.0,0.0,0.0,0.0,0.0,0.0,1.056,1.056,1.056,1.056,1.054,1.054,1.054,1.054,1.054,1.054,1.054,1.054,1.054,1.053,1.053,1.053,1.052,0.0,0.0,0.0,0.0,0.0,0.0,0.0,0.0,0.0,0.0,0.0,0.0,0.0,0.0,0.0,0.0,0.0,0.0,0.0,0.0,0.0,0.0,4.871,4.851,4.83,4.81,4.81,4.771,4.732,4.694,4.638,4.583,4.53,4.477,4.393,4.328,4.312,4.28,4.264,4.218,4.188,4.173,4.173,4.158,4.173,4.173,4.188,4.203,4.233,0.0,0.0,0.0,0.0,0.0,0.0,0.0,0.0,0.0,1.308,1.308,1.308,1.312,1.317,1.321,1.327,1.337,1.355,1.368,1.376,1.388,1.39825,1.408,1.421,1.425,1.43,1.432,1.437,1.443,1.446,1.443,1.439,1.434,1.423,1.413,1.401,1.386,1.376,1.324,1.324,1.323,1.323,1.326,1.327,1.329,1.33,1.332,1.33,1.329,1.327,1.327,1.326,1.326,1.323,1.323,1.323,1.323,1.323,1.323,1.324,1.327,1.335,1.349,1.363,1.373,1.378,1.381,1.384,1.388,1.388,1.388,1.386,1.384,1.383,1.381,1.379,1.378,1.378,1.37,0.0,0.0,1.219,1.206,1.2,1.195,1.192,1.19,1.195,1.199
5.85,5.85,5.85,5.8795,5.909,5.909,5.909,5.939,5.939,6.001,6.001,6.001,6.032,6.032,6.032,6.032,6.095,6.095,6.095,6.095,6.127,6.127,6.159,6.159,6.159,6.159,6.159,6.225,6.225,6.259,6.259,6.259,6.327,6.361,6.361,6.396,6.432,6.467,6.467,6.467,6.504,6.504,6.504,6.504,6.467,6.467,6.432,6.396,6.361,6.327,6.327,6.259,6.259,6.225,6.327,6.327,6.396,6.432,6.432,6.361,6.259,6.095,5.909,5.735,5.651,5.543,5.28125,5.04,4.933,4.891,4.83,4.791,4.694,4.565,4.36,4.328,4.296,4.264,4.249,4.249,4.249,4.249,4.249,4.264,4.264,4.264,4.264,4.264,4.264,4.264,4.264,4.264,4.264,4.264,4.264,4.264,4.28,4.28,4.28,4.28,4.296,4.312,4.312,4.328,4.344,4.36,4.376,4.393,4.41,4.426,4.46,4.477,4.512,4.53,4.565,4.583,4.601,4.638,4.657,4.713,4.752,4.81,4.83,4.851,4.891,4.933,4.954,4.933,4.891,4.851,4.83,4.771,4.732,4.657,4.638,4.601,4.601,4.583,4.601,4.601,4.601,4.638,4.638,4.657,4.694,4.713,4.732,4.752,4.771,4.81,4.83,4.851,4.891,4.891,4.891,4.891,4.891,4.851,4.83,4.752,4.638,4.477,4.312,4.249,4.173,4.085,3.987,3.92,3.88,3.855,3.842,3.829,3.829,3.817,3.817,3.804,3.804,3.804,3.804,3.804,3.804,3.817,3.817,3.829,3.829,3.829,3.842,3.855,3.855,3.868,3.868,3.88,3.893,3.8995,3.906,3.933,3.973,4.014,4.085,4.173,4.249,4.296,4.344,4.426,4.583,4.713,4.791,4.851,4.861000000000001,4.871,4.912,4.933,4.996,5.018,5.04,5.084,5.106,5.106,5.151,5.151,5.151,5.174,5.174,5.174,5.174,5.22,5.244,5.316,5.34,5.389,5.415,5.465,5.517,5.543,5.57,5.597,5.651,5.679,5.735,5.792,5.909,5.939,6.032,6.127,6.225,6.259,6.327,6.327,6.327,6.327,6.327,6.327,6.327,6.327,6.327,6.327,6.327,6.327,6.327,6.327,6.327,6.259,6.259,6.259,6.259,6.225,6.225,6.225,6.225,6.159,6.159,6.159,6.159,6.159,6.159,6.159,6.095,6.032,5.909,5.821,5.763,5.679,5.651,5.597,5.597,5.57,5.543,5.543,5.543,5.517,5.491,5.415,5.389,5.316,5.244,5.174,5.151,5.106,5.084,5.084,5.04,5.018,5.04,5.04,0.0,0.0,0.0,0.0,0.0,0.0,0.0,5.018,4.996,4.954,4.933,4.933,4.912,4.891,4.851,4.851,4.851,4.851,4.851,4.871,4.871,4.891,4.891,4.891,0.0,0.0,0.0,0.0,0.0,0.0,0.0,0.0,0.0,0.0,5.04,0.0,0.0,5.04,5.04,5.04,5.04,5.029,5.018,5.018,5.018,5.018,5.018,5.018,5.018,5.04,5.04,5.04,5.04,5.04,5.018,5.018,5.018,5.018,0.0,0.0,0.0,0.0,0.0,0.0,0.0,0.0,0.0,0.0,0.0,0.0,0.0,0.0,0.0,0.0,0.0,0.0,0.0,0.0,0.0,0.0,1.056,1.056,1.055,1.054,1.054,1.054,1.054,1.054,1.054,1.053,1.053,1.054,1.053,1.053,1.052,1.051,1.049,1.048,1.045,1.042,1.036,0.0,0.0,0.0,0.0,0.0,0.0,0.0,0.0,0.0,0.0,0.0,0.0,0.0,0.0,0.0,0.0,0.0,0.0,0.0,0.0,4.83,4.81,4.791,4.752,4.713,4.657,4.583,4.512,4.426,4.328,4.28,4.249,4.203,4.128,4.07,4.014,3.973,3.946,3.933,3.933,3.933,3.946,3.987,4.014,4.056,4.085,0.0,0.0,0.0,0.0,0.0,0.0,0.0,0.0,1.293,1.293,1.295,1.298,1.302,1.308,1.317,1.321,1.327,1.34125,1.352,1.366,1.376,1.392,1.3980000000000001,1.416,1.425,1.43,1.43,1.437,1.446,1.443,1.437,1.3805,1.324,1.32,1.315,1.308,1.302,1.302,1.304,1.307,1.311,1.314,1.318,1.321,1.323,1.323,1.323,1.323,1.321,1.321,1.32,1.32,1.318,1.318,1.317,1.318,1.32,1.32,1.321,1.326,1.333,1.346,1.363,1.371,1.376,1.379,1.383,1.386,1.384,1.384,1.384,1.383,1.381,1.378,1.378,1.378,1.376,1.371,0.0,0.0,1.203,1.196,1.194,1.19,1.179,1.171,1.172,1.179
5.85,5.85,5.85,5.85,5.85,5.909,5.909,5.909,5.909,5.939,5.939,6.001,6.001,6.001,6.001,6.001,6.032,6.032,6.095,6.095,6.095,6.095,6.127,6.159,6.159,6.159,6.159,6.225,6.259,6.259,6.259,6.327,6.361,6.361,6.396,6.432,6.467,6.504,6.504,6.504,6.504,6.54,6.54,6.504,6.504,6.467,6.396,6.396,6.327,6.327,6.259,6.159,6.225,6.259,6.3100000000000005,6.361,6.396,6.432,6.467,6.432,6.396,6.327,6.159,6.032,5.909,5.763,5.651,5.597,5.543,5.316,5.20375,5.018,4.912,4.851,4.791,4.657,4.41,4.328,4.296,4.28,4.28,4.264,4.264,4.264,4.264,4.264,4.264,4.264,4.264,4.264,4.264,4.264,4.264,4.264,4.264,4.264,4.28,4.28,4.28,4.296,4.312,4.312,4.328,4.328,4.344,4.36,4.376,4.393,4.41,4.46,4.477,4.512,4.53,4.565,4.565,4.583,4.601,4.657,4.694,4.713,4.752,4.791,4.83,4.851,4.891,4.933,4.996,4.954,4.912,4.871,4.83,4.771,4.732,4.694,4.638,4.601,4.601,4.583,4.583,4.583,4.601,4.601,4.638,4.657,4.694,4.694,4.713,4.732,4.771,4.791,4.81,4.83,4.851,4.851,4.871,4.851,4.851,4.83,4.791,4.694,4.565,4.344,4.296,4.249,4.173,4.085,4.014,3.933,3.893,3.868,3.855,3.842,3.829,3.829,3.817,3.817,3.817,3.804,3.804,3.804,3.8105,3.817,3.817,3.817,3.829,3.829,3.842,3.855,3.855,3.868,3.868,3.868,3.88,3.893,3.90625,3.92,3.946,3.987,4.056,4.158,4.233,4.28,4.328,4.426,4.565,4.694,4.791,4.83,4.85325,4.871,4.912,4.933,4.975,4.996,5.04,5.084,5.106,5.151,5.151,5.174,5.174,5.174,5.174,5.22,5.22,5.244,5.268,5.316,5.34,5.389,5.415,5.44,5.491,5.543,5.57,5.597,5.651,5.679,5.735,5.792,5.909,6.001,6.032,6.127,6.225,6.259,6.327,6.327,6.327,6.327,6.327,6.327,6.259,6.259,6.259,6.259,6.259,6.259,6.259,6.259,6.225,6.225,6.225,6.159,6.159,6.159,6.159,6.159,6.159,6.159,6.159,6.159,6.159,6.225,6.159,6.159,6.127,6.032,5.939,5.821,5.763,5.679,5.651,5.597,5.57,5.543,5.543,5.543,5.517,5.491,5.415,5.389,5.316,5.268,5.174,5.151,5.106,5.084,5.04,5.018,4.996,4.996,4.996,5.018,0.0,0.0,0.0,0.0,0.0,0.0,0.0,0.0,0.0,0.0,0.0,0.0,0.0,0.0,3.0885,4.851,0.0,0.0,0.0,4.871,4.891,4.891,4.891,0.0,0.0,0.0,0.0,0.0,0.0,0.0,0.0,0.0,0.0,0.0,0.0,0.0,0.0,0.0,0.0,0.0,0.0,0.0,0.0,0.0,0.0,0.0,0.0,0.0,0.0,0.0,0.0,0.0,0.0,5.084,5.04,0.0,0.0,0.0,0.0,0.0,0.0,0.0,0.0,0.0,0.0,0.0,0.0,0.0,0.0,0.0,1.062,0.0,0.0,0.0,1.057,1.057,1.057,1.057,1.057,1.057,1.056,1.056,1.055,1.054,1.054,1.054,1.053,1.053,1.053,1.052,1.053,1.053,1.052,1.051,1.051,1.049,1.048,1.045,1.041,1.036,1.035,1.032,1.029,0.0,0.0,0.0,0.0,0.0,0.0,0.0,0.0,0.0,0.0,0.0,0.0,0.0,0.0,0.0,0.0,0.0,0.0,0.0,4.81,4.771,4.732,4.694,4.583,4.477,4.376,4.264,4.233,4.173,4.07,3.973,3.906,3.88,3.855,3.829,3.829,3.829,3.817,3.8145,3.8265000000000002,3.859,3.8905000000000003,3.90525,3.92,0.0,0.0,0.0,0.0,0.0,0.0,0.0,1.282,1.281,1.282,1.281,1.285,1.286,1.293,1.302,1.3042500000000001,1.311,1.318,1.323,1.329,1.337,1.344,1.363,1.378,1.396,1.4085,1.421,1.409,1.3395000000000001,0.0,0.0,0.0,1.27,1.282,1.275,1.278,1.276,1.276,1.279,1.281,1.285,1.292,1.298,1.307,1.312,1.315,1.315,1.315,1.315,1.314,1.312,1.311,1.308,1.308,1.308,1.308,1.311,1.312,1.317,1.321,1.327,1.337,1.355,1.37,1.374,1.378,1.381,1.381,1.381,1.381,1.379,1.378,1.378,1.376,1.374,1.373,1.37,1.36,0.0,0.0,1.201,0.0,0.0,1.177,1.162,1.15,1.147,1.139
5.821,5.821,5.821,5.821,5.821,5.821,5.85,5.85,5.909,5.909,5.909,5.939,5.939,6.001,6.001,6.001,6.001,6.032,6.032,6.032,6.095,6.095,6.127,6.127,6.159,6.159,6.225,6.225,6.259,6.259,6.327,6.361,6.361,6.396,6.432,6.467,6.467,6.504,6.54,6.54,6.54,6.54,6.54,6.54,6.504,6.467,6.432,6.396,6.327,6.327,6.225,6.159,6.225,6.259,6.31425,6.361,6.396,6.432,6.504,6.504,6.504,6.467,6.432,6.396,6.327,6.159,6.095,5.939,5.821,5.679,5.651,5.57,5.2955000000000005,5.209375,5.04,4.912,4.83,4.53,4.41,4.328,4.312,4.296,4.28,4.28,4.28,4.28,4.28,4.28,4.28,4.28,4.28,4.28,4.264,4.264,4.28,4.28,4.28,4.28,4.28,4.296,4.312,4.312,4.328,4.328,4.344,4.36,4.376,4.41,4.426,4.46,4.477,4.512,4.512,4.53,4.565,4.583,4.601,4.638,4.657,4.694,4.732,4.771,4.81,4.8405000000000005,4.871,4.933,5.04,4.996,4.933,4.891,4.851,4.83,4.771,4.713,4.638,4.601,4.601,4.601,4.583,4.583,4.601,4.601,4.638,4.657,4.657,4.694,4.713,4.732,4.752,4.771,4.81,4.81,4.83,4.83,4.83,4.83,4.81,4.771,4.713,4.601,4.477,4.328,4.28,4.249,4.188,4.114,4.028,3.973,3.92,3.893,3.868,3.855,3.842,3.829,3.829,3.817,3.817,3.817,3.804,3.804,3.817,3.817,3.817,3.817,3.829,3.829,3.842,3.855,3.855,3.868,3.868,3.868,3.88,3.893,3.906,3.91975,3.933,3.946,4.014,4.085,4.203,4.264,4.312,4.393,4.512,4.657,4.771,4.83,4.851,4.871,4.891,4.912,4.954,4.996,5.018,5.084,5.106,5.151,5.151,5.174,5.174,5.174,5.22,5.22,5.244,5.244,5.268,5.316,5.34,5.389,5.415,5.44,5.491,5.543,5.57,5.597,5.651,5.679,5.735,5.821,5.939,6.001,6.095,6.127,6.225,6.225,6.259,6.259,6.327,6.327,6.259,6.259,6.259,6.259,6.259,6.259,6.225,6.225,6.225,6.225,6.159,6.159,6.127,6.127,6.127,6.127,6.095,6.127,6.127,6.159,6.159,6.159,6.159,6.159,6.159,6.159,6.127,6.032,5.939,5.821,5.735,5.679,5.651,5.597,5.57,5.543,5.543,5.517,5.517,5.491,5.415,5.34,5.316,5.244,5.174,5.151,5.084,5.04,5.018,4.996,4.975,4.996,4.975,4.996,0.0,0.0,0.0,0.0,0.0,0.0,0.0,0.0,0.0,0.0,0.0,0.0,0.0,0.0,1.326,1.323,0.0,0.0,0.0,3.0865,3.09,0.0,0.0,0.0,0.0,0.0,0.0,0.0,0.0,0.0,0.0,0.0,0.0,0.0,0.0,0.0,0.0,0.0,0.0,0.0,0.0,0.0,0.0,0.0,0.0,0.0,0.0,0.0,0.0,0.0,0.0,0.0,0.0,5.084,0.0,0.0,0.0,0.0,0.0,0.0,0.0,0.0,0.0,0.0,0.0,0.0,0.0,0.0,0.0,1.066,1.065,1.061,1.059,1.058,1.057,1.057,1.057,1.057,1.057,1.057,1.056,1.056,1.054,1.054,1.054,1.054,1.053,1.053,1.051,1.052,1.051,1.051,1.051,1.051,1.05,1.047,1.047,1.044,1.041,1.036,1.032,1.03,1.028,1.027,0.0,0.0,0.0,0.0,0.0,0.0,0.0,0.0,0.0,0.0,0.0,0.0,0.0,0.0,0.0,0.0,0.0,0.0,0.0,0.0,4.694,4.583,4.426,4.28,4.233,4.128,4.014,3.933,3.868,3.8225,3.7664999999999997,3.739875,3.731,3.696,3.696,3.672,3.696,3.696,3.707,3.731,3.767,0.0,0.0,0.0,0.0,0.0,0.0,0.0,0.0,0.0,1.275,1.274,1.275,1.275,1.275,1.276,1.278,1.281,1.283,1.288,1.293,1.304,1.312,1.3105000000000002,1.315,1.322,0.0,0.0,0.0,1.196,1.208,1.233,0.0,0.0,0.0,1.216,1.219,1.229,1.233,1.24,1.259,1.268,1.274,1.278,1.28125,1.281,1.288,1.296,1.302,1.307,1.304,1.304,1.302,1.302,1.298,1.298,1.298,1.301,1.301,1.302,1.308,1.31325,1.317,1.323,1.33,1.346,1.363,1.371,1.376,1.378,1.379,1.378,1.376,1.376,1.376,1.373,1.37,1.366,1.36,1.335,0.0,0.0,0.0,1.196,0.0,0.0,1.1615,1.144,1.138,1.131,1.127
5.821,5.821,5.821,5.821,5.821,5.821,5.821,5.821,5.85,5.85,5.909,5.909,5.939,5.939,6.001,6.001,6.001,6.032,6.032,6.032,6.095,6.095,6.127,6.127,6.159,6.225,6.225,6.225,6.259,6.327,6.327,6.396,6.396,6.432,6.467,6.504,6.504,6.54,6.54,6.54,6.577,6.577,6.54,6.54,6.54,6.504,6.432,6.432,6.361,6.327,6.259,6.259,6.225,6.259,6.327,6.396,6.432,6.467,6.504,6.54,6.54,6.54,6.54,6.54,6.467,6.432,6.361,6.259,6.225,6.095,5.909,5.792,5.679,5.651,5.597,5.3375,5.179625,4.954,4.83,4.565,4.41,4.344,4.312,4.312,4.296,4.296,4.296,4.28,4.28,4.28,4.28,4.28,4.28,4.28,4.28,4.28,4.28,4.28,4.28,4.296,4.312,4.312,4.328,4.328,4.344,4.376,4.393,4.41,4.426,4.46,4.46,4.477,4.512,4.53,4.565,4.565,4.601,4.638,4.638,4.713,4.771,4.81,0.0,0.0,0.0,0.0,0.0,0.0,0.0,0.0,4.975,4.891,4.851,4.752,4.657,4.638,4.638,4.601,4.601,4.638,4.638,4.638,4.638,4.657,4.657,4.694,4.713,4.713,4.732,4.732,4.752,4.771,4.771,4.771,4.771,4.752,4.732,4.694,4.601,4.53,4.426,4.328,4.28,4.249,4.203,4.128,4.07,4.014,3.946,3.92,3.88,3.868,3.855,3.855,3.829,3.829,3.817,3.817,3.817,3.817,3.817,3.817,3.817,3.817,3.829,3.829,3.842,3.855,3.855,3.868,3.868,3.868,3.88,3.893,3.906,3.92,3.933,3.96,3.987,4.07,4.158,4.249,4.296,4.344,4.46,4.601,4.732,4.81,4.851,4.866,4.891,4.912,4.954,4.975,5.018,5.04,5.106,5.151,5.174,5.174,5.174,5.22,5.244,5.244,5.244,5.244,5.268,5.316,5.34,5.389,5.389,5.44,5.465,5.543,5.57,5.597,5.624,5.679,5.735,5.821,5.939,6.032,6.095,6.159,6.225,6.225,6.259,6.259,6.259,6.259,6.259,6.259,6.259,6.259,6.225,6.225,6.225,6.225,6.225,6.159,6.159,6.127,6.127,6.095,6.095,6.095,6.095,6.095,6.095,6.127,6.127,6.159,6.159,6.159,6.159,6.159,6.095,6.032,5.909,5.821,5.735,5.679,5.651,5.597,5.57,5.543,5.517,5.517,5.491,5.465,5.389,5.34,5.268,5.22,5.151,5.106,5.04,5.018,5.018,4.996,4.975,4.954,4.954,4.975,0.0,0.0,0.0,0.0,0.0,0.0,0.0,0.0,0.0,0.0,0.0,0.0,0.0,1.329,1.32625,1.323,1.32,1.314,1.308,1.302,1.289,0.0,0.0,0.0,0.0,0.0,0.0,0.0,0.0,0.0,0.0,0.0,0.0,0.0,0.0,0.0,0.0,0.0,0.0,0.0,0.0,0.0,0.0,0.0,0.0,0.0,0.0,0.0,0.0,0.0,0.0,0.0,0.0,0.0,0.0,0.0,0.0,0.0,0.0,0.0,0.0,0.0,0.0,0.0,0.0,0.0,0.0,0.0,1.071,1.069,1.065,1.062,1.061,1.06,1.059,1.058,1.057,1.057,1.057,1.057,1.056,1.055,1.054,1.054,1.054,1.053,1.053,1.052,1.051,1.05,1.05,1.05,1.049,1.049,1.047,1.047,1.042,1.042,1.038,1.033,1.032,1.029,1.027,1.027,1.025,0.0,0.0,0.0,0.0,0.0,0.0,0.0,0.0,0.0,0.0,0.0,0.0,0.0,0.0,0.0,0.0,0.0,0.0,0.0,0.0,4.512,4.264,4.173,4.07,3.933,3.8905000000000003,3.78,3.72,3.672,3.627,3.582,3.538,3.528,3.517,3.517,3.517,3.528,3.517,3.517,0.0,0.0,0.0,0.0,0.0,0.0,0.0,0.0,0.0,0.0,1.263,1.263,1.265,1.263,1.265,1.265,1.267,1.268,1.271,1.272,1.274,1.275,1.278,1.278,1.279,1.281,0.0,0.0,0.0,1.195,1.195,1.196,1.196,1.198,1.2,1.203,1.208,1.214,1.219,1.227,1.233,1.241,1.253,1.267,1.274,1.279,1.282,1.2865,1.289,1.293,1.293,1.292,1.289,1.288,1.288,1.288,1.288,1.289,1.292,1.293,1.302,1.311,1.3159999999999998,1.321,1.327,1.34,1.357,1.371,1.374,1.378,1.378,1.376,1.374,1.373,1.37,1.366,1.357,1.335,1.327,1.321,0.0,0.0,0.0,1.193,0.0,0.0,1.146,1.132,1.128,1.124,1.123
5.792,5.792,5.792,5.792,5.792,5.792,5.792,5.821,5.821,5.821,5.85,5.909,5.909,5.939,6.001,6.001,6.001,6.032,6.032,6.032,6.095,6.095,6.095,6.095,6.159,6.159,6.225,6.259,6.259,6.327,6.361,6.396,6.432,6.467,6.467,6.54,6.54,6.54,6.577,6.577,6.577,6.577,6.577,6.577,6.54,6.54,6.504,6.432,6.396,6.361,6.361,6.327,6.327,6.327,6.396,6.432,6.432,6.467,6.54,6.54,6.54,6.54,6.54,6.54,6.54,6.54,6.504,6.467,6.432,6.361,6.327,6.225,6.095,6.032,5.85,5.763,5.597,5.3305,5.2135,5.02175,4.83,4.53,4.393,4.344,4.328,4.312,4.312,4.296,4.296,4.296,4.28,4.28,4.28,4.28,4.28,4.28,4.28,4.28,4.28,4.296,4.312,4.312,4.328,4.328,4.344,4.36,4.376,4.393,4.41,4.426,4.46,4.477,4.512,4.512,4.53,4.565,4.583,4.601,4.657,4.752,4.81,4.871,0.0,0.0,0.0,0.0,0.0,0.0,0.0,0.0,5.244,5.077999999999999,4.912,4.81,4.713,4.638,4.657,4.657,4.657,4.657,4.638,4.638,4.657,4.657,4.657,4.694,4.694,4.694,4.713,4.713,4.732,4.732,4.732,4.732,4.713,4.694,4.657,4.601,4.565,4.477,4.36,4.328,4.28,4.264,4.218,4.173,4.114,4.056,4.014,3.946,3.92,3.893,3.868,3.855,3.855,3.829,3.829,3.817,3.817,3.817,3.817,3.817,3.817,3.829,3.829,3.829,3.842,3.855,3.855,3.868,3.868,3.868,3.88,3.893,3.906,3.906,3.933,3.953,3.973,4.056,4.128,4.218,4.264,4.328,4.393,4.53,4.694,4.791,4.83,4.851,4.891,4.912,4.933,4.975,4.996,5.04,5.106,5.151,5.174,5.22,5.22,5.22,5.244,5.244,5.244,5.268,5.268,5.316,5.34,5.389,5.389,5.415,5.465,5.517,5.543,5.597,5.624,5.679,5.735,5.821,5.939,6.032,6.127,6.159,6.225,6.225,6.259,6.259,6.259,6.259,6.259,6.259,6.259,6.259,6.259,6.259,6.225,6.225,6.225,6.159,6.159,6.127,6.095,6.095,6.095,6.095,6.095,6.095,6.095,6.095,6.095,6.127,6.127,6.127,6.127,6.127,6.095,6.001,5.909,5.792,5.735,5.679,5.651,5.597,5.57,5.543,5.517,5.517,5.517,5.491,5.415,5.34,5.268,5.244,5.151,5.106,5.04,5.018,4.996,4.954,4.933,4.912,4.922499999999999,0.0,0.0,0.0,0.0,0.0,0.0,0.0,0.0,0.0,0.0,0.0,0.0,0.0,1.335,1.332,1.327,1.324,1.32,1.314,1.311,1.301,1.292,0.0,0.0,0.0,0.0,0.0,0.0,0.0,0.0,0.0,0.0,0.0,0.0,0.0,0.0,0.0,0.0,0.0,0.0,0.0,0.0,0.0,0.0,0.0,0.0,0.0,0.0,0.0,0.0,0.0,0.0,0.0,0.0,0.0,0.0,0.0,0.0,0.0,0.0,0.0,0.0,0.0,0.0,0.0,0.0,0.0,1.076,1.075,1.072,1.071,1.066,1.063,1.061,1.059,1.058,1.058,1.057,1.057,1.056,1.056,1.056,1.055,1.054,1.054,1.053,1.053,1.052,1.051,1.05,1.049,1.049,1.049,1.048,1.047,1.045,1.044,1.041,1.04,1.033,1.032,1.03,1.029,1.027,1.027,1.025,1.024,0.0,0.0,0.0,0.0,0.0,0.0,0.0,0.0,0.0,0.0,0.0,0.0,0.0,0.0,0.0,0.0,0.0,0.0,0.0,0.0,0.0,0.0,0.0,3.763,3.767,3.627,3.56,3.517,3.496,3.475,3.465,3.454,3.444,3.434,3.434,3.434,3.424,3.414,0.0,0.0,0.0,0.0,0.0,0.0,0.0,0.0,0.0,0.0,1.2485,1.245,1.244,1.248,1.248,1.245,1.244,1.245,1.244,1.242,1.244,1.237,1.245,1.237,1.231,1.22,1.21,1.198,1.195,1.194,1.195,1.195,1.196,1.196,1.198,1.2,1.2,1.204,1.208,1.215,1.224,1.232,1.237,1.245,1.259,1.269,1.275,1.279,1.282,1.283,1.283,1.282,1.282,1.281,1.281,1.281,1.281,1.282,1.283,1.288,1.293,1.307,1.3135,1.32,1.3265,1.3407499999999999,1.355,1.37,1.374,1.378,1.376,1.373,1.371,1.368,1.362,1.355,1.332,1.324,1.317,1.298,0.0,0.0,1.2,1.19,0.0,0.0,1.138,1.126,1.123,1.122,1.119
5.763,5.763,5.763,5.763,5.763,5.763,5.763,5.763,5.792,5.792,5.821,5.85,5.909,5.939,6.001,6.001,6.032,6.032,6.032,6.095,6.095,6.095,6.095,6.127,6.127,6.159,6.225,6.225,6.259,6.327,6.361,6.396,6.432,6.467,6.504,6.54,6.54,6.577,6.577,6.577,6.577,6.577,6.577,6.577,6.577,6.54,6.54,6.504,6.467,6.432,6.396,6.361,6.361,6.396,6.467,6.467,6.504,6.504,6.54,6.577,6.577,6.577,6.577,6.577,6.577,6.577,6.577,6.54,6.54,6.54,6.54,6.467,6.432,6.361,6.259,6.159,6.032,5.707,5.597,5.350375,5.131187499999999,4.912,4.694,4.53,4.41,4.36,4.328,4.312,4.312,4.312,4.296,4.296,4.28,4.28,4.28,4.28,4.28,4.28,4.28,4.296,4.312,4.312,4.328,4.328,4.344,4.36,4.376,4.393,4.41,4.426,4.46,4.46,4.477,4.512,4.512,4.53,4.565,4.583,4.694,4.791,4.851,0.0,0.0,0.0,0.0,0.0,0.0,0.0,0.0,0.0,5.517,5.3375,5.188750000000001,5.04,4.81,4.732,4.713,4.694,4.657,4.657,4.657,4.657,4.657,4.657,4.657,4.657,4.694,4.694,4.694,4.694,4.694,4.694,4.694,4.657,4.657,4.638,4.583,4.565,4.512,4.46,4.36,4.328,4.312,4.28,4.249,4.218,4.173,4.114,4.07,4.014,3.973,3.92,3.893,3.88,3.868,3.855,3.842,3.829,3.829,3.817,3.817,3.817,3.829,3.829,3.829,3.842,3.855,3.855,3.855,3.868,3.868,3.88,3.893,3.893,3.906,3.92,3.933,3.95125,3.973,4.028,4.114,4.188,4.249,4.28,4.328,4.426,4.583,4.732,4.791,4.83,4.891,4.9015,4.912,4.954,4.996,5.04,5.106,5.174,5.22,5.22,5.22,5.244,5.244,5.244,5.268,5.268,5.316,5.316,5.34,5.389,5.389,5.415,5.44,5.517,5.543,5.57,5.624,5.651,5.735,5.821,5.939,6.032,6.127,6.159,6.225,6.225,6.225,6.259,6.259,6.259,6.259,6.259,6.259,6.259,6.259,6.259,6.225,6.225,6.159,6.159,6.127,6.127,6.095,6.095,6.095,6.032,6.032,6.032,6.095,6.095,6.095,6.095,6.095,6.095,6.095,6.095,6.032,5.939,5.85,5.792,5.735,5.679,5.651,5.597,5.57,5.543,5.543,5.517,5.517,5.491,5.415,5.34,5.316,5.22,5.151,5.084,5.018,4.996,4.954,4.912,4.912,4.891,4.891,0.0,0.0,0.0,0.0,0.0,0.0,0.0,0.0,0.0,0.0,0.0,0.0,1.344,1.34,1.335,1.329,1.326,1.3205,1.315,1.311,1.3014999999999999,1.292,1.285,0.0,0.0,0.0,0.0,0.0,0.0,0.0,0.0,0.0,0.0,0.0,0.0,0.0,0.0,0.0,0.0,0.0,0.0,0.0,0.0,0.0,0.0,0.0,0.0,0.0,0.0,0.0,0.0,0.0,0.0,0.0,0.0,0.0,0.0,0.0,0.0,0.0,0.0,0.0,0.0,0.0,0.0,1.082,1.08,1.078,1.076,1.075,1.072,1.069,1.066,1.062,1.061,1.06,1.058,1.057,1.057,1.056,1.055,1.055,1.054,1.054,1.053,1.053,1.052,1.051,1.05,1.049,1.048,1.048,1.047,1.047,1.045,1.044,1.042,1.04,1.038,1.033,1.031,1.03,1.027,1.027,1.026,1.025,1.024,1.023,0.0,0.0,0.0,0.0,0.0,0.0,0.0,0.0,0.0,0.0,0.0,0.0,0.0,0.0,0.0,0.0,0.0,0.0,0.0,0.0,0.0,0.0,3.593,3.528,3.485,3.465,3.444,3.434,3.404,3.365,3.355,3.336,3.317,3.317,3.298,0.0,0.0,0.0,0.0,0.0,0.0,0.0,0.0,0.0,0.0,0.0,0.0,1.234,1.234,1.236,1.236,1.236,1.234,1.234,1.234,1.233,1.233,1.232,1.231,1.228,1.224,1.219,1.214,1.203,1.198,1.196,1.195,1.195,1.194,1.194,1.195,1.195,1.195,1.196,1.196,1.2,1.2047500000000002,1.206,1.216,1.229,1.234,1.241,1.252,1.265,1.274,1.276,1.279,1.279,1.279,1.279,1.279,1.278,1.279,1.279,1.279,1.281,1.283,1.288,1.302,1.311,1.32,1.326,0.0,0.0,1.371,1.374,1.378,1.378,1.373,1.368,1.36,1.332,1.326,1.3165,1.3035,1.294375,1.281,1.253,1.238,1.198,1.185,0.0,0.0,1.128,1.122,1.119,1.118,1.117
5.735,5.735,5.735,5.735,5.735,5.735,5.763,5.763,5.763,5.792,5.821,5.85,5.909,5.939,6.001,6.001,6.032,6.095,6.095,6.095,6.095,6.095,6.095,6.095,6.127,6.159,6.159,6.225,6.259,6.361,6.361,6.432,6.467,6.504,6.54,6.54,6.577,6.577,6.614,6.614,6.614,6.614,6.614,6.614,6.577,6.577,6.54,6.54,6.504,6.504,6.467,6.467,6.467,6.504,6.504,6.54,6.54,6.54,6.54,6.577,6.577,6.577,6.577,6.577,6.577,6.577,6.577,6.577,6.577,6.577,6.577,6.577,6.577,6.577,6.54,6.504,6.396,6.327,6.159,5.679,5.4760937499999995,5.2807734375,5.084,4.891,4.713,4.583,4.477,4.426,4.393,4.36,4.328,4.312,4.312,4.312,4.312,4.296,4.296,4.296,4.296,4.296,4.312,4.312,4.328,4.328,4.344,4.36,4.376,4.393,4.393,4.41,4.426,4.426,4.46,4.477,4.512,4.53,4.565,4.583,4.713,4.81,4.912,0.0,0.0,0.0,0.0,0.0,0.0,0.0,0.0,6.032,5.792,5.597,0.0,0.0,4.81,4.752,4.713,4.694,4.694,4.657,4.694,4.694,4.657,4.657,4.657,4.657,4.657,4.694,4.694,4.657,4.657,4.657,4.657,4.638,4.638,4.601,4.583,4.53,4.512,4.46,4.41,4.344,4.312,4.296,4.264,4.249,4.218,4.173,4.128,4.07,4.028,3.973,3.933,3.906,3.893,3.868,3.855,3.855,3.842,3.829,3.829,3.829,3.829,3.829,3.842,3.842,3.855,3.855,3.868,3.868,3.868,3.88,3.893,3.906,3.906,3.92,3.933,3.946,3.9764999999999997,4.014,4.07,4.158,4.218,4.264,4.312,4.36,4.477,4.601,4.713,4.81,4.851,4.891,4.912,4.933,4.996,5.084,5.106,5.174,5.22,5.244,5.244,5.244,5.244,5.268,5.268,5.268,5.316,5.316,5.34,5.389,5.389,5.415,5.44,5.491,5.543,5.57,5.597,5.651,5.735,5.821,5.939,6.032,6.127,6.159,6.225,6.225,6.259,6.259,6.259,6.259,6.259,6.259,6.259,6.259,6.259,6.259,6.225,6.225,6.159,6.159,6.127,6.095,6.095,6.032,6.032,6.032,6.001,6.001,6.032,6.032,6.032,6.032,6.032,6.032,6.032,6.032,6.001,5.939,5.85,5.763,5.707,5.679,5.651,5.597,5.57,5.57,5.543,5.543,5.543,5.517,5.465,5.34,5.268,5.22,5.151,5.084,5.018,4.975,4.933,4.912,0.0,0.0,0.0,0.0,0.0,0.0,0.0,0.0,0.0,0.0,0.0,0.0,0.0,0.0,0.0,1.346,1.341,1.337,1.33,1.326,1.321,1.317,1.311,1.302,1.293,1.285,1.281,1.276,1.274,0.0,0.0,0.0,0.0,0.0,0.0,0.0,0.0,0.0,0.0,0.0,0.0,0.0,0.0,0.0,0.0,0.0,0.0,0.0,0.0,0.0,0.0,0.0,0.0,0.0,0.0,0.0,0.0,0.0,0.0,0.0,0.0,0.0,0.0,0.0,0.0,0.0,1.086,1.085,1.084,1.083,1.081,1.08,1.078,1.075,1.072,1.068,1.066,1.062,1.06,1.059,1.057,1.057,1.056,1.056,1.054,1.054,1.054,1.053,1.052,1.051,1.051,1.05,1.049,1.048,1.048,1.048,1.047,1.045,1.045,1.042,1.04,1.038,1.033,1.031,1.029,1.027,1.027,1.025,1.025,1.024,1.023,1.023,1.023,0.0,0.0,0.0,0.0,0.0,0.0,0.0,0.0,0.0,0.0,0.0,0.0,0.0,0.0,0.0,0.0,0.0,0.0,3.731,3.517,3.475,3.454,3.434,3.404,3.384,3.336,3.317,3.288,3.27,3.261,3.261,3.243,0.0,0.0,0.0,0.0,0.0,0.0,0.0,0.0,0.0,0.0,0.0,0.0,0.0,1.227,1.228,1.228,1.228,1.228,1.228,1.229,1.229,1.228,1.227,1.224,1.22,1.216,1.214,1.21,1.206,1.203,1.199,1.196,1.196,1.195,1.195,1.195,1.194,1.194,1.194,1.194,1.195,1.195,1.198,1.204,1.2095,1.215,1.225,1.232,1.237,1.248,1.261,1.269,1.274,1.275,1.275,1.275,1.276,1.275,1.276,1.276,1.276,1.279,1.281,1.285,1.301,1.31075,1.32,1.327,0.0,0.0,1.371,1.376,1.378,0.0,0.0,0.0,1.33,1.323,1.315,1.301,1.283,1.276,1.257,1.24,1.233,1.223,1.183,1.1604999999999999,1.138,1.125,1.119,1.118,1.117,1.116
5.735,5.735,5.707,5.707,5.679,5.707,5.707,5.707,5.735,5.763,5.763,5.821,5.909,5.939,6.001,6.032,6.095,6.095,6.095,6.127,6.095,6.095,6.095,6.095,6.127,6.159,6.225,6.259,6.327,6.361,6.396,6.467,6.504,6.54,6.54,6.577,6.577,6.614,6.614,6.614,6.614,6.614,6.614,6.614,6.614,6.577,6.577,6.577,6.54,6.54,6.54,6.54,6.54,6.54,6.54,6.577,6.577,6.577,6.577,6.577,6.614,6.614,6.614,6.614,6.614,6.614,6.614,6.614,6.614,6.614,6.614,6.614,6.614,6.614,6.614,6.577,6.577,6.577,6.467,6.327,5.821,5.651,5.4345,5.268,5.018,4.912,4.771,4.713,4.657,4.583,4.512,4.426,4.393,4.36,4.328,4.328,4.312,4.312,4.312,4.312,4.312,4.312,4.328,4.328,4.328,4.344,4.36,4.376,4.393,4.393,4.41,4.426,4.46,4.477,4.512,4.53,4.565,4.565,4.694,4.81,0.0,0.0,0.0,5.735,6.1195,6.504,6.69,6.577,6.54,6.467,5.763,5.57,0.0,0.0,4.81,4.752,4.732,4.713,4.694,4.694,4.694,4.694,4.694,4.694,4.657,4.657,4.657,4.657,4.657,4.657,4.657,4.638,4.638,4.638,4.601,4.583,4.565,4.565,4.53,4.477,4.46,4.376,4.344,4.328,4.312,4.28,4.264,4.233,4.203,4.158,4.114,4.056,4.014,3.946,3.933,3.906,3.868,3.868,3.855,3.855,3.829,3.829,3.842,3.842,3.855,3.855,3.855,3.855,3.868,3.868,3.88,3.893,3.906,3.906,3.92,3.933,3.933,3.95625,3.973,3.987,4.056,4.114,4.188,4.233,4.264,4.312,4.393,4.53,4.657,4.771,4.851,4.891,4.912,4.933,4.996,5.084,5.106,5.174,5.22,5.244,5.244,5.244,5.268,5.268,5.268,5.316,5.316,5.316,5.34,5.389,5.389,5.389,5.44,5.465,5.543,5.57,5.597,5.651,5.707,5.821,5.909,6.032,6.127,6.159,6.225,6.225,6.225,6.259,6.259,6.259,6.259,6.259,6.259,6.259,6.259,6.225,6.225,6.159,6.159,6.127,6.095,6.095,6.032,6.001,6.001,6.001,6.001,6.001,6.001,6.001,6.001,6.001,6.001,6.032,6.001,6.001,6.001,5.909,5.821,5.763,5.707,5.679,5.651,5.624,5.597,5.57,5.57,5.543,5.543,5.517,5.491,5.389,5.268,5.22,5.106,5.04,4.996,4.975,4.933,4.912,0.0,0.0,0.0,0.0,0.0,0.0,0.0,0.0,0.0,0.0,0.0,0.0,0.0,0.0,1.355,1.35,1.346,1.344,1.332,1.327,1.321,1.318,1.312,1.304,1.293,1.286,1.281,1.278,1.274,1.267,0.0,0.0,0.0,0.0,0.0,0.0,0.0,0.0,0.0,0.0,0.0,0.0,0.0,0.0,0.0,0.0,0.0,0.0,0.0,0.0,0.0,0.0,0.0,0.0,0.0,0.0,0.0,0.0,0.0,0.0,0.0,0.0,0.0,0.0,0.0,1.091,1.089,1.088,1.085,1.085,1.084,1.082,1.081,1.079,1.075,1.072,1.069,1.068,1.062,1.06,1.058,1.057,1.056,1.056,1.055,1.054,1.054,1.054,1.053,1.052,1.052,1.051,1.051,1.05,1.049,1.049,1.049,1.048,1.045,1.044,1.042,1.04,1.035,1.031,1.029,1.027,1.027,1.025,1.025,1.024,1.024,1.023,1.023,0.0,0.0,0.0,0.0,0.0,0.0,0.0,0.0,0.0,0.0,0.0,0.0,0.0,0.0,0.0,0.0,0.0,0.0,3.454,3.434,3.404,3.384,3.355,3.336,3.326,3.298,3.288,3.27,3.243,3.243,3.234,3.234,0.0,0.0,0.0,0.0,0.0,0.0,0.0,0.0,0.0,0.0,0.0,0.0,1.211,1.214,1.214,1.215,1.215,1.215,1.215,1.216,1.219,1.216,1.216,1.216,1.215,1.214,1.211,1.208,1.206,1.203,1.2,1.198,1.196,1.196,1.195,1.195,1.194,1.194,1.194,1.193,1.193,1.194,1.195,1.198,1.203,1.209,1.214,1.224,1.231,1.236,1.248,1.259,1.269,1.271,1.274,1.274,1.274,1.274,1.274,1.274,1.275,1.275,1.276,1.281,1.289,1.311,1.317,1.323,0.0,0.0,1.222,0.0,0.0,0.0,0.0,0.0,0.0,1.279,1.276,1.275,1.263,1.253,1.242,1.234,1.231,1.195,1.181,1.159,1.135,1.124,1.119,1.118,1.117,1.115
5.707,5.707,5.679,5.679,5.679,5.679,5.679,5.679,5.707,5.707,5.735,5.792,5.85,5.939,6.001,6.032,6.032,6.095,6.127,6.127,6.127,6.127,6.127,6.127,6.127,6.159,6.225,6.259,6.327,6.361,6.432,6.467,6.504,6.54,6.577,6.577,6.614,6.614,6.614,6.652,6.652,6.652,6.652,6.614,6.614,6.614,6.577,6.577,6.577,6.577,6.577,6.54,6.54,6.54,6.54,6.577,6.577,6.577,6.577,6.577,6.614,6.614,6.614,6.614,6.614,6.614,6.652,6.652,6.652,6.652,6.652,6.652,6.652,6.652,6.652,6.652,6.652,6.614,6.577,6.54,6.467,6.259,5.735,5.558999999999999,5.368,5.244,5.018,4.933,4.851,4.81,4.771,4.713,4.638,4.53,4.46,4.41,4.36,4.328,4.328,4.312,4.312,4.312,4.312,4.328,4.328,4.328,4.344,4.36,4.376,4.393,4.41,4.426,4.46,4.4815000000000005,4.512,4.53,4.565,4.565,4.713,4.83,0.0,0.0,5.415,5.651,5.821,6.327,6.095,6.159,6.001,5.792,5.651,5.517,0.0,0.0,4.81,4.752,4.732,4.713,4.694,4.713,4.694,4.694,4.694,4.694,4.657,4.657,4.657,4.657,4.657,4.657,4.657,4.638,4.638,4.601,4.601,4.583,4.583,4.565,4.565,4.512,4.477,4.46,4.393,4.36,4.328,4.328,4.296,4.28,4.249,4.233,4.203,4.158,4.085,4.056,3.987,3.946,3.906,3.893,3.868,3.868,3.855,3.855,3.855,3.855,3.855,3.855,3.855,3.868,3.868,3.88,3.88,3.893,3.906,3.92,3.933,3.9462499999999996,3.946,3.973,3.973,4.014,4.028,4.07,4.128,4.188,4.249,4.28,4.344,4.477,4.601,4.752,4.83,4.891,4.922499999999999,4.954,5.018,5.084,5.151,5.174,5.22,5.244,5.244,5.244,5.268,5.268,5.268,5.316,5.316,5.34,5.34,5.34,5.389,5.389,5.415,5.465,5.517,5.57,5.597,5.651,5.707,5.792,5.909,6.032,6.127,6.159,6.159,6.159,6.225,6.225,6.225,6.259,6.259,6.225,6.225,6.225,6.225,6.159,6.159,6.127,6.095,6.095,6.095,6.032,6.001,6.001,5.939,5.939,5.939,5.939,5.939,5.939,5.939,5.939,5.939,5.939,5.939,5.939,5.909,5.85,5.821,5.792,5.735,5.679,5.651,5.651,5.597,5.597,5.57,5.57,5.543,5.543,5.491,5.389,5.268,5.174,5.106,5.04,4.996,4.954,4.912,4.891,4.891,4.871,4.328,0.0,0.0,0.0,0.0,0.0,0.0,0.0,0.0,0.0,0.0,0.0,1.357,1.352,1.35,1.346,1.341,1.327,1.323,1.32,1.315,1.307,1.296,1.288,1.282,1.278,1.275,1.269,0.0,0.0,0.0,0.0,0.0,0.0,0.0,0.0,0.0,0.0,0.0,0.0,0.0,0.0,0.0,0.0,0.0,0.0,0.0,0.0,0.0,0.0,0.0,0.0,0.0,0.0,0.0,0.0,0.0,0.0,0.0,0.0,0.0,0.0,0.0,0.0,1.093,1.09,1.088,1.086,1.085,1.085,1.083,1.081,1.078,1.075,1.073,1.071,1.068,1.062,1.059,1.057,1.057,1.056,1.056,1.054,1.054,1.054,1.053,1.053,1.054,1.054,1.053,1.052,1.051,1.052,1.051,1.05,1.049,1.047,1.045,1.042,1.04,1.035,1.031,1.029,1.027,1.027,1.026,1.025,1.024,1.024,1.023,1.023,0.0,0.0,0.0,0.0,0.0,0.0,0.0,0.0,0.0,0.0,0.0,0.0,0.0,0.0,0.0,0.0,0.0,0.0,3.365,3.355,3.326,3.326,3.317,3.298,3.288,3.261,3.243,3.234,3.216,3.207,0.0,0.0,0.0,0.0,0.0,0.0,0.0,0.0,0.0,0.0,0.0,0.0,0.0,1.196,1.196,1.198,1.199,1.199,1.201,1.203,1.204,1.206,1.208,1.208,1.208,1.21,1.208,1.206,1.206,1.204,1.203,1.2,1.2,1.198,1.196,1.196,1.195,1.195,1.195,1.194,1.194,1.193,1.193,1.194,1.195,1.199,1.204,1.20675,1.21,1.214,1.231,1.238,1.253,1.265,1.268,1.269,1.271,1.271,1.271,1.272,1.272,1.272,1.274,1.274,1.176,1.1789999999999998,1.19,1.193,1.1945000000000001,1.1327500000000001,1.071,1.073,0.0,0.0,0.0,0.0,0.0,0.0,1.198,1.248,1.252,1.248,1.242,1.236,1.231,1.227,1.195,1.184,1.161,1.135,1.123,1.118,1.117,1.115,1.114
5.679,5.679,5.679,5.679,5.679,5.651,5.651,5.679,5.679,5.707,5.707,5.792,5.821,5.909,5.939,6.032,6.032,6.095,6.127,6.127,6.127,6.127,6.127,6.127,6.127,6.127,6.159,6.225,6.259,6.361,6.396,6.467,6.504,6.54,6.577,6.614,6.614,6.614,6.652,6.652,6.69,6.69,6.652,6.652,6.614,6.614,6.614,6.577,6.577,6.577,6.577,6.577,6.577,6.577,6.577,6.577,6.577,6.577,6.577,6.614,6.614,6.614,6.614,6.614,6.614,6.652,6.652,6.652,6.652,6.652,6.69,6.69,6.69,6.69,6.69,6.69,6.69,6.69,6.652,6.614,6.577,6.504,6.361,5.85,5.651,5.524500000000001,5.44,5.268,5.174,5.04,4.912,4.871,4.83,4.771,4.694,4.583,4.477,4.393,4.36,4.328,4.312,4.312,4.312,4.312,4.328,4.328,4.344,4.36,4.376,4.393,4.41,4.426,4.46,4.477,4.5032499999999995,4.512,4.565,4.583,4.713,4.83,0.0,0.0,5.22,5.465,5.624,5.707,5.721,5.735,5.679,5.651,5.543,5.415,5.22,5.018,4.81,4.752,4.732,4.713,4.713,4.713,4.713,4.694,4.694,4.694,4.694,4.694,4.694,4.694,4.694,4.694,4.657,4.657,4.657,4.638,4.638,4.638,4.601,4.601,4.583,4.565,4.565,4.512,4.477,4.426,4.393,4.376,4.344,4.312,4.296,4.264,4.249,4.218,4.188,4.128,4.07,4.014,3.973,3.92,3.906,3.88,3.868,3.868,3.855,3.855,3.868,3.868,3.868,3.868,3.88,3.893,3.906,3.92,3.92,3.933,3.9529999999999994,3.973,3.973,3.987,3.987,4.014,4.028,4.07,4.085,4.158,4.203,4.264,4.312,4.41,4.565,4.732,4.83,4.891,4.922499999999999,4.954,5.018,5.106,5.151,5.22,5.244,5.244,5.268,5.268,5.268,5.316,5.316,5.316,5.316,5.34,5.34,5.389,5.389,5.415,5.415,5.465,5.517,5.543,5.597,5.651,5.679,5.763,5.85,6.001,6.095,6.127,6.159,6.159,6.159,6.159,6.225,6.225,6.225,6.159,6.159,6.159,6.159,6.159,6.127,6.095,6.095,6.032,6.001,6.001,6.001,5.939,5.939,5.939,5.909,5.909,5.909,5.909,5.909,5.909,5.939,5.909,5.909,5.909,5.909,5.821,5.792,5.763,5.735,5.679,5.679,5.651,5.624,5.597,5.597,5.57,5.57,5.543,5.491,5.34,5.268,5.174,5.106,5.04,4.996,4.954,4.912,4.891,4.871,4.851,4.851,0.0,0.0,0.0,0.0,0.0,0.0,0.0,0.0,0.0,0.0,1.365,1.362,1.357,1.352,1.349,1.344,1.332,1.326,1.321,1.317,1.308,1.301,1.289,1.282,1.279,1.275,1.257,1.242,0.0,0.0,0.0,0.0,0.0,0.0,0.0,0.0,0.0,0.0,0.0,0.0,0.0,0.0,0.0,0.0,0.0,0.0,0.0,0.0,0.0,0.0,0.0,0.0,0.0,0.0,0.0,0.0,0.0,0.0,0.0,0.0,0.0,0.0,0.0,1.0985,1.093,1.09,1.088,1.088,1.086,1.085,1.084,1.081,1.079,1.076,1.073,1.071,1.068,1.061,1.058,1.057,1.057,1.056,1.054,1.054,1.054,1.054,1.054,1.054,1.054,1.054,1.054,1.054,1.053,1.053,1.053,1.051,1.05,1.049,1.047,1.044,1.04,1.033,1.031,1.028,1.027,1.026,1.026,1.025,1.024,1.024,1.023,1.023,1.023,1.023,0.0,0.0,0.0,0.0,0.0,0.0,0.0,0.0,0.0,0.0,0.0,0.0,0.0,0.0,0.0,0.0,0.0,3.317,3.288,3.27,3.243,3.225,3.216,3.189,3.181,3.181,3.172,0.0,0.0,0.0,0.0,0.0,0.0,0.0,0.0,0.0,0.0,0.0,0.0,0.0,1.188,1.189,1.19,1.192,1.192,1.193,1.195,1.196,1.199,1.203,1.204,1.204,1.206,1.208,1.208,1.206,1.206,1.204,1.203,1.203,1.2,1.199,1.199,1.198,1.196,1.196,1.195,1.194,1.193,1.193,1.193,1.194,1.195,1.198,1.199,1.198,1.2,1.203,1.2149999999999999,1.238,1.257,1.263,1.267,1.268,1.269,1.269,1.269,1.268,1.1715,1.146625,1.072,1.071,1.069,1.069,1.069,1.066,1.066,1.066,1.07,1.075,0.0,0.0,0.0,0.0,1.172,1.1875,1.203,1.223,1.229,1.231,1.231,1.227,1.223,1.21,1.184,1.1524999999999999,1.126,1.118,1.111,1.104,1.094,1.092
5.679,5.679,5.651,5.651,5.651,5.651,5.651,5.651,5.651,5.679,5.679,5.735,5.792,5.85,5.909,6.001,6.001,6.032,6.032,6.095,6.095,6.095,6.095,6.032,6.095,6.095,6.127,6.159,6.225,6.259,6.361,6.396,6.432,6.54,6.54,6.577,6.577,6.614,6.614,6.652,6.652,6.652,6.652,6.652,6.614,6.614,6.614,6.577,6.577,6.577,6.577,6.577,6.54,6.577,6.577,6.577,6.577,6.577,6.577,6.577,6.614,6.614,6.614,6.614,6.652,6.652,6.69,6.69,6.69,6.69,6.69,6.69,6.69,6.69,6.729,6.729,6.729,6.729,6.69,6.69,6.614,6.577,6.54,6.432,6.001,5.763,5.651,5.597,5.517,5.44,5.316,5.174,4.954,4.891,4.83,4.752,4.601,4.477,4.393,4.344,4.312,4.312,4.312,4.312,4.312,4.328,4.328,4.344,4.36,4.376,4.393,4.41,4.426,4.477,4.512,4.52975,4.565,4.583,4.732,4.83,4.891,0.0,5.087,5.2745,5.422,5.5235,0.0,0.0,0.0,5.517,5.415,5.2165,5.049625000000001,4.871,4.81,4.752,4.732,4.713,4.713,4.713,4.713,4.713,4.713,4.713,4.713,4.694,4.694,4.694,4.694,4.713,4.694,4.694,4.694,4.694,4.713,4.713,4.732,4.732,4.732,4.732,4.752,4.713,4.694,4.638,4.601,4.565,4.426,4.393,4.328,4.328,4.296,4.264,4.249,4.203,4.158,4.07,4.028,3.987,3.933,3.92,3.893,3.88,3.868,3.868,3.868,3.868,3.868,3.88,3.893,3.906,3.9130000000000003,3.92,3.933,3.946,3.973,3.987,4.014,4.028,4.028,4.028,4.028,4.07,4.085,4.114,4.188,4.249,4.296,4.376,4.53,4.713,4.81,4.891,4.933,4.975,5.018,5.106,5.174,5.22,5.244,5.244,5.268,5.268,5.268,5.316,5.316,5.316,5.316,5.34,5.389,5.389,5.389,5.415,5.44,5.465,5.517,5.543,5.597,5.651,5.679,5.763,5.85,5.939,6.032,6.127,6.127,6.159,6.159,6.159,6.159,6.159,6.159,6.159,6.159,6.159,6.127,6.095,6.095,6.095,6.032,6.001,6.001,5.939,5.939,5.939,5.909,5.909,5.909,5.85,5.85,5.85,5.85,5.85,5.909,5.909,5.85,5.85,5.821,5.821,5.792,5.763,5.735,5.707,5.679,5.651,5.651,5.597,5.597,5.57,5.543,5.517,5.465,5.34,5.244,5.151,5.084,5.018,4.975,4.933,4.912,4.891,4.871,4.851,4.851,4.81,0.0,0.0,0.0,0.0,0.0,0.0,0.0,0.0,0.0,1.366,1.363,1.362,1.357,1.352,1.349,1.341,1.327,1.323,1.32,1.312,1.301,1.292,1.283,1.279,1.275,1.261,1.2555,0.0,0.0,0.0,0.0,0.0,0.0,0.0,0.0,0.0,0.0,0.0,0.0,0.0,0.0,0.0,0.0,0.0,0.0,0.0,0.0,0.0,0.0,0.0,0.0,0.0,0.0,0.0,0.0,0.0,0.0,0.0,0.0,0.0,0.0,0.0,1.104,1.098,1.094,1.092,1.089,1.088,1.087,1.086,1.084,1.082,1.079,1.078,1.073,1.071,1.062,1.059,1.057,1.057,1.056,1.055,1.054,1.054,1.054,1.054,1.054,1.054,1.054,1.054,1.054,1.055,1.055,1.054,1.053,1.052,1.051,1.049,1.048,1.045,1.041,1.035,1.031,1.029,1.027,1.027,1.027,1.025,1.025,1.024,1.024,1.024,1.024,0.0,0.0,0.0,0.0,0.0,0.0,0.0,0.0,0.0,0.0,0.0,0.0,0.0,0.0,0.0,0.0,0.0,0.0,3.234,3.216,3.198,3.189,3.181,3.163,3.155,3.155,3.155,0.0,0.0,0.0,0.0,0.0,0.0,0.0,0.0,0.0,0.0,0.0,0.0,0.0,0.0,1.175,1.177,1.181,1.184,1.187,1.19,1.193,1.196,1.199,1.201,1.203,1.206,1.208,1.208,1.208,1.21,1.208,1.208,1.206,1.204,1.203,1.201,1.2,1.198,1.198,1.196,1.195,1.193,1.192,1.192,1.192,1.193,1.193,1.192,1.188,1.187,1.184,1.181,0.0,0.0,1.257,1.261,1.1695,1.169,1.169,1.1445,1.071,1.071,1.069,1.068,1.066,1.066,1.065,1.065,1.063,1.063,1.063,1.066,1.07075,1.08,1.091,0.0,0.0,0.0,1.177,1.19025,1.196,1.215,1.228,1.229,1.224,1.215,1.193,1.179,1.139,1.123,1.115,1.089,1.086,1.084,1.083
