0.421,0.421,0.42,0.42,0.42,0.42,0.42,0.419,0.419,0.418,0.418,0.418,0.417,0.417,0.417,0.418,0.418,0.417,0.417,0.416,0.416,0.416,0.416,0.415,0.415,0.415,0.415,0.415,0.415,0.415,0.415,0.415,0.414,0.414,0.414,0.414,0.414,0.414,0.414,0.413,0.412,0.412,0.411,0.411,0.411,0.41,0.41,0.41,0.409,0.409,0.409,0.409,0.408,0.408,0.407,0.407,0.407,0.407,0.407,0.406,0.406,0.406,0.406,0.406,0.406,0.406,0.405,0.405,0.405,0.405,0.404,0.404,0.404,0.404,0.404,0.403,0.403,0.403,0.402,0.402,0.402,0.402,0.402,0.401,0.401,0.401,0.401,0.401,0.4,0.4,0.39975000000000005,0.0,0.3995,0.39925,0.399,0.398,0.398,0.398,0.397,0.397,0.397,0.397,0.396,0.396,0.396,0.395,0.395,0.394,0.394,0.394,0.393,0.393,0.393,0.393,0.393,0.393,0.392,0.392,0.391,0.391,0.391,0.391,0.391,0.391,0.391,0.39,0.39,0.389,0.389,0.389,0.389,0.389,0.388,0.388,0.387,0.386,0.386,0.386,0.385,0.385,0.385,0.385,0.385,0.385,0.385,0.385,0.385,0.385,0.385,0.384,0.0,0.0,0.0,0.383,0.382,0.382,0.382,0.382,0.382,0.382,0.381,0.381,0.381,0.381,0.381,0.381,0.381,0.38,0.38,0.38,0.38,0.378,0.378,0.378,0.377,0.379,0.379,0.379,0.379,0.379,0.379,0.0,0.0,0.378,0.377,0.377,0.377,0.377,0.376,0.376,0.376,0.376,0.376,0.376,0.376,0.375,0.375,0.374,0.374,0.374,0.374,0.373,0.373,0.373,0.373,0.373,0.373,0.373,0.373,0.372,0.372,0.372,0.371,0.371,0.371,0.37,0.37,0.37,0.37,0.37,0.369,0.369,0.369,0.3685,0.36824999999999997,0.368,0.368,0.368,0.368,0.367,0.367,0.367,0.367,0.367,0.366,0.366,0.366,0.366,0.366,0.366,0.366,0.366,0.366,0.366,0.366,0.366,0.365,0.365,0.365,0.365,0.365,0.364,0.364,0.363,0.363,0.362,0.362,0.362,0.362,0.362,0.361,0.361,0.361,0.36,0.36,0.359,0.359,0.359,0.359,0.359,0.359,0.358,0.358,0.358,0.358,0.358,0.358,0.358,0.358,0.357,0.357,0.357,0.357,0.356,0.356,0.356,0.356,0.356,0.356,0.356,0.355,0.355,0.355,0.354,0.354,0.354,0.354,0.353,0.353,0.353,0.352,0.352,0.352,0.352,0.352,0.352,0.352,0.351,0.351,0.351,0.351,0.351,0.351,0.351,0.351,0.35,0.35,0.35,0.349,0.349,0.349,0.348,0.348,0.348,0.348,0.348,0.348,0.348,0.347,0.347,0.347,0.346,0.346,0.345,0.345,0.345,0.345,0.345,0.345,0.34575,0.346,0.346,0.346,0.346,0.345,0.345,0.345,0.345,0.344,0.344,0.343,0.343,0.342,0.342,0.342,0.342,0.342,0.342,0.341,0.341,0.341,0.341,0.341,0.341,0.341,0.34,0.34,0.339,0.339,0.339,0.339,0.337,0.337,0.336,0.337,0.336,0.336,0.336,0.336,0.336,0.336,0.336,0.335,0.335,0.335,0.335,0.335,0.335,0.335,0.335,0.335,0.335,0.335,0.334,0.334,0.334,0.333,0.333,0.333,0.333,0.333,0.333,0.332,0.332,0.332,0.332,0.332,0.332,0.331,0.331,0.33,0.33,0.33,0.33,0.33,0.33,0.33,0.33,0.33,0.33,0.329,0.329,0.329,0.329,0.329,0.328,0.327,0.327,0.327,0.327,0.327,0.326,0.326,0.326,0.326,0.326,0.326,0.326,0.326,0.326,0.326,0.326,0.326,0.325,0.325,0.325,0.325,0.325,0.324,0.324,0.324,0.324,0.323,0.324,0.323,0.323,0.323,0.323,0.323,0.322,0.322,0.321,0.321,0.321,0.321,0.321,0.321,0.321,0.321,0.32,0.32,0.32,0.32,0.319,0.319,0.319,0.319,0.319,0.319,0.319,0.319,0.318,0.318,0.318,0.318,0.318,0.318,0.318,0.318,0.318,0.318,0.318,0.317,0.317,0.317,0.317,0.316,0.316,0.0,0.0,0.0,0.316,0.0,0.0,0.0,0.0,0.0,0.0,0.0,0.0,0.0,0.0,0.0,0.0,0.0,0.0,0.0,0.0,0.0,0.0,0.0,0.0,0.0,0.0,0.0,0.0,0.0,0.0,0.0,0.0,0.0,0.0,0.0,0.0,0.0,0.0,0.0,0.0,0.0,0.0,0.0,0.0,0.0,0.0,0.0,0.0,0.0,0.0
0.42,0.42,0.419,0.419,0.419,0.418,0.418,0.418,0.417,0.417,0.416,0.416,0.416,0.416,0.415,0.415,0.415,0.415,0.415,0.414,0.414,0.413,0.415,0.414,0.413,0.413,0.413,0.412,0.412,0.412,0.412,0.412,0.412,0.412,0.412,0.412,0.412,0.412,0.411,0.411,0.411,0.411,0.41,0.409,0.408,0.408,0.408,0.407,0.407,0.407,0.407,0.407,0.407,0.407,0.406,0.406,0.406,0.406,0.406,0.406,0.405,0.405,0.404,0.404,0.404,0.404,0.404,0.403,0.403,0.403,0.403,0.402,0.402,0.402,0.402,0.402,0.402,0.402,0.402,0.402,0.402,0.401,0.401,0.4,0.4,0.399,0.399,0.399,0.399,0.398,0.398,0.398,0.398,0.3973125,0.397,0.397,0.396,0.396,0.396,0.395,0.395,0.394,0.394,0.394,0.394,0.394,0.393,0.393,0.393,0.393,0.392,0.392,0.391,0.391,0.391,0.39,0.39,0.39,0.39,0.39,0.389,0.389,0.389,0.389,0.389,0.389,0.389,0.389,0.388,0.388,0.387,0.386,0.386,0.386,0.385,0.385,0.385,0.385,0.385,0.384,0.384,0.384,0.384,0.384,0.384,0.383,0.383,0.383,0.382,0.0,0.0,0.0,0.0,0.381,0.381,0.381,0.381,0.381,0.381,0.381,0.381,0.38,0.381,0.38,0.38,0.379,0.379,0.379,0.378,0.378,0.378,0.377,0.377,0.377,0.377,0.377,0.376,0.376,0.377,0.377,0.377,0.0,0.0,0.377,0.377,0.376,0.376,0.376,0.375,0.375,0.375,0.374,0.374,0.3745,0.374125,0.373,0.373,0.373,0.373,0.373,0.373,0.373,0.372,0.372,0.372,0.372,0.372,0.372,0.371,0.371,0.371,0.37,0.37,0.37,0.37,0.369,0.369,0.369,0.369,0.369,0.368,0.367,0.367,0.367,0.366,0.366,0.366,0.366,0.366,0.366,0.366,0.366,0.366,0.366,0.365,0.365,0.365,0.365,0.365,0.365,0.365,0.365,0.365,0.365,0.365,0.364,0.364,0.364,0.364,0.364,0.363,0.363,0.362,0.362,0.362,0.362,0.361,0.361,0.36,0.36,0.359,0.359,0.359,0.358,0.358,0.358,0.358,0.358,0.358,0.358,0.358,0.358,0.35725,0.357,0.357,0.357,0.357,0.356,0.356,0.356,0.356,0.356,0.355,0.355,0.355,0.355,0.355,0.355,0.355,0.355,0.354,0.354,0.354,0.353,0.353,0.352,0.352,0.352,0.352,0.352,0.351,0.351,0.351,0.351,0.351,0.351,0.351,0.35,0.35,0.35,0.349,0.349,0.349,0.349,0.349,0.349,0.348,0.348,0.348,0.348,0.348,0.348,0.347,0.347,0.347,0.346,0.346,0.346,0.346,0.345,0.345,0.345,0.345,0.345,0.345,0.345,0.345,0.345,0.345,0.345,0.345,0.345,0.345,0.345,0.345,0.344,0.344,0.343,0.343,0.342,0.342,0.341,0.341,0.341,0.341,0.341,0.341,0.341,0.341,0.34,0.34,0.34,0.34,0.34,0.339,0.339,0.339,0.339,0.337,0.337,0.336,0.336,0.335,0.335,0.335,0.335,0.335,0.335,0.335,0.335,0.335,0.335,0.335,0.335,0.335,0.334,0.334,0.334,0.334,0.333,0.333,0.333,0.333,0.333,0.333,0.332,0.332,0.332,0.332,0.332,0.332,0.332,0.332,0.331,0.331,0.331,0.33,0.33,0.33,0.329,0.329,0.329,0.329,0.329,0.329,0.329,0.329,0.329,0.329,0.329,0.329,0.329,0.328,0.327,0.327,0.327,0.326,0.326,0.326,0.326,0.326,0.326,0.326,0.326,0.326,0.325,0.325,0.325,0.0,0.0,0.0,0.324,0.324,0.323,0.324,0.323,0.323,0.323,0.323,0.323,0.323,0.323,0.323,0.323,0.322,0.322,0.322,0.322,0.3215,0.321,0.321,0.321,0.321,0.32,0.32,0.32,0.32,0.32,0.32,0.319,0.31875000000000003,0.318,0.318,0.318,0.318,0.318,0.318,0.318,0.318,0.318,0.318,0.318,0.318,0.317,0.317,0.317,0.317,0.317,0.3165,0.316375,0.316,0.316,0.316,0.316,0.316,0.316,0.315,0.315,0.0,0.0,0.0,0.315,0.314,0.0,0.0,0.0,0.0,0.0,0.0,0.0,0.0,0.0,0.0,0.0,0.0,0.0,0.0,0.0,0.0,0.0,0.0,0.0,0.0,0.0,0.0,0.0,0.0,0.0,0.0,0.0,0.0,0.0,0.0,0.0,0.0,0.0,0.0,0.0,0.0,0.0,0.0,0.0,0.0,0.0,0.0,0.0,0.0,0.0
0.418,0.417,0.417,0.417,0.416,0.416,0.416,0.416,0.416,0.416,0.415,0.415,0.415,0.415,0.414,0.414,0.414,0.413,0.412,0.412,0.412,0.411,0.411,0.411,0.411,0.411,0.411,0.411,0.411,0.411,0.411,0.411,0.411,0.411,0.411,0.41,0.41,0.41,0.41,0.40925,0.409,0.408,0.407,0.407,0.407,0.407,0.407,0.406,0.406,0.406,0.406,0.406,0.406,0.406,0.405,0.405,0.405,0.404,0.403,0.403,0.403,0.403,0.402,0.402,0.402,0.402,0.402,0.402,0.402,0.402,0.402,0.402,0.401,0.401,0.401,0.401,0.401,0.4,0.4,0.399,0.399,0.399,0.399,0.398,0.398,0.398,0.398,0.398,0.397,0.397,0.397,0.397,0.395,0.395,0.394,0.394,0.394,0.394,0.394,0.394,0.393,0.393,0.393,0.393,0.393,0.392,0.392,0.392,0.391,0.39,0.39,0.389,0.389,0.389,0.38925000000000004,0.389,0.389,0.389,0.389,0.389,0.389,0.388,0.388,0.388,0.388,0.388,0.388,0.386,0.386,0.386,0.385,0.385,0.385,0.385,0.384,0.384,0.383,0.383,0.383,0.382,0.382,0.382,0.382,0.382,0.381,0.381,0.381,0.381,0.381,0.0,0.0,0.0,0.0,0.38,0.38,0.38,0.38,0.38,0.379,0.379,0.379,0.378,0.378,0.378,0.377,0.377,0.377,0.377,0.377,0.377,0.377,0.377,0.377,0.376,0.376,0.376,0.376,0.375,0.375,0.375,0.376,0.376,0.376,0.376,0.375,0.375,0.375,0.374,0.374,0.373,0.373,0.373,0.37274999999999997,0.373,0.373,0.372,0.372,0.371,0.372,0.372,0.371,0.371,0.371,0.37,0.37,0.37024999999999997,0.37,0.37,0.37,0.37,0.369,0.369,0.369,0.369,0.369,0.368,0.368,0.368,0.367,0.367,0.367,0.366,0.366,0.366,0.366,0.365,0.365,0.365,0.365,0.365,0.365,0.365,0.365,0.364,0.364,0.364,0.364,0.364,0.364,0.364,0.364,0.36375,0.364,0.363,0.363,0.363,0.363,0.363,0.363,0.363,0.362,0.362,0.362,0.361,0.361,0.361,0.36,0.36,0.359,0.359,0.358,0.358,0.358,0.358,0.358,0.357,0.357,0.357,0.356,0.357,0.356,0.356,0.356,0.356,0.356,0.355,0.355,0.355,0.355,0.355,0.355,0.355,0.355,0.355,0.354,0.354,0.354,0.354,0.354,0.353,0.353,0.352,0.352,0.352,0.352,0.351,0.351,0.351,0.351,0.351,0.351,0.351,0.35,0.35,0.349,0.349,0.349,0.349,0.348,0.348,0.348,0.348,0.348,0.348,0.348,0.348,0.348,0.348,0.347,0.347,0.347,0.346,0.346,0.345,0.345,0.345,0.345,0.345,0.345,0.345,0.345,0.344,0.344,0.344,0.344,0.344,0.344,0.344,0.3435,0.343,0.343,0.344,0.344,0.343,0.343,0.342,0.342,0.342,0.341,0.341,0.341,0.34,0.34,0.34,0.34,0.34,0.34,0.34,0.339,0.339,0.339,0.339,0.339,0.339,0.338,0.337,0.337,0.336,0.336,0.335,0.335,0.335,0.335,0.335,0.334,0.334,0.334,0.334,0.334,0.334,0.334,0.333,0.333,0.333,0.333,0.333,0.333,0.333,0.332,0.332,0.332,0.332,0.332,0.332,0.332,0.332,0.332,0.331,0.331,0.331,0.331,0.33,0.33,0.33,0.33,0.329,0.329,0.329,0.329,0.329,0.329,0.328,0.328,0.328,0.328,0.328,0.328,0.328,0.328,0.327,0.327,0.327,0.327,0.327,0.326,0.326,0.326,0.326,0.326,0.326,0.326,0.325,0.325,0.324,0.324,0.324,0.324,0.0,0.0,0.0,0.0,0.323,0.323,0.323,0.323,0.323,0.323,0.322,0.322,0.322,0.3215,0.321,0.321,0.321,0.321,0.321,0.321,0.0,0.32075,0.32,0.32,0.32,0.32,0.32,0.32,0.319,0.319,0.318,0.318,0.318,0.318,0.318,0.318,0.318,0.318,0.318,0.318,0.318,0.318,0.317,0.317,0.317,0.317,0.316,0.316,0.316,0.316,0.316,0.315,0.315,0.315,0.315,0.315,0.315,0.315,0.315,0.315,0.315,0.0,0.0,0.0,0.3135,0.313,0.0,0.0,0.0,0.0,0.0,0.0,0.0,0.0,0.0,0.0,0.0,0.0,0.0,0.0,0.0,0.0,0.0,0.0,0.0,0.0,0.0,0.0,0.0,0.0,0.0,0.0,0.0,0.0,0.0,0.0,0.0,0.0,0.0,0.0,0.0,0.0,0.0,0.0,0.0,0.0,0.0,0.0,0.0,0.0,0.0
0.417,0.416,0.416,0.416,0.416,0.416,0.416,0.415,0.415,0.415,0.414,0.414,0.414,0.413,0.412,0.412,0.412,0.411,0.411,0.411,0.411,0.411,0.411,0.41,0.41,0.41,0.409,0.409,0.409,0.408,0.408,0.407,0.409,0.409,0.409,0.408,0.408,0.408,0.407,0.407,0.40725,0.407,0.406,0.406,0.406,0.406,0.406,0.405,0.405,0.405,0.405,0.404,0.404,0.404,0.403,0.403,0.402,0.402,0.402,0.402,0.402,0.402,0.402,0.402,0.401,0.401,0.401,0.401,0.401,0.4,0.4,0.399,0.399,0.399,0.399,0.399,0.398,0.398,0.398,0.398,0.398,0.398,0.397,0.397,0.397,0.397,0.396,0.396,0.394,0.394,0.394,0.394,0.393,0.393,0.393,0.393,0.393,0.393,0.393,0.393,0.393,0.392,0.392,0.391,0.39,0.39,0.389,0.389,0.389,0.389,0.389,0.388,0.388,0.388,0.388,0.387,0.387,0.387,0.386,0.386,0.386,0.386,0.386,0.386,0.386,0.386,0.385,0.385,0.385,0.385,0.385,0.384,0.383,0.383,0.382,0.382,0.381,0.381,0.381,0.381,0.381,0.381,0.381,0.381,0.381,0.381,0.38,0.38,0.379,0.379,0.379,0.379,0.378,0.378,0.378,0.378,0.378,0.377,0.37725000000000003,0.377,0.377,0.377,0.377,0.377,0.377,0.377,0.376,0.376,0.376,0.376,0.376,0.375,0.375,0.375,0.375,0.374,0.374,0.374,0.374,0.373,0.373,0.373,0.373,0.374,0.373,0.373,0.373,0.373,0.373,0.373,0.372,0.372,0.371,0.371,0.37,0.37,0.37,0.37,0.37,0.37,0.37,0.37,0.369,0.369,0.369,0.369,0.369,0.369,0.369,0.369,0.368,0.368,0.368,0.367,0.367,0.366,0.366,0.366,0.366,0.366,0.366,0.365,0.365,0.365,0.364,0.364,0.364,0.364,0.363,0.363,0.363,0.363,0.363,0.363,0.362,0.362,0.362,0.362,0.362,0.362,0.363,0.362,0.363,0.362,0.362,0.362,0.362,0.362,0.362,0.362,0.362,0.361,0.3605,0.36,0.359,0.359,0.359,0.358,0.358,0.358,0.358,0.357,0.357,0.357,0.357,0.356,0.356,0.356,0.355,0.355,0.355,0.355,0.355,0.355,0.355,0.355,0.355,0.355,0.355,0.354,0.354,0.354,0.353,0.353,0.353,0.353,0.353,0.352,0.352,0.352,0.352,0.351,0.351,0.351,0.351,0.351,0.35,0.35,0.35,0.35,0.349,0.349,0.349,0.348,0.348,0.348,0.348,0.348,0.348,0.348,0.348,0.348,0.348,0.347,0.347,0.347,0.347,0.346,0.346,0.346,0.345,0.345,0.345,0.345,0.345,0.344,0.344,0.344,0.344,0.343,0.343,0.343,0.342,0.342,0.342,0.342,0.342,0.342,0.34225000000000005,0.34206250000000005,0.342,0.342,0.342,0.342,0.342,0.341,0.341,0.34,0.34,0.339,0.339,0.339,0.339,0.339,0.339,0.339,0.339,0.339,0.339,0.338,0.338,0.338,0.337,0.338,0.33675000000000005,0.336,0.335,0.335,0.335,0.335,0.334,0.334,0.333,0.333,0.333,0.333,0.333,0.333,0.333,0.333,0.333,0.332,0.332,0.332,0.332,0.332,0.332,0.332,0.332,0.332,0.331,0.331,0.331,0.331,0.33,0.331,0.33,0.33,0.33,0.33,0.33,0.329,0.329,0.329,0.329,0.329,0.329,0.328,0.328,0.328,0.328,0.327,0.327,0.327,0.327,0.327,0.327,0.326,0.326,0.326,0.326,0.326,0.326,0.326,0.326,0.325,0.325,0.325,0.325,0.325,0.325,0.324,0.324,0.324,0.323,0.323,0.323,0.0,0.0,0.0,0.0,0.322,0.322,0.321,0.321,0.321,0.321,0.321,0.321,0.0,0.0,0.321,0.32,0.32,0.32,0.32,0.32,0.32,0.32,0.32,0.319,0.319,0.319,0.318,0.318,0.318,0.318,0.318,0.318,0.317,0.317,0.317,0.317,0.317,0.317,0.317,0.317,0.317,0.317,0.317,0.316,0.316,0.315,0.315,0.315,0.315,0.315,0.315,0.315,0.315,0.315,0.315,0.315,0.0,0.0,0.314,0.314,0.313,0.313,0.0,0.0,0.312,0.0,0.0,0.0,0.0,0.0,0.0,0.0,0.0,0.0,0.0,0.0,0.0,0.0,0.0,0.0,0.0,0.0,0.0,0.0,0.0,0.0,0.0,0.0,0.0,0.0,0.0,0.0,0.0,0.0,0.0,0.0,0.0,0.0,0.0,0.0,0.0,0.0,0.0,0.0,0.0,0.0,0.0,0.0,0.0,0.0,0.0
0.416,0.415,0.415,0.415,0.415,0.414,0.414,0.414,0.413,0.413,0.412,0.412,0.411,0.411,0.411,0.411,0.411,0.411,0.41,0.41,0.41,0.41,0.409,0.409,0.408,0.408,0.407,0.407,0.407,0.407,0.407,0.406,0.406,0.406,0.406,0.406,0.407,0.406,0.406,0.406,0.406,0.405,0.405,0.404,0.404,0.404,0.404,0.403,0.403,0.40325,0.403,0.402,0.402,0.402,0.402,0.402,0.402,0.401,0.401,0.401,0.4,0.4,0.4,0.4,0.4,0.399,0.399,0.399,0.399,0.398,0.398,0.398,0.398,0.398,0.397,0.397,0.397,0.397,0.397,0.397,0.397,0.396,0.396,0.395,0.395,0.394,0.394,0.393,0.393,0.393,0.393,0.392,0.392,0.392,0.392,0.392,0.392,0.392,0.392,0.391,0.391,0.39,0.389,0.389,0.389,0.389,0.389,0.388,0.388,0.388,0.387,0.386,0.386,0.386,0.385,0.385,0.385,0.385,0.385,0.385,0.385,0.385,0.385,0.385,0.3845,0.38425,0.384,0.384,0.384,0.383,0.383,0.382,0.382,0.381,0.381,0.381,0.38,0.38,0.38,0.379,0.379,0.379,0.379,0.379,0.379,0.379,0.378,0.378,0.377,0.377,0.377,0.377,0.377,0.377,0.377,0.377,0.377,0.377,0.376,0.376,0.376,0.376,0.376,0.375,0.376,0.375,0.375,0.375,0.375,0.374,0.374,0.0,0.374,0.373,0.373,0.373,0.373,0.373,0.373,0.373,0.373,0.372,0.371,0.371,0.37,0.37,0.372,0.371,0.3705,0.37,0.37,0.37,0.37,0.369,0.369,0.369,0.369,0.369,0.369,0.369,0.369,0.369,0.368,0.368,0.368,0.368,0.367,0.367,0.367,0.3665,0.366,0.366,0.366,0.366,0.366,0.366,0.365,0.365,0.365,0.365,0.364,0.363,0.36324999999999996,0.363,0.363,0.363,0.363,0.362,0.362,0.362,0.362,0.362,0.362,0.362,0.362,0.362,0.362,0.362,0.362,0.362,0.362,0.362,0.362,0.362,0.362,0.362,0.361,0.361,0.36049999999999993,0.36,0.36,0.0,0.35875,0.358,0.358,0.358,0.358,0.357,0.3565,0.35624999999999996,0.356,0.356,0.356,0.356,0.355,0.355,0.355,0.355,0.355,0.355,0.355,0.355,0.355,0.354,0.354,0.354,0.354,0.353,0.353,0.353,0.353,0.352,0.352,0.352,0.352,0.352,0.352,0.351,0.351,0.351,0.351,0.35,0.35,0.35,0.349,0.349,0.349,0.349,0.349,0.348,0.348,0.348,0.348,0.348,0.348,0.348,0.348,0.348,0.347,0.347,0.347,0.347,0.347,0.346,0.346,0.346,0.345,0.345,0.345,0.345,0.345,0.344,0.344,0.344,0.343,0.343,0.343,0.343,0.342,0.342,0.342,0.342,0.342,0.342,0.341,0.341,0.341,0.341,0.341,0.341,0.341,0.341,0.341,0.34,0.34,0.339,0.339,0.339,0.339,0.338,0.338,0.338,0.338,0.338,0.338,0.338,0.338,0.338,0.336,0.336,0.336,0.336,0.336,0.335,0.335,0.335,0.335,0.334,0.334,0.333,0.333,0.332,0.332,0.332,0.332,0.332,0.332,0.332,0.332,0.332,0.332,0.332,0.332,0.332,0.332,0.331,0.331,0.331,0.331,0.331,0.33,0.33,0.33,0.33,0.329,0.329,0.329,0.329,0.329,0.329,0.329,0.329,0.329,0.329,0.328,0.328,0.328,0.327,0.327,0.327,0.326,0.326,0.326,0.326,0.326,0.326,0.326,0.326,0.326,0.325,0.325,0.325,0.325,0.324,0.324,0.324,0.324,0.324,0.324,0.324,0.323,0.323,0.323,0.323,0.322,0.322,0.321,0.321,0.321,0.321,0.321,0.321,0.321,0.321,0.321,0.32,0.32,0.32,0.32,0.0,0.0,0.319,0.319,0.319,0.319,0.319,0.319,0.319,0.319,0.319,0.318,0.318,0.318,0.318,0.318,0.317,0.317,0.317,0.316,0.316,0.316,0.315,0.315,0.315,0.316,0.316,0.316,0.315,0.315,0.315,0.315,0.315,0.315,0.315,0.315,0.314,0.314,0.314,0.314,0.314,0.314,0.314,0.0,0.0,0.0,0.312,0.312,0.312,0.312,0.311,0.311,0.31,0.0,0.0,0.0,0.0,0.0,0.0,0.0,0.0,0.0,0.0,0.0,0.0,0.0,0.0,0.0,0.0,0.0,0.0,0.0,0.0,0.0,0.0,0.0,0.0,0.0,0.0,0.0,0.0,0.0,0.0,0.0,0.0,0.0,0.0,0.0,0.0,0.0,0.0,0.0,0.0,0.0,0.0,0.0,0.0,0.0,0.0
0.414,0.414,0.413,0.413,0.41274999999999995,0.412,0.412,0.412,0.411,0.411,0.411,0.411,0.41,0.41,0.41,0.409,0.409,0.409,0.408,0.408,0.408,0.408,0.407,0.407,0.407,0.406,0.406,0.406,0.406,0.406,0.406,0.405,0.405,0.405,0.404,0.404,0.403,0.403,0.403,0.402,0.402,0.403,0.403,0.402,0.402,0.402,0.402,0.402,0.402,0.402,0.402,0.402,0.402,0.402,0.401,0.401,0.4,0.4,0.399,0.399,0.399,0.399,0.398,0.398,0.398,0.398,0.398,0.398,0.397,0.397,0.397,0.397,0.397,0.396,0.396,0.396,0.395,0.395,0.395,0.394,0.394,0.394,0.393,0.393,0.393,0.393,0.393,0.392,0.392,0.392,0.391,0.391,0.391,0.39,0.39,0.39,0.39,0.39,0.389,0.389,0.389,0.389,0.389,0.388,0.388,0.388,0.388,0.387,0.386,0.386,0.386,0.385,0.385,0.385,0.385,0.385,0.384,0.384,0.384,0.384,0.384,0.384,0.384,0.384,0.383,0.3828125,0.383,0.382,0.382,0.382,0.381,0.381,0.381,0.38,0.38,0.379,0.379,0.378,0.378,0.378,0.378,0.377,0.377,0.378,0.377,0.377,0.377,0.377,0.377,0.377,0.377,0.377,0.376,0.376,0.376,0.376,0.376,0.375,0.375,0.374,0.374,0.374,0.374,0.374,0.374,0.374,0.374,0.374,0.373,0.373,0.373,0.373,0.373,0.373,0.373,0.373,0.373,0.373,0.372,0.372,0.371,0.37,0.37,0.37,0.369,0.369,0.369,0.369,0.36824999999999997,0.3683125,0.369,0.369,0.369,0.369,0.369,0.368,0.368,0.368,0.368,0.368,0.367,0.367,0.367,0.366,0.366,0.366,0.366,0.3655,0.3655,0.36524999999999996,0.3650625,0.365,0.365,0.365,0.365,0.365,0.364,0.364,0.364,0.363,0.363,0.362,0.362,0.362,0.362,0.362,0.362,0.362,0.362,0.362,0.362,0.362,0.361,0.361,0.361,0.361,0.361,0.361,0.36,0.361,0.361,0.36,0.361,0.36,0.36,0.35975,0.359,0.359,0.359,0.359,0.0,0.0,0.357,0.357,0.356,0.356,0.356,0.356,0.355,0.0,0.0,0.0,0.355,0.355,0.355,0.355,0.355,0.354,0.354,0.353,0.353,0.353,0.353,0.353,0.352,0.352,0.352,0.352,0.352,0.352,0.352,0.351,0.351,0.351,0.351,0.351,0.351,0.351,0.35,0.35,0.349,0.349,0.348,0.348,0.348,0.348,0.348,0.348,0.348,0.348,0.348,0.347,0.347,0.347,0.347,0.347,0.346,0.346,0.346,0.346,0.345,0.345,0.345,0.345,0.345,0.345,0.345,0.344,0.344,0.344,0.343,0.343,0.343,0.342,0.342,0.342,0.342,0.342,0.341,0.341,0.341,0.341,0.34,0.34,0.34,0.34,0.339,0.339,0.339,0.339,0.339,0.339,0.339,0.339,0.339,0.338,0.338,0.338,0.338,0.338,0.338,0.338,0.338,0.337,0.337,0.336,0.336,0.335,0.335,0.335,0.335,0.335,0.335,0.335,0.334,0.334,0.333,0.333,0.332,0.332,0.332,0.332,0.332,0.332,0.332,0.332,0.332,0.331,0.331,0.331,0.331,0.331,0.331,0.331,0.331,0.33,0.33,0.33,0.33,0.329,0.329,0.329,0.329,0.329,0.329,0.329,0.329,0.329,0.328,0.329,0.328,0.328,0.328,0.327,0.327,0.327,0.326,0.326,0.326,0.326,0.326,0.326,0.326,0.325,0.325,0.325,0.324,0.324,0.324,0.324,0.324,0.324,0.323,0.323,0.323,0.323,0.323,0.323,0.323,0.323,0.0,0.0,0.0,0.321,0.321,0.321,0.32,0.32,0.32,0.32,0.32,0.32,0.32,0.32,0.32,0.319,0.319,0.319,0.319,0.318,0.318,0.318,0.318,0.318,0.318,0.318,0.318,0.318,0.318,0.318,0.318,0.318,0.317,0.317,0.316,0.316,0.315,0.315,0.315,0.315,0.315,0.315,0.315,0.315,0.315,0.315,0.315,0.315,0.315,0.315,0.315,0.314,0.314,0.314,0.313,0.313,0.313,0.313,0.313,0.313,0.313,0.313,0.0,0.0,0.0,0.311,0.311,0.311,0.31,0.31,0.31,0.31,0.0,0.0,0.0,0.0,0.0,0.0,0.0,0.0,0.0,0.0,0.0,0.0,0.0,0.0,0.0,0.0,0.0,0.0,0.0,0.0,0.0,0.0,0.0,0.0,0.0,0.0,0.0,0.0,0.0,0.0,0.0,0.0,0.0,0.0,0.0,0.0,0.0,0.0,0.0,0.0,0.0,0.0,0.0,0.0,0.0,0.0
0.412,0.412,0.411,0.411,0.411,0.411,0.41,0.41,0.41,0.41,0.409,0.409,0.408,0.408,0.407,0.407,0.407,0.407,0.406,0.406,0.406,0.406,0.406,0.406,0.406,0.406,0.405,0.405,0.404,0.404,0.404,0.403,0.403,0.403,0.403,0.402,0.402,0.402,0.402,0.402,0.401,0.401,0.4,0.4,0.401,0.401,0.401,0.401,0.4,0.4,0.4,0.4,0.4,0.4,0.4,0.399,0.399,0.398,0.398,0.397,0.397,0.397,0.397,0.397,0.397,0.397,0.397,0.396,0.396,0.395,0.395,0.394,0.394,0.394,0.394,0.394,0.394,0.393,0.393,0.39275,0.393,0.393,0.392,0.392,0.392,0.391,0.391,0.39,0.39025,0.39,0.389,0.389,0.389,0.389,0.389,0.389,0.389,0.389,0.389,0.389,0.388,0.388,0.388,0.387,0.386,0.386,0.386,0.386,0.385,0.385,0.385,0.384,0.384,0.384,0.383,0.383,0.383,0.382,0.382,0.382,0.382,0.382,0.382,0.382,0.381,0.381,0.38125000000000003,0.381,0.381,0.381,0.381,0.38,0.379,0.379,0.378,0.378,0.377,0.377,0.377,0.377,0.377,0.377,0.377,0.377,0.377,0.377,0.376,0.376,0.376,0.376,0.376,0.375,0.0,0.3745,0.374,0.374,0.374,0.374,0.373,0.373,0.373,0.373,0.373,0.373,0.373,0.373,0.373,0.373,0.373,0.373,0.372,0.372,0.371,0.371,0.371,0.371,0.371,0.371,0.371,0.37,0.37,0.369,0.369,0.369,0.368,0.368,0.367,0.367,0.366,0.366,0.366,0.368,0.368,0.367,0.367,0.367,0.367,0.367,0.366,0.366,0.366,0.366,0.366,0.366,0.366,0.365,0.365,0.364,0.364,0.364,0.364,0.363,0.363,0.363,0.363,0.363,0.363,0.362,0.362,0.362,0.362,0.362,0.362,0.362,0.361,0.361,0.361,0.361,0.361,0.361,0.36,0.36,0.36,0.359,0.359,0.359,0.359,0.359,0.359,0.359,0.359,0.359,0.359,0.359,0.358,0.358,0.358,0.358,0.357,0.356,0.0,0.0,0.355,0.355,0.355,0.355,0.355,0.355,0.355,0.0,0.0,0.0,0.353,0.353,0.353,0.353,0.353,0.352,0.352,0.352,0.352,0.352,0.352,0.352,0.352,0.351,0.351,0.351,0.351,0.351,0.351,0.35,0.35,0.35,0.35,0.35,0.35,0.349,0.348,0.348,0.348,0.348,0.348,0.348,0.347,0.347,0.347,0.347,0.346,0.346,0.346,0.346,0.345,0.345,0.345,0.345,0.345,0.345,0.345,0.345,0.345,0.345,0.344,0.344,0.344,0.344,0.343,0.343,0.342,0.342,0.342,0.342,0.342,0.342,0.341,0.341,0.341,0.341,0.341,0.34,0.34,0.34,0.339,0.339,0.339,0.339,0.339,0.339,0.338,0.338,0.338,0.338,0.338,0.338,0.338,0.337,0.337,0.336,0.336,0.336,0.336,0.336,0.335,0.335,0.335,0.335,0.335,0.335,0.335,0.335,0.335,0.334,0.334,0.334,0.333,0.332,0.332,0.332,0.332,0.332,0.331,0.331,0.331,0.331,0.331,0.331,0.33,0.33,0.33,0.33,0.33,0.33,0.33,0.329,0.329,0.329,0.329,0.329,0.329,0.329,0.329,0.329,0.328,0.328,0.328,0.328,0.328,0.327,0.327,0.327,0.327,0.327,0.326,0.326,0.326,0.326,0.326,0.325,0.325,0.325,0.325,0.325,0.324,0.324,0.324,0.324,0.324,0.323,0.323,0.323,0.323,0.323,0.323,0.323,0.322,0.322,0.322,0.323,0.322,0.322,0.0,0.0,0.0,0.32,0.32,0.32,0.32,0.319,0.319,0.319,0.319,0.319,0.318,0.318,0.318,0.318,0.318,0.318,0.318,0.318,0.318,0.318,0.317,0.317,0.3175,0.318,0.318,0.318,0.317,0.317,0.317,0.316,0.316,0.316,0.315,0.315,0.315,0.315,0.314,0.314,0.314,0.314,0.314,0.314,0.314,0.314,0.314,0.314,0.314,0.314,0.313,0.313,0.313,0.313,0.313,0.312,0.312,0.312,0.312,0.312,0.312,0.312,0.0,0.0,0.0,0.31,0.31,0.31,0.31,0.309,0.309,0.309,0.0,0.0,0.0,0.0,0.0,0.0,0.0,0.0,0.0,0.0,0.0,0.0,0.0,0.0,0.0,0.0,0.0,0.0,0.0,0.0,0.0,0.0,0.0,0.0,0.0,0.0,0.0,0.0,0.0,0.0,0.0,0.0,0.0,0.0,0.0,0.0,0.0,0.0,0.0,0.0,0.0,0.0,0.0,0.0,0.0,0.0
0.411,0.41,0.41,0.409,0.409,0.408,0.408,0.408,0.408,0.407,0.407,0.407,0.406,0.406,0.406,0.406,0.406,0.405,0.404,0.404,0.404,0.404,0.404,0.404,0.404,0.403,0.403,0.403,0.403,0.402,0.402,0.402,0.402,0.402,0.402,0.401,0.401,0.4,0.4,0.4,0.399,0.399,0.399,0.398,0.398,0.398,0.398,0.398,0.399,0.399,0.398,0.398,0.398,0.398,0.398,0.398,0.398,0.397,0.397,0.396,0.396,0.395,0.395,0.395,0.394,0.394,0.394,0.394,0.394,0.393,0.393,0.393,0.393,0.393,0.393,0.392,0.392,0.392,0.391,0.391,0.391,0.39,0.39,0.39,0.39,0.389,0.389,0.389,0.389,0.389,0.388,0.388,0.388,0.388,0.388,0.388,0.388,0.388,0.387,0.387,0.387,0.386,0.386,0.386,0.385,0.385,0.385,0.385,0.384,0.384,0.383,0.383,0.382,0.382,0.382,0.382,0.381,0.381,0.381,0.381,0.381,0.381,0.381,0.38,0.38,0.38,0.38,0.379,0.379,0.379,0.378,0.378,0.378,0.3775,0.377,0.377,0.377,0.377,0.376,0.376,0.376,0.376,0.376,0.376,0.376,0.376,0.375,0.375,0.374,0.374,0.374,0.374,0.3735,0.373,0.373,0.373,0.373,0.373,0.373,0.373,0.373,0.373,0.373,0.372,0.372,0.372,0.372,0.371,0.371,0.37,0.37,0.37,0.37,0.37,0.37,0.37,0.37,0.37,0.369,0.369,0.369,0.369,0.368,0.366,0.366,0.366,0.366,0.366,0.366,0.365,0.365,0.366,0.365,0.365,0.365,0.366,0.366,0.366,0.366,0.365,0.365,0.365,0.365,0.364,0.364,0.364,0.363,0.363,0.362,0.362,0.362,0.362,0.362,0.362,0.362,0.362,0.362,0.362,0.361,0.361,0.361,0.361,0.361,0.36,0.36,0.36,0.0,0.0,0.359,0.359,0.359,0.359,0.359,0.359,0.358,0.358,0.358,0.358,0.358,0.358,0.357,0.357,0.0,0.0,0.357,0.356,0.356,0.355,0.355,0.355,0.355,0.355,0.355,0.354,0.354,0.353,0.353,0.353,0.353,0.353,0.352,0.352,0.352,0.352,0.352,0.352,0.351,0.351,0.351,0.351,0.351,0.351,0.351,0.351,0.351,0.351,0.351,0.35,0.35,0.35,0.349,0.349,0.349,0.349,0.349,0.349,0.348,0.348,0.348,0.348,0.348,0.347,0.347,0.346,0.346,0.346,0.345,0.345,0.345,0.345,0.345,0.345,0.345,0.345,0.344,0.344,0.344,0.344,0.344,0.343,0.343,0.343,0.343,0.342,0.342,0.342,0.342,0.342,0.342,0.341,0.341,0.341,0.341,0.341,0.34,0.34,0.34,0.339,0.339,0.339,0.339,0.339,0.338,0.338,0.338,0.338,0.338,0.338,0.338,0.338,0.337,0.337,0.337,0.336,0.336,0.336,0.335,0.335,0.335,0.334,0.335,0.334,0.334,0.334,0.334,0.334,0.334,0.334,0.334,0.334,0.333,0.333,0.333,0.332,0.332,0.332,0.332,0.331,0.331,0.331,0.33,0.33,0.33,0.33,0.33,0.33,0.329,0.329,0.329,0.329,0.329,0.329,0.329,0.329,0.329,0.328,0.328,0.328,0.328,0.328,0.328,0.327,0.327,0.327,0.327,0.327,0.326,0.326,0.326,0.326,0.0,0.0,0.0,0.325,0.325,0.325,0.325,0.324,0.324,0.324,0.324,0.324,0.324,0.323,0.323,0.323,0.323,0.322,0.322,0.322,0.322,0.322,0.322,0.322,0.321,0.322,0.322,0.321,0.321,0.321,0.0,0.0,0.0,0.319,0.319,0.319,0.319,0.318,0.318,0.318,0.318,0.318,0.318,0.318,0.318,0.318,0.318,0.317,0.317,0.317,0.317,0.317,0.317,0.317,0.317,0.317,0.317,0.316,0.0,0.0,0.0,0.0,0.315,0.315,0.314,0.314,0.314,0.313,0.313,0.313,0.313,0.313,0.313,0.313,0.313,0.313,0.313,0.313,0.313,0.313,0.312,0.312,0.312,0.312,0.312,0.312,0.312,0.312,0.311,0.311,0.311,0.31,0.31,0.31,0.31,0.309,0.309,0.309,0.309,0.308,0.308,0.308,0.3075,0.307,0.0,0.0,0.0,0.0,0.0,0.0,0.0,0.0,0.0,0.0,0.0,0.0,0.0,0.0,0.0,0.0,0.0,0.0,0.0,0.0,0.0,0.0,0.0,0.0,0.0,0.0,0.0,0.0,0.0,0.0,0.0,0.0,0.0,0.0,0.0,0.0,0.0,0.0,0.0,0.0,0.0,0.0,0.0,0.0
0.408,0.408,0.408,0.407,0.407,0.407,0.407,0.406,0.406,0.406,0.406,0.406,0.404,0.404,0.404,0.404,0.404,0.403,0.403,0.403,0.403,0.403,0.402,0.402,0.402,0.402,0.402,0.402,0.402,0.402,0.401,0.401,0.401,0.4,0.4,0.399,0.399,0.399,0.399,0.398,0.398,0.398,0.398,0.397,0.397,0.397,0.397,0.397,0.397,0.397,0.396,0.396,0.397,0.397,0.397,0.397,0.396,0.396,0.395,0.394,0.394,0.394,0.393,0.393,0.393,0.393,0.393,0.393,0.393,0.392,0.392,0.392,0.391,0.391,0.391,0.39,0.39,0.39,0.389,0.389,0.389,0.389,0.389,0.389,0.389,0.388,0.388,0.387,0.387,0.387,0.386,0.386,0.386,0.386,0.386,0.3865,0.3865,0.386125,0.385,0.385,0.385,0.385,0.385,0.385,0.385,0.384,0.383,0.383,0.382,0.382,0.381,0.381,0.381,0.381,0.381,0.381,0.381,0.38,0.38,0.38,0.379,0.379,0.378,0.378,0.378,0.378,0.377,0.377,0.377,0.377,0.377,0.377,0.377,0.376,0.376,0.376,0.376,0.375,0.375,0.374,0.374,0.374,0.374,0.374,0.374,0.374,0.373,0.373,0.373,0.373,0.373,0.373,0.373,0.373,0.373,0.372,0.372,0.372,0.372,0.371,0.372,0.371,0.371,0.371,0.371,0.37,0.37,0.37,0.37,0.369,0.369,0.369,0.369,0.369,0.369,0.369,0.369,0.369,0.36824999999999997,0.368,0.368,0.366,0.366,0.366,0.365,0.365,0.365,0.364,0.364,0.364,0.364,0.364,0.364,0.364,0.364,0.363,0.363,0.363,0.364,0.364,0.364,0.363,0.363,0.362,0.362,0.362,0.362,0.362,0.362,0.362,0.361,0.361,0.361,0.361,0.361,0.361,0.361,0.36,0.36,0.36,0.359,0.359,0.359,0.359,0.359,0.359,0.0,0.0,0.358,0.35775,0.358,0.358,0.358,0.357,0.3565,0.0,0.0,0.355,0.355,0.355,0.355,0.355,0.0,0.0,0.3555,0.35524999999999995,0.355,0.354,0.354,0.354,0.354,0.353,0.353,0.352,0.352,0.352,0.352,0.352,0.352,0.352,0.351,0.351,0.351,0.351,0.351,0.351,0.35,0.35,0.35,0.35,0.35,0.35,0.35,0.35,0.35,0.349,0.349,0.349,0.348,0.348,0.348,0.348,0.348,0.348,0.348,0.348,0.348,0.347,0.347,0.346,0.346,0.346,0.345,0.345,0.345,0.345,0.345,0.345,0.345,0.344,0.344,0.344,0.343,0.343,0.343,0.342,0.342,0.342,0.342,0.342,0.342,0.342,0.342,0.342,0.341,0.341,0.341,0.341,0.34,0.34,0.34,0.339,0.339,0.339,0.339,0.339,0.339,0.339,0.338,0.338,0.338,0.338,0.338,0.338,0.337,0.337,0.337,0.337,0.337,0.337,0.336,0.336,0.335,0.335,0.335,0.335,0.334,0.334,0.334,0.333,0.333,0.333,0.333,0.333,0.333,0.333,0.333,0.333,0.333,0.333,0.333,0.332,0.332,0.332,0.332,0.331,0.331,0.33,0.33,0.33,0.33,0.329,0.329,0.329,0.329,0.329,0.329,0.329,0.328,0.328,0.328,0.328,0.328,0.328,0.327,0.327,0.327,0.327,0.326,0.326,0.327,0.326,0.326,0.326,0.326,0.326,0.325,0.325,0.325,0.3245,0.0,0.0,0.0,0.324,0.324,0.324,0.324,0.324,0.323,0.323,0.323,0.323,0.323,0.323,0.322,0.322,0.321,0.321,0.321,0.321,0.321,0.321,0.321,0.321,0.321,0.321,0.321,0.32,0.32,0.32,0.319,0.318,0.318,0.318,0.318,0.318,0.318,0.318,0.318,0.318,0.318,0.318,0.317,0.317,0.316,0.316,0.316,0.316,0.316,0.316,0.316,0.316,0.316,0.315,0.316,0.315,0.315,0.315,0.0,0.0,0.0,0.0,0.314,0.313,0.313,0.313,0.313,0.313,0.313,0.313,0.312,0.312,0.312,0.312,0.312,0.312,0.312,0.312,0.312,0.312,0.312,0.312,0.311,0.311,0.311,0.311,0.311,0.31,0.31,0.31,0.31,0.309,0.309,0.308,0.308,0.308,0.308,0.308,0.308,0.307,0.307,0.307,0.307,0.307,0.0,0.0,0.0,0.0,0.0,0.0,0.0,0.0,0.0,0.0,0.0,0.0,0.0,0.0,0.0,0.0,0.0,0.0,0.0,0.0,0.0,0.0,0.0,0.0,0.0,0.0,0.0,0.0,0.0,0.0,0.0,0.0,0.0,0.0,0.0,0.0,0.0,0.0,0.0,0.0,0.0,0.0,0.0,0.0
0.407,0.407,0.406,0.406,0.406,0.406,0.406,0.405,0.405,0.405,0.404,0.403,0.403,0.402,0.402,0.402,0.402,0.402,0.402,0.402,0.402,0.402,0.4015,0.0,0.0,0.401,0.4,0.4,0.4,0.399,0.399,0.399,0.399,0.399,0.398,0.398,0.398,0.398,0.397,0.397,0.397,0.397,0.397,0.396,0.396,0.396,0.395,0.395,0.395,0.394,0.394,0.394,0.394,0.394,0.393,0.394,0.394,0.394,0.394,0.393,0.393,0.393,0.393,0.393,0.392,0.391,0.391,0.391,0.391,0.39,0.39,0.39,0.39,0.39,0.39,0.389,0.389,0.389,0.389,0.388,0.388,0.388,0.386,0.386,0.386,0.386,0.385,0.385,0.385,0.385,0.385,0.385,0.385,0.385,0.385,0.385,0.385,0.385,0.384,0.384,0.384,0.384,0.383,0.383,0.382,0.382,0.381,0.381,0.381,0.381,0.381,0.38,0.38,0.38,0.38,0.379,0.379,0.378,0.378,0.378,0.378,0.377,0.377,0.377,0.377,0.377,0.377,0.376,0.376,0.376,0.376,0.376,0.375,0.374,0.374,0.374,0.373,0.373,0.373,0.373,0.373,0.373,0.373,0.373,0.373,0.373,0.373,0.373,0.372,0.372,0.372,0.372,0.371,0.371,0.371,0.37,0.37,0.37,0.37,0.37,0.37,0.37,0.37,0.37,0.37,0.369,0.369,0.369,0.369,0.369,0.368,0.368,0.368,0.367,0.367,0.367,0.367,0.367,0.367,0.0,0.0,0.365,0.365,0.364,0.364,0.364,0.363,0.363,0.363,0.363,0.363,0.363,0.362,0.362,0.362,0.362,0.362,0.362,0.362,0.362,0.361,0.362,0.362,0.362,0.362,0.361,0.361,0.361,0.361,0.36,0.36,0.36,0.36,0.36,0.36,0.359,0.359,0.359,0.359,0.359,0.359,0.358,0.358,0.358,0.358,0.358,0.0,0.0,0.357,0.356,0.356,0.356,0.356,0.355,0.355,0.0,0.0,0.354,0.354,0.354,0.354,0.354,0.354,0.354,0.354,0.3533124999999999,0.352,0.352,0.352,0.352,0.352,0.352,0.352,0.352,0.351,0.351,0.351,0.351,0.351,0.351,0.35,0.35,0.35,0.35,0.35,0.349,0.349,0.348,0.348,0.348,0.34874999999999995,0.349,0.348,0.348,0.348,0.348,0.348,0.348,0.348,0.347,0.347,0.347,0.347,0.347,0.347,0.346,0.346,0.346,0.0,0.0,0.345,0.345,0.345,0.345,0.344,0.344,0.344,0.344,0.343,0.343,0.343,0.343,0.342,0.342,0.342,0.342,0.342,0.342,0.342,0.341,0.341,0.341,0.341,0.34,0.34,0.34,0.339,0.339,0.339,0.339,0.339,0.339,0.339,0.338,0.338,0.338,0.338,0.338,0.338,0.337,0.337,0.337,0.337,0.336,0.336,0.336,0.336,0.336,0.336,0.336,0.335,0.335,0.335,0.335,0.334,0.334,0.333,0.333,0.333,0.333,0.333,0.332,0.332,0.332,0.332,0.332,0.332,0.332,0.332,0.332,0.332,0.332,0.332,0.331,0.331,0.33,0.33,0.33,0.329,0.329,0.329,0.329,0.329,0.329,0.328,0.328,0.328,0.328,0.327,0.327,0.327,0.327,0.327,0.326,0.326,0.326,0.326,0.326,0.326,0.326,0.326,0.326,0.3255,0.325,0.324,0.324,0.324,0.323,0.323,0.323,0.0,0.0,0.0,0.323,0.323,0.323,0.323,0.323,0.323,0.323,0.322,0.322,0.321,0.321,0.321,0.321,0.321,0.32,0.32,0.32,0.32,0.32,0.32,0.32,0.32,0.32,0.319,0.319,0.318,0.318,0.318,0.318,0.317,0.317,0.317,0.317,0.318,0.317,0.317,0.317,0.317,0.316,0.316,0.316,0.315,0.315,0.315,0.315,0.315,0.315,0.315,0.315,0.315,0.315,0.315,0.315,0.315,0.314,0.0,0.0,0.0,0.313,0.313,0.312,0.312,0.312,0.312,0.312,0.312,0.312,0.312,0.312,0.312,0.312,0.312,0.311,0.311,0.311,0.311,0.31,0.31,0.31,0.31,0.31,0.31,0.31,0.31,0.31,0.309,0.309,0.309,0.309,0.308,0.308,0.307,0.307,0.307,0.307,0.307,0.307,0.307,0.307,0.306,0.306,0.0,0.0,0.0,0.0,0.0,0.0,0.0,0.0,0.0,0.0,0.0,0.0,0.0,0.0,0.0,0.0,0.0,0.0,0.0,0.0,0.0,0.0,0.0,0.0,0.0,0.0,0.0,0.0,0.0,0.0,0.0,0.0,0.0,0.0,0.0,0.0,0.0,0.0,0.0,0.0,0.0,0.0,0.0,0.0
0.406,0.406,0.405,0.405,0.405,0.404,0.404,0.403,0.403,0.402,0.402,0.402,0.402,0.401,0.401,0.401,0.401,0.402,0.402,0.402,0.402,0.401,0.401,0.0,0.0,0.399,0.398,0.398,0.398,0.398,0.398,0.398,0.398,0.398,0.397,0.397,0.397,0.397,0.396,0.396,0.395,0.394,0.394,0.394,0.394,0.394,0.394,0.394,0.394,0.393,0.393,0.393,0.393,0.393,0.392,0.392,0.392,0.391,0.393,0.392,0.392,0.391,0.391,0.39,0.39,0.39,0.39,0.389,0.389,0.389,0.389,0.389,0.389,0.389,0.389,0.389,0.388,0.388,0.386,0.386,0.386,0.385,0.385,0.385,0.385,0.385,0.385,0.385,0.384,0.384,0.384,0.383,0.383,0.383,0.383,0.383,0.383,0.382,0.382,0.382,0.382,0.382,0.382,0.381,0.381,0.381,0.381,0.38,0.38,0.38,0.379,0.378,0.378,0.378,0.378,0.377,0.377,0.377,0.377,0.377,0.377,0.377,0.377,0.376,0.376,0.376,0.376,0.375,0.375,0.374,0.374,0.373,0.373,0.373,0.373,0.373,0.373,0.373,0.373,0.373,0.373,0.372,0.372,0.372,0.372,0.372,0.371,0.371,0.371,0.371,0.37,0.37,0.37,0.37,0.37,0.369,0.369,0.369,0.369,0.369,0.369,0.369,0.369,0.369,0.369,0.369,0.368,0.368,0.368,0.367,0.367,0.367,0.366,0.366,0.366,0.366,0.366,0.365,0.0,0.0,0.0,0.363,0.363,0.363,0.362,0.363,0.362,0.362,0.362,0.362,0.362,0.362,0.362,0.361,0.361,0.361,0.361,0.36,0.36,0.36,0.359,0.359,0.359,0.359,0.359,0.36,0.36,0.36,0.36,0.359,0.359,0.359,0.359,0.359,0.359,0.358,0.358,0.358,0.358,0.358,0.357,0.357,0.356,0.356,0.356,0.356,0.355,0.355,0.355,0.355,0.355,0.355,0.355,0.355,0.354,0.354,0.354,0.353,0.352,0.3524999999999999,0.352,0.352,0.352,0.352,0.352,0.352,0.352,0.351,0.351,0.351,0.351,0.351,0.351,0.351,0.351,0.35,0.35,0.35,0.35,0.349,0.349,0.349,0.349,0.348,0.348,0.348,0.348,0.348,0.348,0.348,0.348,0.348,0.348,0.348,0.348,0.347,0.347,0.346,0.346,0.346,0.345,0.345,0.345,0.345,0.345,0.345,0.345,0.345,0.0,0.0,0.344,0.344,0.344,0.343,0.343,0.343,0.342,0.342,0.342,0.342,0.342,0.342,0.342,0.342,0.341,0.341,0.341,0.341,0.34,0.339,0.339,0.339,0.339,0.339,0.339,0.339,0.339,0.339,0.338,0.338,0.338,0.338,0.338,0.338,0.337,0.337,0.337,0.336,0.336,0.336,0.335,0.335,0.335,0.335,0.335,0.335,0.335,0.335,0.335,0.335,0.334,0.334,0.333,0.333,0.333,0.333,0.333,0.332,0.332,0.332,0.332,0.332,0.332,0.332,0.332,0.332,0.332,0.332,0.331,0.331,0.331,0.33,0.33,0.33,0.329,0.329,0.329,0.329,0.329,0.328,0.328,0.328,0.328,0.327,0.327,0.327,0.327,0.326,0.326,0.326,0.326,0.326,0.326,0.326,0.326,0.326,0.325,0.324,0.324,0.324,0.3245,0.0,0.0,0.0,0.323,0.323,0.323,0.323,0.322,0.322,0.322,0.322,0.322,0.322,0.322,0.322,0.322,0.321,0.321,0.321,0.321,0.321,0.321,0.32,0.32,0.32,0.32,0.32,0.319,0.319,0.319,0.319,0.319,0.318,0.0,0.0,0.318,0.318,0.317,0.317,0.317,0.317,0.317,0.317,0.316,0.317,0.317,0.317,0.316,0.316,0.315,0.315,0.315,0.315,0.315,0.315,0.315,0.315,0.315,0.315,0.315,0.315,0.315,0.314,0.314,0.313,0.313,0.313,0.0,0.0,0.312,0.312,0.312,0.312,0.312,0.312,0.312,0.311,0.311,0.311,0.311,0.311,0.31,0.31,0.31,0.31,0.31,0.31,0.31,0.31,0.31,0.31,0.31,0.309,0.309,0.309,0.309,0.309,0.308,0.308,0.308,0.307,0.307,0.307,0.307,0.307,0.307,0.307,0.307,0.307,0.306,0.306,0.305,0.305,0.305,0.305,0.0,0.0,0.0,0.0,0.0,0.0,0.0,0.0,0.0,0.0,0.0,0.0,0.0,0.0,0.0,0.0,0.0,0.0,0.0,0.0,0.0,0.0,0.0,0.0,0.0,0.0,0.0,0.0,0.0,0.0,0.0,0.0,0.0,0.0,0.0,0.0,0.0,0.0,0.0,0.0,0.0,0.0
0.404,0.404,0.404,0.403,0.403,0.402,0.402,0.402,0.402,0.401,0.401,0.4,0.399,0.399,0.399,0.399,0.399,0.399,0.4,0.399,0.399,0.398,0.398,0.398,0.398,0.397,0.397,0.397,0.397,0.397,0.397,0.397,0.397,0.397,0.396,0.396,0.395,0.395,0.394,0.394,0.393,0.393,0.393,0.393,0.393,0.393,0.393,0.393,0.393,0.392,0.392,0.392,0.391,0.391,0.39,0.39,0.389,0.389,0.389,0.389,0.388,0.389,0.389,0.389,0.389,0.389,0.389,0.389,0.389,0.388,0.388,0.388,0.388,0.388,0.387,0.387,0.386,0.386,0.385,0.385,0.385,0.385,0.384,0.384,0.384,0.383,0.383,0.383,0.383,0.382,0.382,0.382,0.382,0.381,0.381,0.381,0.381,0.381,0.381,0.381,0.381,0.381,0.381,0.38,0.38,0.38,0.379,0.379,0.378,0.378,0.377,0.377,0.377,0.377,0.377,0.377,0.376,0.376,0.376,0.376,0.375,0.375,0.375,0.375,0.375,0.374,0.374,0.373,0.373,0.373,0.373,0.373,0.373,0.373,0.372,0.372,0.372,0.372,0.372,0.371,0.371,0.371,0.371,0.371,0.37,0.37,0.37,0.37,0.37,0.369,0.369,0.369,0.369,0.369,0.369,0.369,0.369,0.369,0.369,0.369,0.369,0.368,0.368,0.367,0.367,0.367,0.367,0.36650000000000005,0.366,0.366,0.366,0.365,0.365,0.365,0.364,0.364,0.364,0.363,0.0,0.0,0.362,0.362,0.362,0.362,0.362,0.362,0.361,0.361,0.361,0.361,0.361,0.36,0.36,0.36,0.359,0.359,0.359,0.359,0.359,0.359,0.359,0.358,0.358,0.358,0.358,0.358,0.358,0.358,0.358,0.359,0.358,0.358,0.358,0.358,0.358,0.357,0.357,0.356,0.356,0.356,0.356,0.355,0.355,0.355,0.355,0.355,0.355,0.354,0.354,0.354,0.354,0.354,0.353,0.352,0.352,0.352,0.352,0.352,0.352,0.352,0.352,0.351,0.351,0.351,0.351,0.351,0.351,0.351,0.35,0.351,0.35,0.35,0.35,0.35,0.349,0.349,0.349,0.349,0.348,0.348,0.348,0.348,0.348,0.34724999999999995,0.347,0.347,0.347,0.347,0.347,0.346,0.347,0.346,0.346,0.346,0.346,0.345,0.345,0.345,0.345,0.345,0.345,0.345,0.345,0.345,0.345,0.344,0.344,0.344,0.3435,0.343,0.342,0.342,0.342,0.342,0.342,0.342,0.342,0.342,0.342,0.341,0.341,0.341,0.341,0.341,0.34,0.339,0.339,0.339,0.339,0.339,0.338,0.338,0.338,0.338,0.338,0.338,0.338,0.338,0.338,0.337,0.337,0.337,0.337,0.336,0.336,0.336,0.335,0.335,0.335,0.335,0.335,0.335,0.335,0.335,0.333,0.335,0.335,0.333,0.333,0.333,0.333,0.333,0.332,0.332,0.332,0.332,0.332,0.331,0.331,0.331,0.331,0.331,0.331,0.331,0.331,0.33,0.33,0.33,0.33,0.33,0.329,0.329,0.329,0.329,0.329,0.328,0.328,0.328,0.327,0.327,0.327,0.327,0.327,0.326,0.326,0.326,0.326,0.326,0.326,0.326,0.325,0.325,0.325,0.325,0.324,0.324,0.324,0.323,0.323,0.323,0.323,0.0,0.0,0.0,0.322,0.322,0.322,0.321,0.321,0.321,0.321,0.321,0.321,0.321,0.321,0.321,0.321,0.321,0.321,0.321,0.32,0.32,0.32,0.32,0.319,0.319,0.318,0.318,0.318,0.318,0.318,0.318,0.318,0.3175,0.0,0.0,0.317,0.316,0.316,0.316,0.316,0.316,0.315,0.315,0.315,0.315,0.315,0.315,0.315,0.315,0.315,0.315,0.315,0.314,0.314,0.314,0.314,0.314,0.314,0.314,0.314,0.314,0.314,0.314,0.313,0.313,0.312,0.312,0.312,0.312,0.312,0.311,0.311,0.311,0.311,0.311,0.311,0.311,0.31,0.31,0.31,0.31,0.31,0.31,0.31,0.309,0.309,0.309,0.309,0.309,0.309,0.309,0.309,0.308,0.308,0.308,0.308,0.307,0.307,0.307,0.307,0.307,0.307,0.307,0.307,0.307,0.306,0.306,0.306,0.306,0.305,0.305,0.305,0.304,0.304,0.304,0.0,0.0,0.0,0.0,0.0,0.0,0.0,0.0,0.0,0.0,0.0,0.0,0.0,0.0,0.0,0.0,0.0,0.0,0.0,0.0,0.0,0.0,0.0,0.0,0.0,0.0,0.0,0.0,0.0,0.0,0.0,0.0,0.0,0.0,0.0,0.0,0.0,0.0,0.0,0.0,0.0,0.0
0.402,0.402,0.402,0.402,0.402,0.401,0.401,0.4,0.399,0.399,0.399,0.398,0.398,0.398,0.398,0.398,0.398,0.0,0.0,0.0,0.0,0.397,0.397,0.397,0.396,0.396,0.395,0.395,0.395,0.394,0.394,0.394,0.394,0.394,0.394,0.393,0.393,0.393,0.393,0.393,0.393,0.392,0.392,0.392,0.391,0.392,0.391,0.391,0.391,0.391,0.39,0.39,0.389,0.389,0.389,0.389,0.389,0.388,0.387,0.387,0.386,0.386,0.386,0.386,0.385,0.387,0.387,0.387,0.387,0.386,0.386,0.386,0.386,0.385,0.385,0.385,0.385,0.385,0.385,0.384,0.384,0.383,0.383,0.382,0.382,0.382,0.381,0.381,0.381,0.381,0.381,0.381,0.381,0.381,0.381,0.381,0.38,0.38,0.38,0.38,0.38,0.379,0.379,0.379,0.378,0.377,0.377,0.377,0.377,0.377,0.377,0.377,0.376,0.376,0.376,0.376,0.375,0.375,0.374,0.374,0.374,0.373,0.373,0.373,0.373,0.373,0.373,0.373,0.373,0.372,0.372,0.372,0.372,0.371,0.371,0.371,0.371,0.37,0.37,0.37,0.37,0.37,0.37,0.369,0.369,0.369,0.369,0.369,0.369,0.369,0.369,0.368,0.368,0.368,0.368,0.368,0.368,0.367,0.367,0.367,0.367,0.367,0.366,0.366,0.366,0.366,0.366,0.365,0.365,0.365,0.364,0.364,0.364,0.363,0.363,0.362,0.362,0.362,0.362,0.362,0.361,0.361,0.361,0.361,0.36,0.36,0.36,0.359,0.359,0.359,0.359,0.359,0.359,0.359,0.359,0.358,0.358,0.358,0.358,0.358,0.358,0.358,0.358,0.358,0.357,0.357,0.357,0.357,0.357,0.356,0.356,0.355,0.356,0.356,0.356,0.3555,0.355,0.355,0.355,0.355,0.355,0.355,0.355,0.354,0.354,0.354,0.353,0.353,0.352,0.352,0.352,0.352,0.352,0.352,0.351,0.351,0.351,0.351,0.351,0.351,0.351,0.351,0.351,0.351,0.35,0.35,0.35,0.35,0.349,0.349,0.349,0.349,0.348,0.348,0.348,0.348,0.348,0.348,0.348,0.347,0.347,0.347,0.346,0.346,0.346,0.346,0.345,0.345,0.345,0.345,0.345,0.345,0.345,0.0,0.34450000000000003,0.344125,0.344,0.344,0.344,0.344,0.343,0.34375,0.344,0.344,0.343,0.343,0.342,0.342,0.342,0.342,0.342,0.341,0.341,0.341,0.341,0.341,0.341,0.34,0.341,0.34,0.34,0.34,0.34,0.3395,0.339,0.338,0.338,0.338,0.338,0.338,0.338,0.337,0.337,0.337,0.337,0.337,0.337,0.336,0.336,0.336,0.336,0.336,0.336,0.335,0.335,0.335,0.335,0.334,0.334,0.334,0.333,0.332,0.332,0.332,0.0,0.0,0.0,0.332,0.332,0.332,0.332,0.332,0.332,0.332,0.331,0.331,0.331,0.33,0.33,0.33,0.33,0.33,0.33,0.329,0.329,0.329,0.329,0.329,0.329,0.329,0.328,0.3275,0.327,0.327,0.3275,0.32675,0.326,0.326,0.326,0.326,0.326,0.326,0.0,0.0,0.3245,0.325,0.324,0.324,0.324,0.324,0.324,0.324,0.324,0.324,0.323,0.323,0.323,0.323,0.322,0.322,0.322,0.322,0.321,0.321,0.321,0.321,0.321,0.32,0.321,0.32,0.32,0.32,0.32,0.32,0.32,0.32,0.32,0.32,0.32,0.32,0.319,0.319,0.319,0.319,0.318,0.318,0.318,0.318,0.318,0.318,0.318,0.317,0.317,0.317,0.316,0.316,0.315,0.315,0.315,0.315,0.315,0.315,0.315,0.315,0.315,0.315,0.315,0.315,0.315,0.314,0.314,0.314,0.314,0.313,0.313,0.313,0.313,0.313,0.313,0.313,0.313,0.313,0.313,0.312,0.312,0.312,0.312,0.312,0.312,0.312,0.311,0.311,0.311,0.31,0.31,0.31,0.31,0.31,0.31,0.31,0.31,0.309,0.309,0.309,0.309,0.309,0.309,0.308,0.308,0.308,0.308,0.307,0.307,0.307,0.307,0.307,0.307,0.307,0.307,0.307,0.307,0.307,0.306,0.306,0.306,0.306,0.305,0.305,0.305,0.305,0.304,0.304,0.304,0.304,0.304,0.304,0.0,0.0,0.0,0.0,0.0,0.0,0.0,0.0,0.0,0.0,0.0,0.0,0.0,0.0,0.0,0.0,0.0,0.0,0.0,0.0,0.0,0.0,0.0,0.0,0.0,0.0,0.0,0.0,0.0,0.0,0.0,0.0,0.0,0.0,0.0,0.0,0.0,0.0,0.0,0.0,0.0,0.0
0.401,0.401,0.401,0.4,0.4,0.399,0.399,0.398,0.398,0.398,0.398,0.397,0.397,0.397,0.397,0.397,0.0,0.0,0.0,0.0,0.0,0.0,0.0,0.394,0.394,0.394,0.393,0.394,0.393,0.393,0.393,0.393,0.393,0.393,0.393,0.393,0.392,0.392,0.392,0.391,0.391,0.39,0.39,0.39,0.39,0.39,0.39,0.39,0.389,0.389,0.389,0.389,0.388,0.388,0.388,0.387,0.386,0.386,0.385,0.385,0.385,0.385,0.385,0.385,0.384,0.384,0.384,0.385,0.385,0.385,0.385,0.385,0.385,0.385,0.384,0.384,0.384,0.3835,0.383,0.382,0.382,0.381,0.381,0.381,0.381,0.381,0.381,0.38,0.38,0.38,0.38,0.38,0.38,0.38,0.379,0.379,0.379,0.378,0.378,0.378,0.378,0.378,0.378,0.377,0.377,0.377,0.377,0.376,0.376,0.376,0.375,0.375,0.375,0.375,0.374,0.374,0.374,0.374,0.373,0.373,0.373,0.373,0.373,0.372,0.372,0.372,0.372,0.371,0.371,0.371,0.371,0.37,0.37,0.37,0.37,0.37,0.37,0.369,0.369,0.369,0.369,0.369,0.369,0.369,0.369,0.369,0.369,0.368,0.368,0.367,0.367,0.367,0.366,0.366,0.366,0.366,0.366,0.366,0.366,0.366,0.366,0.366,0.365,0.365,0.365,0.365,0.364,0.364,0.364,0.363,0.363,0.363,0.362,0.362,0.362,0.362,0.361,0.36,0.36,0.359,0.359,0.359,0.359,0.359,0.359,0.359,0.359,0.359,0.358,0.358,0.358,0.358,0.358,0.358,0.358,0.357,0.357,0.357,0.357,0.356,0.356,0.356,0.356,0.356,0.356,0.355,0.355,0.355,0.355,0.355,0.355,0.355,0.355,0.354,0.354,0.354,0.353,0.354,0.354,0.354,0.354,0.353,0.353,0.353,0.353,0.352,0.352,0.352,0.352,0.352,0.352,0.351,0.351,0.351,0.351,0.351,0.351,0.351,0.35,0.35,0.35,0.35,0.35,0.35,0.349,0.349,0.349,0.349,0.348,0.348,0.348,0.348,0.348,0.347,0.347,0.347,0.347,0.346,0.346,0.346,0.346,0.345,0.345,0.345,0.345,0.345,0.345,0.345,0.345,0.344,0.344,0.344,0.343,0.343,0.343,0.343,0.343,0.342,0.342,0.342,0.342,0.343,0.342,0.342,0.342,0.342,0.342,0.341,0.341,0.341,0.34,0.34,0.34,0.34,0.34,0.339,0.339,0.339,0.339,0.339,0.339,0.339,0.0,0.0,0.3375,0.338,0.337,0.337,0.337,0.337,0.3365,0.33612500000000006,0.336,0.336,0.336,0.336,0.336,0.335,0.335,0.335,0.335,0.335,0.335,0.335,0.334,0.334,0.332,0.332,0.332,0.332,0.332,0.332,0.332,0.331,0.0,0.0,0.0,0.331,0.331,0.331,0.331,0.331,0.331,0.33,0.33,0.33,0.33,0.329,0.329,0.329,0.329,0.329,0.329,0.0,0.0,0.328,0.328,0.328,0.327,0.327,0.327,0.326,0.326,0.326,0.326,0.3256875,0.326,0.326,0.325,0.325,0.325,0.324,0.0,0.0,0.323,0.323,0.323,0.323,0.323,0.323,0.323,0.323,0.323,0.323,0.323,0.323,0.322,0.322,0.321,0.321,0.321,0.321,0.32,0.32,0.32,0.32,0.32,0.32,0.32,0.32,0.32,0.32,0.319,0.319,0.319,0.319,0.319,0.319,0.318,0.3185,0.318,0.318,0.318,0.318,0.318,0.317,0.317,0.317,0.317,0.317,0.317,0.316,0.316,0.3155,0.315,0.315,0.315,0.315,0.315,0.315,0.315,0.315,0.314,0.314,0.314,0.314,0.314,0.314,0.314,0.313,0.313,0.313,0.313,0.313,0.312,0.312,0.312,0.312,0.312,0.312,0.312,0.312,0.312,0.312,0.312,0.312,0.312,0.311,0.311,0.311,0.311,0.31,0.31,0.31,0.31,0.309,0.309,0.309,0.309,0.309,0.309,0.309,0.308,0.308,0.308,0.308,0.307,0.307,0.307,0.307,0.307,0.307,0.307,0.307,0.307,0.306,0.306,0.306,0.306,0.306,0.306,0.306,0.305,0.305,0.305,0.305,0.304,0.304,0.304,0.304,0.304,0.304,0.303,0.303,0.303,0.303,0.303,0.0,0.0,0.0,0.0,0.0,0.0,0.0,0.0,0.0,0.0,0.0,0.0,0.0,0.0,0.0,0.0,0.0,0.0,0.0,0.0,0.0,0.0,0.0,0.0,0.0,0.0,0.0,0.0,0.0,0.0,0.0,0.0,0.0,0.0,0.0,0.0,0.0,0.0,0.0,0.0,0.0
0.399,0.399,0.399,0.398,0.398,0.398,0.398,0.397,0.397,0.397,0.397,0.396,0.396,0.396,0.396,0.3955,0.0,0.0,0.0,0.0,0.0,0.0,0.0,0.393,0.393,0.393,0.392,0.392,0.392,0.392,0.392,0.392,0.392,0.391,0.391,0.391,0.391,0.39,0.39,0.39,0.389,0.389,0.389,0.389,0.389,0.389,0.389,0.389,0.388,0.388,0.388,0.388,0.387,0.386,0.386,0.386,0.385,0.385,0.385,0.384,0.384,0.383,0.383,0.383,0.383,0.383,0.383,0.383,0.382,0.382,0.384,0.384,0.383,0.383,0.3825,0.3825,0.3825,0.382,0.381,0.381,0.381,0.381,0.381,0.38,0.38,0.38,0.379,0.379,0.379,0.379,0.378,0.378,0.378,0.378,0.378,0.377,0.377,0.377,0.377,0.377,0.377,0.377,0.376,0.376,0.376,0.375,0.375,0.374,0.374,0.374,0.374,0.374,0.373,0.3735,0.373,0.373,0.373,0.373,0.372,0.372,0.372,0.371,0.371,0.371,0.371,0.37,0.37,0.37,0.37,0.37,0.369,0.369,0.369,0.369,0.369,0.369,0.369,0.369,0.368,0.368,0.368,0.368,0.368,0.367,0.367,0.367,0.367,0.366,0.366,0.366,0.366,0.366,0.366,0.365,0.365,0.365,0.365,0.365,0.365,0.364,0.364,0.364,0.364,0.363,0.363,0.363,0.363,0.362,0.362,0.362,0.362,0.362,0.362,0.361,0.36,0.36,0.359,0.359,0.359,0.359,0.359,0.359,0.358,0.358,0.358,0.358,0.358,0.358,0.358,0.357,0.357,0.357,0.357,0.357,0.356,0.356,0.356,0.355,0.355,0.355,0.355,0.355,0.355,0.355,0.355,0.355,0.355,0.355,0.355,0.354,0.354,0.353,0.353,0.353,0.353,0.352,0.352,0.352,0.352,0.351,0.351,0.352,0.352,0.352,0.352,0.351,0.351,0.351,0.351,0.351,0.351,0.35,0.35,0.35,0.35,0.35,0.35,0.35,0.349,0.349,0.349,0.349,0.349,0.349,0.349,0.348,0.348,0.348,0.348,0.347,0.347,0.347,0.346,0.346,0.346,0.345,0.345,0.345,0.345,0.345,0.345,0.345,0.345,0.344,0.344,0.344,0.344,0.344,0.343,0.343,0.342,0.342,0.342,0.342,0.342,0.342,0.342,0.342,0.342,0.342,0.342,0.342,0.342,0.341,0.0,0.0,0.0,0.34,0.34,0.339,0.339,0.339,0.339,0.338,0.33825000000000005,0.338,0.338,0.338,0.338,0.338,0.3375,0.3375,0.0,0.0,0.336,0.336,0.336,0.336,0.336,0.336,0.335,0.335,0.335,0.335,0.335,0.335,0.335,0.335,0.335,0.334,0.334,0.333,0.332,0.332,0.332,0.332,0.332,0.331,0.331,0.331,0.33,0.33,0.33,0.33,0.0,0.0,0.0,0.329,0.33,0.33,0.33,0.33,0.329,0.329,0.329,0.329,0.329,0.329,0.328,0.328,0.328,0.328,0.327,0.0,0.0,0.327,0.327,0.326,0.326,0.326,0.326,0.326,0.325,0.325,0.324,0.324,0.324,0.324,0.324,0.324,0.323,0.323,0.323,0.323,0.323,0.322,0.322,0.322,0.322,0.322,0.322,0.322,0.322,0.322,0.322,0.321,0.321,0.321,0.32,0.32,0.32,0.32,0.319,0.319,0.319,0.319,0.319,0.319,0.319,0.319,0.318,0.318,0.318,0.318,0.318,0.318,0.318,0.318,0.318,0.318,0.317,0.317,0.317,0.317,0.317,0.316,0.316,0.316,0.316,0.316,0.315,0.315,0.315,0.314,0.314,0.314,0.314,0.313,0.314,0.314,0.314,0.313,0.313,0.313,0.313,0.313,0.313,0.313,0.313,0.313,0.312,0.312,0.312,0.312,0.312,0.312,0.312,0.312,0.312,0.311,0.311,0.311,0.311,0.311,0.311,0.311,0.311,0.31,0.31,0.31,0.31,0.31,0.309,0.309,0.309,0.309,0.308,0.308,0.308,0.308,0.308,0.308,0.307,0.307,0.307,0.307,0.307,0.307,0.307,0.307,0.307,0.306,0.306,0.306,0.306,0.306,0.305,0.305,0.305,0.305,0.305,0.305,0.305,0.304,0.304,0.304,0.304,0.303,0.303,0.303,0.303,0.303,0.303,0.302,0.302,0.302,0.302,0.0,0.0,0.0,0.0,0.0,0.0,0.0,0.0,0.0,0.0,0.0,0.0,0.0,0.0,0.0,0.0,0.0,0.0,0.0,0.0,0.0,0.0,0.0,0.0,0.0,0.0,0.0,0.0,0.0,0.0,0.0,0.0,0.0,0.0,0.0,0.0,0.0,0.0,0.0,0.0,0.0
0.398,0.398,0.398,0.398,0.397,0.397,0.396,0.395,0.395,0.395,0.394,0.394,0.394,0.394,0.394,0.394,0.393,0.393,0.0,0.0,0.0,0.0,0.0,0.392,0.392,0.391,0.391,0.391,0.391,0.39,0.39,0.39,0.39,0.39,0.39,0.0,0.0,0.389,0.389,0.389,0.389,0.388,0.388,0.388,0.388,0.387,0.387,0.386,0.386,0.386,0.386,0.386,0.386,0.385,0.385,0.385,0.385,0.383,0.383,0.382,0.382,0.382,0.382,0.381,0.381,0.381,0.381,0.381,0.381,0.381,0.381,0.381,0.381,0.38,0.381,0.381,0.381,0.381,0.381,0.38,0.38,0.38,0.379,0.379,0.378,0.378,0.378,0.377,0.377,0.377,0.377,0.377,0.377,0.377,0.377,0.377,0.377,0.376,0.376,0.376,0.375,0.375,0.374,0.374,0.374,0.373,0.373,0.373,0.373,0.373,0.373,0.373,0.373,0.373,0.372,0.372,0.372,0.371,0.371,0.371,0.37,0.37,0.37,0.37,0.369,0.369,0.369,0.369,0.369,0.369,0.369,0.369,0.369,0.368,0.368,0.368,0.367,0.367,0.366,0.366,0.366,0.366,0.366,0.366,0.366,0.366,0.366,0.366,0.366,0.365,0.365,0.364,0.364,0.364,0.363,0.363,0.3635,0.0,0.0,0.363,0.362,0.362,0.362,0.362,0.362,0.362,0.362,0.362,0.362,0.361,0.361,0.361,0.361,0.359,0.359,0.358,0.358,0.358,0.358,0.358,0.358,0.358,0.358,0.358,0.357,0.357,0.357,0.356,0.356,0.355,0.355,0.355,0.355,0.355,0.355,0.355,0.355,0.355,0.355,0.354,0.354,0.354,0.354,0.354,0.354,0.354,0.353,0.353,0.353,0.353,0.352,0.352,0.352,0.352,0.352,0.351,0.351,0.351,0.351,0.351,0.351,0.35,0.35,0.349,0.349,0.349,0.35,0.35,0.349,0.349,0.349,0.349,0.349,0.349,0.349,0.348,0.348,0.348,0.348,0.348,0.348,0.348,0.348,0.348,0.348,0.347,0.347,0.347,0.346,0.346,0.346,0.345,0.345,0.345,0.345,0.345,0.345,0.345,0.345,0.344,0.344,0.344,0.344,0.343,0.343,0.342,0.342,0.342,0.342,0.342,0.341,0.341,0.341,0.341,0.341,0.341,0.341,0.34,0.34,0.34,0.341,0.34,0.34,0.0,0.0,0.0,0.0,0.339,0.338,0.338,0.338,0.338,0.338,0.338,0.337,0.337,0.337,0.337,0.336,0.336,0.336,0.336,0.3355,0.335,0.335,0.335,0.335,0.335,0.335,0.335,0.335,0.335,0.334,0.334,0.334,0.334,0.333,0.333,0.332,0.332,0.332,0.332,0.332,0.332,0.331,0.33,0.33,0.33,0.33,0.329,0.329,0.329,0.329,0.329,0.329,0.329,0.328,0.328,0.328,0.329,0.329,0.329,0.329,0.328,0.328,0.328,0.327,0.327,0.327,0.327,0.326,0.326,0.326,0.326,0.326,0.326,0.326,0.325,0.325,0.324,0.324,0.324,0.324,0.323,0.323,0.323,0.323,0.323,0.323,0.323,0.323,0.323,0.322,0.322,0.321,0.321,0.321,0.321,0.321,0.321,0.321,0.321,0.321,0.321,0.321,0.32,0.32,0.32,0.32,0.319,0.319,0.319,0.318,0.318,0.318,0.318,0.318,0.318,0.318,0.318,0.318,0.318,0.317,0.317,0.317,0.317,0.317,0.317,0.317,0.316,0.316,0.316,0.316,0.316,0.315,0.315,0.315,0.315,0.315,0.315,0.315,0.314,0.314,0.313,0.313,0.313,0.313,0.313,0.313,0.313,0.313,0.313,0.312,0.312,0.312,0.312,0.312,0.312,0.312,0.312,0.312,0.311,0.311,0.311,0.311,0.31,0.31,0.31,0.31,0.31,0.31,0.31,0.31,0.31,0.31,0.31,0.31,0.31,0.309,0.309,0.309,0.309,0.0,0.0,0.0,0.308,0.307,0.307,0.307,0.307,0.307,0.307,0.307,0.307,0.307,0.307,0.306,0.306,0.306,0.306,0.306,0.305,0.305,0.305,0.305,0.305,0.305,0.304,0.304,0.304,0.304,0.304,0.304,0.303,0.303,0.302,0.302,0.302,0.302,0.302,0.302,0.302,0.302,0.302,0.302,0.0,0.0,0.0,0.0,0.0,0.0,0.0,0.0,0.0,0.0,0.0,0.0,0.0,0.0,0.0,0.0,0.0,0.0,0.0,0.0,0.0,0.0,0.0,0.0,0.0,0.0,0.0,0.0,0.0,0.0,0.0,0.0,0.0,0.0,0.0,0.0,0.0,0.0,0.0,0.0,0.0,0.0,0.0
0.397,0.397,0.396,0.396,0.395,0.394,0.394,0.394,0.394,0.394,0.393,0.393,0.393,0.393,0.393,0.392,0.392,0.391,0.391,0.39,0.39,0.39,0.39,0.39,0.39,0.39,0.39,0.389,0.389,0.389,0.389,0.389,0.389,0.389,0.389,0.0,0.0,0.388,0.387,0.386,0.386,0.386,0.386,0.385,0.386,0.385,0.385,0.385,0.385,0.385,0.385,0.385,0.385,0.384,0.384,0.384,0.382,0.382,0.381,0.381,0.381,0.381,0.381,0.381,0.381,0.381,0.381,0.381,0.381,0.38,0.38,0.38,0.378,0.378,0.378,0.378,0.379,0.379,0.379,0.379,0.378,0.378,0.378,0.377,0.377,0.377,0.377,0.377,0.377,0.377,0.376,0.376,0.376,0.376,0.376,0.375,0.375,0.374,0.374,0.374,0.373,0.373,0.373,0.373,0.373,0.373,0.373,0.372,0.372,0.371,0.371,0.371,0.371,0.37,0.37,0.37,0.37,0.37,0.37,0.37,0.369,0.369,0.369,0.369,0.369,0.369,0.368,0.368,0.368,0.367,0.367,0.367,0.367,0.366,0.366,0.366,0.366,0.366,0.366,0.365,0.365,0.365,0.365,0.365,0.365,0.365,0.365,0.365,0.364,0.364,0.363,0.363,0.363,0.362,0.362,0.362,0.362,0.0,0.0,0.362,0.362,0.362,0.362,0.361,0.362,0.362,0.361,0.361,0.361,0.36,0.359,0.359,0.359,0.358,0.358,0.358,0.358,0.358,0.357,0.357,0.357,0.357,0.356,0.356,0.356,0.356,0.355,0.355,0.355,0.355,0.355,0.355,0.355,0.354,0.354,0.354,0.354,0.354,0.353,0.353,0.353,0.353,0.352,0.352,0.352,0.352,0.352,0.352,0.352,0.351,0.351,0.351,0.351,0.351,0.351,0.351,0.35,0.35,0.35,0.349,0.349,0.349,0.349,0.348,0.348,0.348,0.348,0.348,0.348,0.348,0.348,0.348,0.348,0.348,0.348,0.348,0.348,0.348,0.348,0.348,0.348,0.347,0.347,0.347,0.346,0.346,0.345,0.345,0.345,0.345,0.345,0.345,0.345,0.345,0.344,0.344,0.344,0.343,0.343,0.343,0.342,0.342,0.342,0.342,0.342,0.342,0.342,0.342,0.341,0.341,0.341,0.34,0.34,0.34,0.34,0.339,0.339,0.0,0.0,0.339,0.339,0.339,0.339,0.0,0.0,0.0,0.0,0.338,0.337,0.337,0.337,0.337,0.336,0.336,0.336,0.336,0.336,0.336,0.335,0.335,0.335,0.335,0.335,0.335,0.335,0.334,0.33425,0.335,0.335,0.335,0.334,0.333,0.333,0.332,0.332,0.332,0.332,0.332,0.332,0.331,0.331,0.33,0.33,0.33,0.33,0.329,0.329,0.329,0.329,0.329,0.328,0.328,0.328,0.328,0.327,0.327,0.327,0.327,0.327,0.327,0.327,0.327,0.327,0.327,0.326,0.326,0.326,0.326,0.326,0.326,0.326,0.325,0.325,0.325,0.324,0.324,0.324,0.324,0.324,0.323,0.323,0.323,0.323,0.323,0.323,0.323,0.323,0.322,0.322,0.322,0.322,0.321,0.321,0.321,0.321,0.321,0.321,0.321,0.321,0.32,0.32,0.32,0.32,0.32,0.32,0.319,0.319,0.319,0.319,0.318,0.318,0.318,0.318,0.318,0.318,0.318,0.318,0.317,0.317,0.317,0.317,0.317,0.316,0.316,0.316,0.316,0.316,0.315,0.315,0.315,0.315,0.315,0.315,0.315,0.315,0.315,0.315,0.315,0.314,0.314,0.3135,0.313,0.313,0.313,0.313,0.312,0.312,0.312,0.312,0.312,0.312,0.312,0.312,0.312,0.312,0.311,0.311,0.311,0.311,0.311,0.311,0.31,0.31,0.31,0.31,0.31,0.31,0.31,0.309,0.309,0.309,0.309,0.309,0.309,0.309,0.309,0.309,0.309,0.308,0.308,0.30774999999999997,0.307,0.0,0.0,0.0,0.307,0.307,0.307,0.307,0.307,0.307,0.307,0.307,0.306,0.306,0.306,0.306,0.305,0.305,0.305,0.305,0.305,0.304,0.304,0.304,0.304,0.304,0.304,0.304,0.303,0.303,0.303,0.302,0.302,0.302,0.302,0.302,0.302,0.302,0.302,0.301,0.301,0.302,0.302,0.302,0.0,0.0,0.0,0.0,0.0,0.0,0.0,0.0,0.0,0.0,0.0,0.0,0.0,0.0,0.0,0.0,0.0,0.0,0.0,0.0,0.0,0.0,0.0,0.0,0.0,0.0,0.0,0.0,0.0,0.0,0.0,0.0,0.0,0.0,0.0,0.0,0.0,0.0,0.0,0.0,0.0,0.0,0.0
0.395,0.394,0.394,0.394,0.393,0.393,0.393,0.393,0.393,0.393,0.393,0.392,0.392,0.392,0.391,0.39,0.39,0.389,0.389,0.389,0.389,0.389,0.389,0.389,0.389,0.389,0.389,0.389,0.388,0.388,0.388,0.388,0.387,0.386,0.386,0.386,0.385,0.385,0.385,0.385,0.385,0.385,0.385,0.385,0.385,0.384,0.384,0.384,0.384,0.384,0.384,0.384,0.382,0.382,0.382,0.381,0.381,0.381,0.381,0.38,0.38,0.38,0.38,0.38,0.38,0.38,0.38,0.38,0.379,0.378,0.378,0.378,0.377,0.377,0.377,0.377,0.377,0.377,0.377,0.377,0.377,0.377,0.377,0.377,0.377,0.376,0.376,0.376,0.376,0.375,0.375,0.375,0.374,0.374,0.374,0.373,0.373,0.373,0.373,0.373,0.373,0.372,0.372,0.372,0.371,0.371,0.37,0.37,0.37,0.37,0.37,0.369,0.369,0.369,0.369,0.369,0.369,0.369,0.369,0.369,0.369,0.368,0.368,0.367,0.367,0.367,0.366,0.366,0.366,0.366,0.366,0.366,0.366,0.366,0.366,0.366,0.365,0.365,0.365,0.364,0.364,0.364,0.364,0.364,0.364,0.364,0.363,0.363,0.363,0.363,0.362,0.362,0.362,0.362,0.362,0.361,0.361,0.361,0.36,0.36,0.36,0.36,0.36,0.36,0.36,0.36,0.359,0.359,0.359,0.359,0.358,0.358,0.358,0.358,0.357,0.356,0.356,0.356,0.356,0.355,0.355,0.355,0.355,0.355,0.355,0.355,0.355,0.354,0.354,0.354,0.354,0.354,0.354,0.353,0.353,0.353,0.352,0.352,0.352,0.352,0.352,0.352,0.351,0.351,0.351,0.351,0.351,0.351,0.351,0.351,0.35,0.35,0.35,0.35,0.35,0.35,0.349,0.349,0.349,0.349,0.348,0.348,0.348,0.348,0.348,0.347,0.347,0.347,0.347,0.347,0.346,0.346,0.346,0.346,0.346,0.346,0.346,0.345,0.347,0.346,0.346,0.346,0.345,0.345,0.345,0.345,0.345,0.345,0.344,0.344,0.344,0.344,0.344,0.343,0.343,0.342,0.342,0.342,0.342,0.342,0.342,0.341,0.341,0.341,0.341,0.341,0.341,0.341,0.34,0.34,0.339,0.339,0.339,0.339,0.338,0.0,0.0,0.0,0.0,0.338,0.338,0.337,0.337,0.0,0.0,0.0,0.0,0.336,0.336,0.336,0.336,0.336,0.335,0.335,0.335,0.335,0.335,0.335,0.335,0.335,0.334,0.334,0.334,0.334,0.333,0.333,0.333,0.333,0.332,0.332,0.332,0.332,0.332,0.332,0.331,0.331,0.331,0.331,0.33,0.33,0.33,0.329,0.329,0.329,0.329,0.329,0.328,0.328,0.328,0.328,0.327,0.327,0.327,0.327,0.326,0.326,0.326,0.326,0.326,0.326,0.326,0.326,0.326,0.326,0.326,0.326,0.326,0.325,0.325,0.325,0.324,0.324,0.324,0.324,0.323,0.323,0.323,0.323,0.323,0.323,0.322,0.322,0.322,0.322,0.322,0.321,0.321,0.321,0.321,0.321,0.321,0.321,0.321,0.32,0.32,0.32,0.32,0.32,0.32,0.32,0.32,0.319,0.319,0.319,0.319,0.318,0.318,0.318,0.318,0.318,0.317,0.317,0.317,0.317,0.317,0.317,0.316,0.316,0.316,0.316,0.315,0.315,0.315,0.315,0.315,0.315,0.315,0.315,0.315,0.315,0.315,0.315,0.315,0.315,0.314,0.314,0.314,0.313,0.313,0.313,0.312625,0.312,0.312,0.312,0.312,0.312,0.312,0.312,0.312,0.311,0.311,0.311,0.311,0.311,0.311,0.31,0.31,0.31,0.31,0.31,0.31,0.31,0.309,0.309,0.309,0.309,0.309,0.308,0.308,0.308,0.308,0.308,0.308,0.308,0.308,0.308,0.0,0.0,0.0,0.307,0.307,0.307,0.307,0.306,0.306,0.306,0.306,0.306,0.306,0.306,0.306,0.306,0.306,0.305,0.305,0.305,0.305,0.305,0.304,0.304,0.304,0.304,0.304,0.304,0.303,0.303,0.303,0.303,0.302,0.302,0.302,0.302,0.302,0.301,0.301,0.3,0.3,0.3,0.3,0.3,0.3,0.3005,0.301,0.301,0.301,0.301,0.0,0.0,0.0,0.0,0.0,0.0,0.0,0.0,0.0,0.0,0.0,0.0,0.0,0.0,0.0,0.0,0.0,0.0,0.0,0.0,0.0,0.0,0.0,0.0,0.0,0.0,0.0,0.0,0.0,0.0,0.0,0.0,0.0,0.0,0.0,0.0,0.0,0.0,0.0,0.0,0.0,0.0
0.393,0.393,0.393,0.393,0.393,0.392,0.392,0.392,0.392,0.391,0.391,0.39,0.39,0.39,0.389,0.389,0.389,0.389,0.388,0.388,0.388,0.388,0.387,0.387,0.387,0.387,0.387,0.387,0.387,0.386,0.386,0.385,0.385,0.385,0.385,0.385,0.385,0.384,0.384,0.384,0.384,0.384,0.383,0.383,0.383,0.383,0.382,0.382,0.382,0.382,0.382,0.381,0.0,0.0,0.0,0.0,0.38,0.379,0.379,0.378,0.378,0.378,0.378,0.378,0.378,0.378,0.378,0.378,0.377,0.377,0.377,0.377,0.377,0.377,0.376,0.376,0.376,0.375,0.375,0.375,0.374,0.374,0.376,0.376,0.375,0.374,0.374,0.374,0.374,0.374,0.373,0.373,0.373,0.373,0.373,0.373,0.372,0.372,0.372,0.371,0.37,0.37,0.37,0.37,0.37,0.37,0.369,0.369,0.369,0.369,0.369,0.369,0.369,0.368,0.368,0.368,0.368,0.368,0.368,0.367,0.366,0.366,0.366,0.366,0.366,0.366,0.366,0.366,0.365,0.365,0.365,0.365,0.365,0.365,0.365,0.364,0.364,0.364,0.364,0.363,0.362,0.362,0.362,0.362,0.362,0.362,0.362,0.362,0.362,0.362,0.362,0.361,0.361,0.361,0.36,0.359,0.359,0.359,0.359,0.359,0.359,0.359,0.359,0.359,0.359,0.359,0.358,0.358,0.0,0.0,0.357,0.357,0.356,0.356,0.355,0.355,0.355,0.355,0.355,0.355,0.355,0.354,0.354,0.354,0.354,0.354,0.353,0.353,0.352,0.352,0.352,0.352,0.352,0.352,0.352,0.352,0.351,0.351,0.351,0.351,0.351,0.351,0.35,0.35,0.35,0.35,0.35,0.35,0.349,0.349,0.349,0.349,0.349,0.348,0.348,0.348,0.348,0.348,0.348,0.348,0.348,0.348,0.347,0.346,0.346,0.346,0.345,0.345,0.345,0.345,0.345,0.345,0.345,0.345,0.345,0.345,0.345,0.345,0.345,0.344,0.344,0.344,0.343,0.343,0.342,0.344,0.343,0.343,0.343,0.343,0.343,0.342,0.342,0.342,0.342,0.341,0.341,0.341,0.341,0.341,0.341,0.341,0.34,0.34,0.34,0.34,0.34,0.339,0.339,0.339,0.338,0.338,0.338,0.338,0.337,0.0,0.0,0.0,0.336,0.336,0.336,0.336,0.335,0.0,0.0,0.0,0.335,0.335,0.335,0.335,0.335,0.335,0.335,0.335,0.335,0.335,0.333,0.333,0.333,0.333,0.332,0.332,0.332,0.332,0.332,0.332,0.332,0.332,0.332,0.332,0.331,0.331,0.331,0.33,0.33,0.329,0.329,0.329,0.329,0.329,0.329,0.329,0.328,0.328,0.328,0.328,0.327,0.327,0.327,0.327,0.326,0.326,0.326,0.326,0.326,0.326,0.326,0.326,0.326,0.325,0.325,0.325,0.32475000000000004,0.324,0.324,0.324,0.324,0.324,0.324,0.324,0.323,0.323,0.323,0.323,0.323,0.322,0.322,0.322,0.322,0.322,0.321,0.321,0.321,0.321,0.321,0.321,0.321,0.321,0.321,0.32,0.32,0.32,0.32,0.32,0.319,0.319,0.319,0.319,0.319,0.318,0.318,0.318,0.318,0.318,0.318,0.318,0.317,0.317,0.317,0.316,0.316,0.316,0.316,0.316,0.316,0.315,0.315,0.315,0.315,0.315,0.315,0.315,0.315,0.314,0.314,0.314,0.314,0.314,0.314,0.314,0.314,0.314,0.313,0.313,0.313,0.313,0.313,0.312,0.312,0.312,0.312,0.311,0.311,0.311,0.311,0.311,0.31,0.0,0.0,0.0,0.31,0.31,0.31,0.31,0.31,0.31,0.31,0.31,0.31,0.309,0.309,0.309,0.309,0.309,0.308,0.308,0.308,0.307,0.307,0.307,0.307,0.307,0.307,0.307,0.307,0.307,0.0,0.0,0.0,0.306,0.305,0.305,0.305,0.305,0.305,0.305,0.305,0.305,0.305,0.305,0.305,0.305,0.305,0.304,0.304,0.304,0.304,0.304,0.304,0.303,0.303,0.303,0.303,0.30275,0.302,0.302,0.302,0.302,0.302,0.302,0.302,0.301,0.301,0.3,0.3,0.3,0.3,0.3,0.299,0.3,0.3,0.3,0.3,0.3,0.3,0.3,0.0,0.0,0.0,0.0,0.0,0.0,0.0,0.0,0.0,0.0,0.0,0.0,0.0,0.0,0.0,0.0,0.0,0.0,0.0,0.0,0.0,0.0,0.0,0.0,0.0,0.0,0.0,0.0,0.0,0.0,0.0,0.0,0.0,0.0,0.0,0.0,0.0,0.0,0.0,0.0,0.0,0.0
0.392,0.392,0.392,0.391,0.391,0.391,0.39,0.39,0.39,0.39,0.389,0.389,0.389,0.389,0.389,0.389,0.388,0.388,0.388,0.387,0.386,0.386,0.386,0.385,0.385,0.385,0.385,0.385,0.385,0.385,0.385,0.385,0.384,0.384,0.384,0.384,0.383,0.383,0.382,0.383,0.382,0.382,0.381,0.381,0.381,0.381,0.381,0.381,0.381,0.381,0.381,0.38,0.0,0.0,0.0,0.0,0.378,0.378,0.378,0.377,0.377,0.377,0.377,0.377,0.377,0.377,0.377,0.377,0.377,0.377,0.376,0.376,0.376,0.375,0.374,0.374,0.374,0.373,0.373,0.373,0.373,0.373,0.373,0.372,0.373,0.373,0.373,0.373,0.373,0.373,0.373,0.372,0.372,0.372,0.372,0.371,0.371,0.37,0.37,0.37,0.369,0.369,0.369,0.369,0.369,0.369,0.369,0.369,0.369,0.368,0.368,0.367,0.367,0.367,0.367,0.366,0.366,0.366,0.366,0.366,0.366,0.365,0.365,0.365,0.365,0.364,0.364,0.364,0.364,0.364,0.364,0.364,0.364,0.363,0.363,0.363,0.362,0.362,0.362,0.362,0.362,0.362,0.362,0.362,0.362,0.361,0.361,0.361,0.361,0.361,0.36,0.359,0.359,0.359,0.359,0.358,0.358,0.358,0.358,0.358,0.358,0.358,0.358,0.358,0.358,0.358,0.3565,0.0,0.0,0.0,0.3555,0.355,0.355,0.355,0.355,0.354,0.354,0.354,0.354,0.354,0.353,0.353,0.353,0.353,0.352,0.352,0.352,0.352,0.3515,0.351,0.351,0.351,0.351,0.351,0.351,0.351,0.351,0.35,0.35,0.35,0.35,0.349,0.349,0.349,0.349,0.34875,0.348,0.348,0.348,0.348,0.348,0.348,0.348,0.348,0.347,0.347,0.347,0.347,0.3465,0.346,0.346,0.346,0.345,0.345,0.345,0.345,0.345,0.345,0.345,0.345,0.345,0.345,0.344,0.344,0.344,0.344,0.344,0.344,0.343,0.343,0.342,0.342,0.342,0.341,0.341,0.341,0.341,0.341,0.341,0.34,0.342,0.341,0.341,0.34,0.339,0.339,0.339,0.339,0.34,0.34,0.34,0.339,0.339,0.339,0.339,0.339,0.339,0.338,0.338,0.337,0.337,0.337,0.336,0.336,0.336,0.336,0.336,0.335,0.335,0.335,0.335,0.335,0.335,0.333,0.333,0.333,0.333,0.333,0.333,0.333,0.333,0.333,0.332,0.332,0.332,0.332,0.332,0.332,0.332,0.332,0.332,0.332,0.331,0.331,0.331,0.331,0.0,0.3305,0.33037500000000003,0.33,0.33,0.33,0.329,0.329,0.329,0.329,0.328,0.328,0.328,0.328,0.328,0.328,0.328,0.327,0.327,0.327,0.327,0.326,0.326,0.326,0.326,0.326,0.326,0.325,0.325,0.325,0.325,0.325,0.324,0.324,0.324,0.324,0.324,0.323,0.323,0.323,0.323,0.323,0.323,0.323,0.323,0.323,0.322,0.322,0.322,0.321,0.321,0.321,0.321,0.321,0.321,0.321,0.32,0.32,0.32,0.32,0.32,0.32,0.319,0.319,0.319,0.319,0.319,0.319,0.318,0.318,0.318,0.318,0.318,0.318,0.318,0.318,0.318,0.317,0.317,0.317,0.317,0.316,0.315,0.315,0.315,0.315,0.315,0.315,0.315,0.315,0.315,0.315,0.315,0.314,0.314,0.314,0.314,0.314,0.313,0.313,0.313,0.313,0.313,0.313,0.313,0.313,0.313,0.312,0.312,0.312,0.312,0.312,0.311,0.311,0.31,0.31,0.31,0.31,0.31,0.31,0.31,0.0,0.0,0.0,0.309,0.309,0.309,0.309,0.309,0.309,0.309,0.309,0.309,0.309,0.308,0.308,0.308,0.308,0.307,0.307,0.307,0.307,0.307,0.307,0.306,0.306,0.306,0.306,0.306,0.306,0.0,0.0,0.305,0.305,0.305,0.305,0.305,0.305,0.305,0.304,0.304,0.304,0.304,0.304,0.304,0.304,0.304,0.304,0.303,0.303,0.303,0.302,0.302,0.302,0.302,0.302,0.302,0.302,0.302,0.302,0.301,0.301,0.301,0.301,0.3,0.3,0.299,0.299,0.299,0.299,0.299,0.299,0.299,0.299,0.299,0.299,0.299,0.299,0.3,0.3,0.0,0.0,0.0,0.0,0.0,0.0,0.0,0.0,0.0,0.0,0.0,0.0,0.0,0.0,0.0,0.0,0.0,0.0,0.0,0.0,0.0,0.0,0.0,0.0,0.0,0.0,0.0,0.0,0.0,0.0,0.0,0.0,0.0,0.0,0.0,0.0,0.0,0.0,0.0,0.0,0.0,0.0
0.39,0.39,0.39,0.39,0.389,0.389,0.389,0.389,0.389,0.389,0.389,0.389,0.388,0.388,0.388,0.388,0.387,0.386,0.386,0.386,0.385,0.385,0.385,0.385,0.385,0.385,0.385,0.385,0.384,0.384,0.384,0.383,0.383,0.382,0.382,0.382,0.382,0.381,0.381,0.381,0.381,0.381,0.381,0.38,0.38,0.38,0.38,0.37925,0.379,0.379,0.379,0.378,0.378,0.378,0.377,0.377,0.377,0.377,0.377,0.377,0.377,0.377,0.377,0.377,0.377,0.376,0.376,0.376,0.376,0.375,0.375,0.374,0.374,0.373,0.373,0.373,0.373,0.372,0.372,0.3715,0.371375,0.371,0.371,0.37,0.37,0.37,0.37,0.371,0.371,0.371,0.371,0.371,0.37,0.37,0.37,0.369,0.369,0.369,0.369,0.369,0.369,0.368,0.368,0.368,0.368,0.368,0.367,0.367,0.367,0.367,0.366,0.366,0.366,0.366,0.366,0.366,0.365,0.365,0.365,0.365,0.364,0.364,0.363,0.364,0.363,0.363,0.363,0.362,0.362,0.362,0.362,0.362,0.362,0.362,0.362,0.362,0.361,0.361,0.361,0.36,0.36,0.36,0.36,0.36,0.36,0.36,0.36,0.359,0.359,0.359,0.359,0.358,0.358,0.358,0.358,0.357,0.357,0.357,0.357,0.357,0.356,0.356,0.356,0.356,0.356,0.356,0.355,0.0,0.0,0.354,0.354,0.354,0.354,0.354,0.353,0.353,0.353,0.353,0.352,0.352,0.352,0.352,0.352,0.352,0.352,0.351,0.351,0.351,0.351,0.351,0.351,0.35,0.35,0.35,0.35,0.35,0.349,0.349,0.349,0.349,0.348,0.348,0.348,0.348,0.348,0.348,0.34724999999999995,0.347,0.347,0.347,0.346,0.346,0.346,0.345,0.345,0.345,0.0,0.0,0.0,0.0,0.345,0.345,0.345,0.344,0.344,0.344,0.344,0.344,0.343,0.343,0.343,0.343,0.343,0.343,0.342,0.342,0.342,0.342,0.342,0.341,0.341,0.341,0.341,0.341,0.34,0.34,0.34,0.339,0.339,0.339,0.339,0.339,0.339,0.338,0.338,0.338,0.338,0.338,0.338,0.338,0.338,0.337,0.337,0.337,0.336,0.336,0.336,0.335,0.335,0.335,0.335,0.335,0.335,0.334,0.334,0.334,0.333,0.333,0.333,0.333,0.333,0.333,0.332,0.332,0.332,0.332,0.332,0.332,0.332,0.332,0.332,0.332,0.332,0.332,0.331,0.331,0.331,0.331,0.331,0.331,0.33,0.33,0.33,0.33,0.33,0.0,0.0,0.329,0.329,0.329,0.329,0.329,0.329,0.329,0.328,0.328,0.327,0.327,0.327,0.327,0.327,0.327,0.326,0.326,0.326,0.326,0.326,0.325,0.325,0.325,0.325,0.324,0.324,0.324,0.324,0.324,0.324,0.324,0.323,0.323,0.323,0.323,0.323,0.323,0.323,0.323,0.323,0.322,0.322,0.322,0.322,0.321,0.321,0.321,0.321,0.321,0.321,0.321,0.32,0.32,0.32,0.32,0.32,0.319,0.319,0.319,0.319,0.318,0.318,0.318,0.318,0.318,0.318,0.318,0.318,0.318,0.318,0.318,0.317,0.317,0.317,0.317,0.317,0.317,0.316,0.316,0.315,0.315,0.315,0.315,0.315,0.315,0.314,0.314,0.314,0.314,0.314,0.314,0.314,0.313,0.313,0.313,0.313,0.312,0.312,0.312,0.312,0.312,0.312,0.312,0.312,0.312,0.312,0.312,0.312,0.311,0.311,0.311,0.31,0.31,0.31,0.31,0.31,0.31,0.309,0.309,0.309,0.309,0.309,0.308,0.308,0.308,0.308,0.308,0.308,0.308,0.308,0.308,0.308,0.307,0.307,0.307,0.307,0.307,0.307,0.307,0.306,0.306,0.306,0.305,0.305,0.305,0.305,0.305,0.305,0.304,0.304,0.304,0.304,0.304,0.304,0.304,0.304,0.304,0.304,0.304,0.304,0.304,0.304,0.303,0.303,0.303,0.303,0.3025,0.30225,0.302,0.302,0.302,0.301,0.301,0.301,0.301,0.301,0.3,0.3,0.3,0.3,0.3,0.29974999999999996,0.299,0.299,0.299,0.299,0.299,0.299,0.299,0.299,0.299,0.299,0.299,0.299,0.299,0.299,0.299,0.299,0.299,0.0,0.0,0.0,0.0,0.0,0.0,0.0,0.0,0.0,0.0,0.0,0.0,0.0,0.0,0.0,0.0,0.0,0.0,0.0,0.0,0.0,0.0,0.0,0.0,0.0,0.0,0.0,0.0,0.0,0.0,0.0,0.0,0.0,0.0,0.0,0.0,0.0,0.0,0.0,0.0,0.0,0.0
0.389,0.389,0.389,0.389,0.389,0.389,0.388,0.388,0.388,0.388,0.388,0.387,0.387,0.387,0.386,0.386,0.386,0.385,0.385,0.385,0.385,0.384,0.384,0.383,0.383,0.383,0.383,0.383,0.383,0.383,0.382,0.382,0.382,0.381,0.381,0.381,0.381,0.381,0.381,0.38,0.38,0.379,0.379,0.378,0.378,0.378,0.378,0.377,0.377,0.377,0.377,0.377,0.377,0.377,0.377,0.377,0.377,0.377,0.376,0.376,0.376,0.376,0.376,0.376,0.376,0.376,0.375,0.374,0.374,0.373,0.373,0.373,0.372,0.372,0.371,0.371,0.371,0.37,0.37,0.37,0.37,0.37,0.369,0.369,0.369,0.369,0.369,0.369,0.369,0.369,0.37,0.369,0.369,0.369,0.369,0.369,0.368,0.368,0.368,0.368,0.367,0.367,0.367,0.366,0.366,0.366,0.366,0.366,0.366,0.366,0.366,0.365,0.365,0.365,0.365,0.365,0.364,0.364,0.364,0.363,0.363,0.362,0.362,0.362,0.362,0.362,0.362,0.361,0.36124999999999996,0.362,0.362,0.361,0.361,0.361,0.361,0.36,0.36,0.359,0.359,0.359,0.359,0.359,0.359,0.359,0.359,0.359,0.359,0.358,0.358,0.358,0.358,0.358,0.357,0.357,0.356,0.356,0.356,0.356,0.355,0.355,0.355,0.355,0.355,0.355,0.355,0.355,0.354,0.353,0.353,0.352,0.352,0.352,0.352,0.352,0.352,0.352,0.352,0.352,0.352,0.351,0.351,0.351,0.351,0.351,0.351,0.351,0.35,0.35,0.35,0.349,0.349,0.349,0.349,0.348,0.348,0.348,0.348,0.348,0.348,0.348,0.348,0.348,0.348,0.347,0.347,0.347,0.346,0.345,0.345,0.345,0.345,0.345,0.345,0.345,0.344,0.3435,0.0,0.0,0.0,0.0,0.0,0.343,0.343,0.343,0.342,0.342,0.342,0.342,0.342,0.342,0.342,0.342,0.342,0.342,0.342,0.341,0.341,0.341,0.341,0.341,0.34,0.34,0.34,0.339,0.339,0.339,0.339,0.338,0.338,0.338,0.338,0.338,0.337,0.337,0.337,0.337,0.337,0.337,0.337,0.337,0.336,0.336,0.336,0.335,0.335,0.335,0.335,0.335,0.335,0.334,0.334,0.334,0.333,0.333,0.333,0.333,0.333,0.332,0.332,0.332,0.332,0.332,0.332,0.332,0.332,0.332,0.332,0.331,0.331,0.331,0.331,0.331,0.331,0.33,0.33,0.33,0.33,0.33,0.33,0.32975,0.329,0.329,0.329,0.329,0.3285,0.32825000000000004,0.328,0.328,0.328,0.328,0.328,0.328,0.328,0.328,0.327,0.327,0.327,0.326,0.326,0.326,0.326,0.326,0.326,0.325,0.325,0.325,0.324,0.324,0.324,0.324,0.324,0.323,0.323,0.323,0.323,0.323,0.323,0.323,0.323,0.323,0.322,0.322,0.322,0.322,0.322,0.322,0.321,0.321,0.321,0.321,0.321,0.321,0.321,0.32,0.32,0.32,0.32,0.32,0.319,0.319,0.319,0.318,0.318,0.318,0.318,0.318,0.318,0.318,0.318,0.318,0.317,0.317,0.317,0.317,0.317,0.317,0.317,0.317,0.316,0.316,0.316,0.316,0.315,0.315,0.315,0.315,0.315,0.315,0.314,0.314,0.314,0.314,0.313,0.313,0.313,0.313,0.313,0.313,0.313,0.313,0.312,0.312,0.312,0.312,0.312,0.312,0.312,0.312,0.311,0.312,0.311,0.311,0.0,0.0,0.0,0.31,0.31,0.31,0.31,0.31,0.309,0.309,0.309,0.309,0.309,0.308,0.308,0.308,0.307,0.307,0.307,0.307,0.307,0.307,0.307,0.0,0.307,0.307,0.307,0.307,0.307,0.307,0.306,0.306,0.306,0.305,0.305,0.305,0.305,0.305,0.304,0.304,0.304,0.304,0.304,0.304,0.303,0.303,0.303,0.303,0.303,0.303,0.303,0.303,0.303,0.303,0.303,0.302,0.302,0.302,0.302,0.302,0.302,0.301,0.30106249999999996,0.301,0.3,0.3,0.3,0.3,0.3,0.299,0.299,0.299,0.299,0.299,0.299,0.299,0.299,0.299,0.299,0.298,0.298,0.298,0.298,0.298,0.298,0.298,0.298,0.298,0.298,0.298,0.298,0.298,0.298,0.298,0.0,0.0,0.0,0.0,0.0,0.0,0.0,0.0,0.0,0.0,0.0,0.0,0.0,0.0,0.0,0.0,0.0,0.0,0.0,0.0,0.0,0.0,0.0,0.0,0.0,0.0,0.0,0.0,0.0,0.0,0.0,0.0,0.0,0.0,0.0,0.0,0.0,0.0,0.0,0.0,0.0,0.0
0.388,0.388,0.388,0.388,0.387,0.387,0.386,0.387,0.386,0.386,0.385,0.385,0.385,0.385,0.385,0.385,0.384,0.384,0.383,0.383,0.383,0.382,0.382,0.382,0.382,0.381,0.381,0.381,0.381,0.381,0.381,0.381,0.381,0.381,0.38,0.38,0.38,0.379,0.379,0.379,0.378,0.378,0.377,0.377,0.377,0.377,0.377,0.377,0.377,0.377,0.376,0.376,0.376,0.376,0.376,0.375,0.376,0.375,0.375,0.375,0.375,0.375,0.375,0.375,0.374,0.374,0.373,0.373,0.373,0.372,0.372,0.371,0.371,0.37,0.37,0.37,0.369,0.369,0.369,0.369,0.369,0.369,0.369,0.368,0.368,0.368,0.368,0.368,0.368,0.367,0.367,0.367,0.368,0.368,0.367,0.367,0.367,0.366,0.366,0.366,0.366,0.366,0.366,0.366,0.366,0.366,0.366,0.365,0.365,0.365,0.365,0.364,0.364,0.364,0.363,0.363,0.363,0.362,0.3625,0.36187499999999995,0.362,0.362,0.361,0.361,0.361,0.36,0.36,0.36,0.36,0.36,0.36,0.36,0.36,0.359,0.359,0.359,0.359,0.359,0.358,0.358,0.358,0.358,0.358,0.358,0.358,0.358,0.358,0.357,0.357,0.356,0.356,0.356,0.355,0.355,0.355,0.355,0.355,0.355,0.355,0.355,0.354,0.354,0.354,0.353,0.353,0.352,0.352,0.352,0.352,0.351,0.351,0.351,0.351,0.351,0.351,0.351,0.351,0.351,0.351,0.351,0.35,0.35,0.349,0.349,0.349,0.349,0.348,0.348,0.348,0.348,0.348,0.348,0.348,0.348,0.348,0.348,0.347,0.347,0.347,0.347,0.347,0.346,0.346,0.345,0.345,0.345,0.345,0.345,0.344,0.344,0.344,0.344,0.343,0.343,0.343,0.342,0.342,0.0,0.0,0.0,0.0,0.342,0.342,0.342,0.342,0.342,0.342,0.342,0.341,0.341,0.341,0.341,0.341,0.341,0.341,0.341,0.34,0.34,0.34,0.339,0.339,0.339,0.339,0.339,0.339,0.338,0.338,0.337,0.337,0.337,0.336,0.336,0.336,0.336,0.336,0.336,0.336,0.336,0.335,0.335,0.335,0.335,0.335,0.335,0.335,0.334,0.334,0.333,0.333,0.333,0.333,0.333,0.332,0.332,0.332,0.332,0.332,0.332,0.332,0.332,0.332,0.331,0.331,0.331,0.331,0.331,0.331,0.33,0.33,0.33,0.33,0.33,0.33,0.329,0.329,0.329,0.329,0.329,0.329,0.329,0.329,0.328,0.328,0.327,0.327,0.327,0.327,0.327,0.327,0.327,0.327,0.327,0.327,0.326,0.326,0.326,0.326,0.326,0.325,0.325,0.0,0.0,0.324,0.324,0.324,0.324,0.323,0.323,0.323,0.323,0.323,0.323,0.323,0.323,0.322,0.322,0.322,0.321,0.321,0.321,0.321,0.321,0.321,0.321,0.321,0.321,0.321,0.321,0.32,0.32,0.32,0.32,0.32,0.319,0.319,0.318,0.318,0.318,0.318,0.318,0.318,0.318,0.318,0.317,0.317,0.317,0.317,0.317,0.317,0.317,0.317,0.316,0.316,0.316,0.316,0.316,0.316,0.315,0.315,0.315,0.315,0.315,0.315,0.315,0.314,0.314,0.314,0.313,0.313,0.313,0.313,0.313,0.312,0.312,0.312,0.312,0.312,0.312,0.312,0.312,0.312,0.312,0.311,0.311,0.311,0.311,0.311,0.31,0.31,0.31,0.31,0.31,0.0,0.0,0.0,0.309,0.309,0.309,0.309,0.309,0.309,0.309,0.308,0.308,0.308,0.307,0.307,0.307,0.307,0.307,0.307,0.307,0.306,0.307,0.306,0.306,0.306,0.306,0.306,0.306,0.306,0.305,0.305,0.305,0.305,0.304,0.304,0.304,0.304,0.304,0.304,0.304,0.304,0.303,0.303,0.302,0.302,0.302,0.302,0.302,0.302,0.302,0.302,0.302,0.302,0.302,0.302,0.302,0.302,0.302,0.301,0.3,0.3,0.3,0.3,0.3,0.299,0.299,0.299,0.299,0.299,0.299,0.298,0.298,0.298,0.298,0.298,0.298,0.298,0.298,0.298,0.297,0.297,0.297,0.297,0.297,0.297,0.297,0.297,0.297,0.297,0.0,0.0,0.2965,0.297,0.297,0.0,0.0,0.0,0.0,0.0,0.0,0.0,0.0,0.0,0.0,0.0,0.0,0.0,0.0,0.0,0.0,0.0,0.0,0.0,0.0,0.0,0.0,0.0,0.0,0.0,0.0,0.0,0.0,0.0,0.0,0.0,0.0,0.0,0.0,0.0,0.0,0.0,0.0,0.0,0.0,0.0,0.0
0.386,0.386,0.386,0.386,0.385,0.385,0.385,0.385,0.385,0.385,0.385,0.385,0.384,0.384,0.383,0.383,0.382,0.382,0.381,0.381,0.381,0.381,0.381,0.381,0.381,0.381,0.381,0.381,0.381,0.381,0.38,0.379,0.379,0.379,0.378,0.378,0.378,0.377,0.377,0.377,0.377,0.377,0.377,0.376,0.376,0.376,0.376,0.376,0.375,0.37525,0.375,0.375,0.375,0.375,0.374,0.374,0.374,0.374,0.373,0.373,0.373,0.373,0.373,0.373,0.373,0.373,0.373,0.37175,0.371,0.371,0.37,0.37,0.369,0.369,0.369,0.369,0.369,0.369,0.368,0.368,0.367,0.367,0.367,0.367,0.367,0.366,0.366,0.366,0.366,0.366,0.366,0.366,0.366,0.365,0.365,0.366,0.366,0.366,0.365,0.365,0.365,0.365,0.365,0.364,0.364,0.364,0.364,0.364,0.364,0.364,0.363,0.363,0.363,0.363,0.362,0.362,0.362,0.362,0.361,0.36,0.36,0.36,0.36,0.36,0.359,0.359,0.359,0.359,0.359,0.359,0.359,0.359,0.359,0.358,0.358,0.358,0.358,0.358,0.357,0.356,0.356,0.356,0.356,0.356,0.356,0.356,0.356,0.356,0.355,0.355,0.355,0.355,0.355,0.355,0.354,0.354,0.354,0.354,0.353,0.353,0.353,0.352,0.352,0.352,0.351,0.351,0.351,0.351,0.351,0.351,0.35,0.35,0.35,0.35,0.35,0.35,0.349,0.349,0.349,0.349,0.349,0.349,0.348,0.348,0.348,0.348,0.348,0.348,0.348,0.347,0.347,0.347,0.346,0.346,0.346,0.346,0.346,0.345,0.345,0.345,0.345,0.345,0.345,0.345,0.344,0.344,0.344,0.343,0.343,0.342,0.342,0.342,0.342,0.342,0.342,0.341,0.341,0.341,0.341,0.341,0.341,0.341,0.341,0.341,0.341,0.341,0.341,0.341,0.341,0.34,0.34,0.34,0.34,0.339,0.339,0.339,0.339,0.339,0.339,0.339,0.338,0.338,0.338,0.338,0.338,0.337,0.336,0.336,0.336,0.335,0.335,0.335,0.335,0.335,0.335,0.335,0.335,0.335,0.335,0.335,0.334,0.334,0.334,0.333,0.333,0.333,0.332,0.332,0.332,0.332,0.332,0.332,0.332,0.332,0.331,0.331,0.331,0.331,0.331,0.33,0.33,0.33,0.33,0.33,0.33,0.33,0.33,0.329,0.329,0.329,0.329,0.329,0.329,0.329,0.329,0.329,0.329,0.329,0.328,0.328,0.328,0.327,0.327,0.326,0.326,0.326,0.326,0.326,0.326,0.326,0.326,0.326,0.326,0.325,0.325,0.325,0.324,0.324,0.324,0.324,0.0,0.0,0.0,0.323,0.323,0.323,0.323,0.323,0.323,0.322,0.322,0.322,0.322,0.321,0.321,0.321,0.321,0.321,0.321,0.32,0.321,0.32,0.32,0.32,0.32,0.32,0.32,0.32,0.32,0.32,0.319,0.319,0.318,0.318,0.318,0.318,0.318,0.317,0.317,0.317,0.317,0.317,0.316,0.316,0.316,0.316,0.316,0.315,0.315,0.315,0.315,0.315,0.315,0.315,0.315,0.315,0.315,0.315,0.314,0.314,0.314,0.314,0.313,0.313,0.313,0.313,0.313,0.312,0.312,0.312,0.312,0.312,0.312,0.312,0.312,0.312,0.312,0.312,0.311,0.311,0.311,0.311,0.311,0.31,0.31,0.31,0.31,0.31,0.31,0.31,0.309,0.309,0.309,0.309,0.308,0.308,0.308,0.308,0.308,0.308,0.308,0.308,0.307,0.307,0.307,0.307,0.307,0.307,0.306,0.306,0.306,0.306,0.305,0.305,0.305,0.305,0.305,0.305,0.305,0.305,0.305,0.305,0.305,0.304,0.304,0.304,0.304,0.303,0.303,0.303,0.303,0.303,0.303,0.302,0.302,0.302,0.302,0.302,0.302,0.302,0.302,0.302,0.302,0.302,0.302,0.301,0.301,0.301,0.301,0.3,0.3,0.299,0.299,0.299,0.299,0.299,0.298,0.298,0.298,0.298,0.298,0.298,0.297,0.297,0.297,0.297,0.297,0.297,0.297,0.297,0.297,0.297,0.297,0.297,0.297,0.296,0.296,0.295,0.296,0.296,0.0,0.0,0.0,0.295,0.0,0.0,0.0,0.0,0.0,0.0,0.0,0.0,0.0,0.0,0.0,0.0,0.0,0.0,0.0,0.0,0.0,0.0,0.0,0.0,0.0,0.0,0.0,0.0,0.0,0.0,0.0,0.0,0.0,0.0,0.0,0.0,0.0,0.0,0.0,0.0,0.0,0.0,0.0,0.0,0.0,0.0,0.0,0.0
0.385,0.385,0.385,0.385,0.385,0.385,0.384,0.384,0.384,0.384,0.383,0.383,0.382,0.382,0.381,0.381,0.381,0.381,0.381,0.38,0.38,0.38,0.38,0.38,0.379,0.379,0.379,0.379,0.379,0.378,0.378,0.378,0.377,0.377,0.377,0.377,0.377,0.376,0.376,0.376,0.376,0.376,0.375,0.375,0.374,0.374,0.374,0.374,0.374,0.374,0.374,0.374,0.374,0.374,0.373,0.373,0.373,0.373,0.373,0.373,0.373,0.373,0.373,0.0,0.0,0.0,0.0,0.37,0.37,0.369,0.369,0.369,0.369,0.368,0.368,0.368,0.367,0.367,0.366,0.366,0.366,0.366,0.366,0.366,0.366,0.366,0.365,0.365,0.365,0.365,0.365,0.365,0.364,0.364,0.363,0.363,0.363,0.364,0.364,0.364,0.363,0.363,0.363,0.363,0.363,0.362,0.362,0.362,0.362,0.362,0.362,0.362,0.362,0.362,0.361,0.36,0.36,0.359,0.359,0.359,0.359,0.359,0.359,0.359,0.359,0.358,0.358,0.358,0.358,0.358,0.358,0.358,0.358,0.357,0.356,0.356,0.356,0.355,0.355,0.355,0.355,0.355,0.355,0.355,0.355,0.355,0.3545,0.354,0.35375,0.354,0.354,0.354,0.353,0.353,0.352,0.352,0.352,0.352,0.352,0.352,0.352,0.351,0.351,0.351,0.351,0.351,0.35,0.35,0.35,0.35,0.349,0.349,0.349,0.349,0.349,0.348,0.348,0.348,0.348,0.348,0.348,0.348,0.348,0.348,0.348,0.347,0.347,0.347,0.347,0.346,0.346,0.345,0.345,0.345,0.345,0.345,0.345,0.345,0.345,0.345,0.345,0.344,0.344,0.3435,0.343,0.343,0.342,0.342,0.342,0.342,0.341,0.341,0.341,0.341,0.34,0.34,0.34,0.34,0.339,0.339,0.339,0.339,0.339,0.339,0.339,0.339,0.339,0.339,0.339,0.339,0.339,0.339,0.339,0.339,0.339,0.338,0.338,0.338,0.338,0.338,0.337,0.337,0.336,0.336,0.336,0.336,0.335,0.335,0.335,0.335,0.335,0.335,0.334,0.334,0.334,0.334,0.334,0.334,0.334,0.333,0.333,0.333,0.332,0.332,0.332,0.332,0.332,0.332,0.331,0.332,0.331,0.331,0.331,0.331,0.33,0.33,0.33,0.33,0.33,0.33,0.33,0.329,0.329,0.329,0.329,0.329,0.329,0.329,0.329,0.328,0.328,0.328,0.328,0.328,0.328,0.328,0.328,0.327,0.327,0.327,0.326,0.326,0.326,0.326,0.326,0.326,0.326,0.325,0.325,0.325,0.325,0.324,0.324,0.324,0.324,0.324,0.324,0.323,0.323,0.323,0.0,0.0,0.0,0.321,0.3215,0.321,0.321,0.321,0.321,0.321,0.321,0.321,0.321,0.321,0.32,0.32,0.32,0.32,0.32,0.32,0.32,0.319,0.0,0.0,0.0,0.319,0.319,0.319,0.319,0.318,0.318,0.318,0.318,0.317,0.317,0.317,0.316,0.316,0.316,0.316,0.316,0.315,0.315,0.315,0.315,0.315,0.315,0.315,0.315,0.315,0.315,0.315,0.314,0.314,0.314,0.314,0.314,0.313,0.313,0.313,0.313,0.312,0.312,0.312,0.312,0.312,0.312,0.311,0.311,0.311,0.311,0.311,0.0,0.311,0.311,0.311,0.311,0.311,0.311,0.311,0.31,0.31,0.31,0.31,0.31,0.31,0.309,0.309,0.309,0.309,0.309,0.308,0.308,0.307,0.307,0.307,0.307,0.307,0.307,0.307,0.307,0.307,0.307,0.307,0.307,0.306,0.306,0.306,0.305,0.305,0.305,0.305,0.305,0.304,0.305,0.305,0.305,0.305,0.304,0.304,0.304,0.304,0.304,0.303,0.303,0.303,0.303,0.303,0.302,0.302,0.302,0.302,0.0,0.3015,0.301125,0.301,0.301,0.301,0.301,0.301,0.301,0.301,0.301,0.301,0.3,0.3,0.3,0.3,0.3,0.299,0.299,0.299,0.299,0.298,0.298,0.298,0.297,0.297,0.297,0.297,0.297,0.297,0.297,0.297,0.297,0.296,0.296,0.296,0.296,0.295,0.295,0.295,0.295,0.295,0.295,0.295,0.295,0.295,0.295,0.295,0.295,0.295,0.295,0.0,0.0,0.0,0.0,0.0,0.0,0.0,0.0,0.0,0.0,0.0,0.0,0.0,0.0,0.0,0.0,0.0,0.0,0.0,0.0,0.0,0.0,0.0,0.0,0.0,0.0,0.0,0.0,0.0,0.0,0.0,0.0,0.0,0.0,0.0,0.0,0.0,0.0,0.0,0.0,0.0,0.0,0.0,0.0,0.0
0.385,0.384,0.384,0.384,0.383,0.383,0.382,0.382,0.382,0.382,0.382,0.381,0.381,0.381,0.381,0.381,0.38,0.38,0.379,0.379,0.378,0.378,0.378,0.378,0.377,0.377,0.377,0.377,0.377,0.377,0.377,0.377,0.377,0.376,0.376,0.376,0.375,0.374,0.374,0.374,0.374,0.374,0.373,0.373,0.373,0.373,0.373,0.373,0.373,0.373,0.373,0.373,0.373,0.373,0.372,0.3715,0.0,0.0,0.0,0.0,0.371,0.37,0.371,0.0,0.0,0.0,0.0,0.369,0.368,0.368,0.368,0.367,0.367,0.366,0.366,0.366,0.366,0.366,0.366,0.366,0.366,0.365,0.365,0.365,0.364,0.364,0.364,0.364,0.364,0.363,0.363,0.363,0.363,0.362,0.362,0.362,0.362,0.362,0.362,0.361,0.362,0.362,0.362,0.362,0.362,0.362,0.362,0.362,0.362,0.361,0.361,0.361,0.361,0.359,0.359,0.359,0.359,0.358,0.358,0.358,0.358,0.358,0.358,0.358,0.358,0.358,0.358,0.357,0.357,0.357,0.356,0.356,0.356,0.355,0.355,0.355,0.355,0.355,0.355,0.355,0.354,0.354,0.354,0.354,0.354,0.354,0.353,0.352,0.352,0.352,0.352,0.352,0.352,0.352,0.351,0.351,0.351,0.351,0.351,0.351,0.351,0.351,0.351,0.35,0.35,0.349,0.349,0.349,0.349,0.348,0.348,0.348,0.348,0.348,0.348,0.348,0.348,0.348,0.348,0.347,0.347,0.347,0.347,0.347,0.346,0.346,0.346,0.34574999999999995,0.345,0.345,0.345,0.345,0.344,0.344,0.344,0.344,0.344,0.343,0.343,0.343,0.343,0.3425,0.342,0.342,0.342,0.342,0.341,0.341,0.341,0.341,0.34,0.34,0.34,0.339,0.339,0.339,0.339,0.339,0.339,0.339,0.339,0.339,0.339,0.338,0.339,0.338,0.338,0.338,0.338,0.338,0.338,0.338,0.338,0.338,0.338,0.337,0.337,0.337,0.336,0.336,0.336,0.335,0.335,0.335,0.335,0.335,0.334,0.334,0.334,0.333,0.333,0.333,0.333,0.333,0.333,0.333,0.333,0.332,0.332,0.332,0.332,0.332,0.332,0.331,0.331,0.331,0.331,0.331,0.331,0.33,0.33,0.33,0.33,0.33,0.329,0.329,0.329,0.329,0.329,0.329,0.329,0.329,0.328,0.328,0.328,0.328,0.328,0.327,0.327,0.327,0.327,0.327,0.327,0.327,0.327,0.327,0.327,0.326,0.326,0.326,0.326,0.326,0.325,0.325,0.325,0.324,0.324,0.324,0.324,0.324,0.324,0.323,0.324,0.323,0.323,0.323,0.323,0.323,0.322,0.322,0.321,0.321,0.321,0.321,0.321,0.321,0.321,0.321,0.321,0.321,0.32,0.32,0.32,0.32,0.32,0.319,0.319,0.319,0.319,0.318,0.318,0.0,0.0,0.0,0.0,0.318,0.318,0.318,0.318,0.318,0.317,0.317,0.317,0.316,0.316,0.315,0.315,0.315,0.315,0.315,0.315,0.315,0.315,0.314,0.314,0.314,0.314,0.314,0.314,0.314,0.313,0.313,0.313,0.313,0.313,0.313,0.313,0.312,0.312,0.312,0.312,0.312,0.312,0.312,0.312,0.311,0.311,0.311,0.31,0.31,0.31,0.31,0.31,0.31,0.31,0.31,0.31,0.31,0.31,0.31,0.31,0.309,0.309,0.309,0.309,0.308,0.308,0.308,0.308,0.308,0.307,0.307,0.307,0.307,0.307,0.307,0.307,0.306,0.306,0.307,0.307,0.306,0.306,0.306,0.305,0.305,0.305,0.305,0.304,0.304,0.304,0.304,0.304,0.304,0.304,0.304,0.304,0.304,0.304,0.303,0.303,0.303,0.302,0.302,0.302,0.302,0.302,0.302,0.302,0.302,0.302,0.302,0.3015,0.301,0.3,0.3,0.3,0.3,0.3,0.3,0.3,0.3,0.3,0.299,0.299,0.299,0.299,0.299,0.298,0.298,0.298,0.298,0.298,0.298,0.297,0.297,0.297,0.296,0.296,0.295,0.295,0.295,0.295,0.295,0.295,0.295,0.295,0.295,0.295,0.295,0.295,0.294,0.294,0.294,0.294,0.294,0.294,0.294,0.294,0.294,0.294,0.294,0.0,0.0,0.0,0.0,0.0,0.0,0.0,0.0,0.0,0.0,0.0,0.0,0.0,0.0,0.0,0.0,0.0,0.0,0.0,0.0,0.0,0.0,0.0,0.0,0.0,0.0,0.0,0.0,0.0,0.0,0.0,0.0,0.0,0.0,0.0,0.0,0.0,0.0,0.0,0.0,0.0,0.0,0.0,0.0,0.0,0.0
0.383,0.382,0.382,0.381,0.381,0.381,0.381,0.381,0.381,0.381,0.381,0.381,0.38,0.38,0.379,0.379,0.379,0.378,0.377,0.377,0.377,0.377,0.377,0.377,0.377,0.377,0.377,0.376,0.376,0.376,0.376,0.376,0.375,0.375,0.374,0.373,0.373,0.373,0.373,0.373,0.373,0.373,0.373,0.373,0.373,0.372,0.372,0.372,0.372,0.0,0.0,0.0,0.371,0.371,0.371,0.37,0.0,0.0,0.0,0.0,0.369,0.369,0.369,0.369,0.0,0.0,0.0,0.366,0.366,0.366,0.366,0.366,0.366,0.366,0.365,0.365,0.365,0.365,0.365,0.365,0.364,0.364,0.364,0.363,0.363,0.362,0.362,0.362,0.362,0.362,0.362,0.362,0.362,0.362,0.361,0.361,0.361,0.36,0.36,0.36,0.36,0.36,0.359,0.361,0.361,0.36,0.36,0.36,0.36,0.359,0.359,0.359,0.359,0.358,0.358,0.358,0.358,0.358,0.357,0.357,0.357,0.357,0.357,0.357,0.357,0.356,0.356,0.356,0.356,0.355,0.355,0.0,0.0,0.3535,0.35362499999999997,0.354,0.354,0.353,0.353,0.353,0.353,0.353,0.353,0.353,0.352,0.352,0.352,0.351,0.351,0.351,0.351,0.351,0.351,0.351,0.35,0.35,0.35,0.35,0.35,0.35,0.35,0.35,0.349,0.349,0.348,0.348,0.348,0.348,0.348,0.348,0.347,0.347,0.347,0.347,0.347,0.347,0.347,0.347,0.346,0.346,0.346,0.346,0.346,0.345,0.345,0.345,0.345,0.345,0.345,0.344,0.344,0.344,0.343,0.343,0.343,0.342,0.342,0.342,0.342,0.342,0.342,0.34137500000000004,0.341,0.341,0.341,0.34,0.34,0.34,0.339,0.339,0.339,0.339,0.339,0.339,0.339,0.339,0.339,0.339,0.338,0.338,0.338,0.338,0.338,0.338,0.338,0.337,0.337,0.337,0.337,0.337,0.337,0.336,0.336,0.336,0.336,0.336,0.336,0.335,0.335,0.335,0.335,0.335,0.335,0.334,0.334,0.334,0.333,0.333,0.333,0.333,0.332,0.332,0.332,0.332,0.332,0.332,0.332,0.332,0.331,0.331,0.331,0.331,0.33,0.33,0.33,0.33,0.33,0.33,0.33,0.33,0.329,0.329,0.329,0.329,0.329,0.329,0.328,0.328,0.328,0.328,0.327,0.327,0.327,0.327,0.327,0.327,0.326,0.326,0.326,0.326,0.326,0.326,0.326,0.326,0.326,0.326,0.0,0.0,0.326,0.325,0.325,0.324,0.324,0.324,0.324,0.324,0.323,0.323,0.323,0.323,0.323,0.323,0.323,0.323,0.323,0.322,0.322,0.321,0.321,0.321,0.32,0.32,0.32,0.32,0.32,0.32,0.32,0.32,0.32,0.32,0.319,0.319,0.319,0.319,0.319,0.318,0.318,0.318,0.318,0.318,0.318,0.3175,0.317,0.317,0.317,0.317,0.317,0.317,0.317,0.316,0.316,0.316,0.315,0.315,0.315,0.315,0.315,0.315,0.314,0.314,0.314,0.314,0.314,0.313,0.313,0.313,0.313,0.313,0.313,0.313,0.312,0.312,0.312,0.312,0.312,0.312,0.311,0.311,0.311,0.311,0.311,0.311,0.31,0.31,0.31,0.31,0.31,0.31,0.31,0.309,0.309,0.309,0.309,0.309,0.309,0.309,0.309,0.31,0.31,0.309,0.308,0.308,0.307,0.307,0.307,0.307,0.307,0.307,0.307,0.307,0.307,0.307,0.306,0.306,0.305,0.305,0.305,0.3055,0.306,0.306,0.305,0.305,0.305,0.305,0.305,0.304,0.304,0.304,0.304,0.304,0.304,0.304,0.303,0.303,0.303,0.303,0.303,0.0,0.0,0.0,0.0,0.302,0.302,0.302,0.302,0.302,0.302,0.302,0.302,0.301,0.301,0.301,0.3,0.3,0.299,0.299,0.299,0.299,0.299,0.299,0.299,0.299,0.299,0.299,0.298,0.298,0.298,0.297,0.297,0.297,0.297,0.296,0.296,0.296,0.296,0.295,0.295,0.295,0.295,0.295,0.295,0.294,0.294,0.294,0.294,0.294,0.294,0.294,0.294,0.294,0.294,0.294,0.294,0.294,0.294,0.294,0.294,0.294,0.0,0.0,0.0,0.294,0.0,0.0,0.0,0.0,0.0,0.0,0.0,0.0,0.0,0.0,0.0,0.0,0.0,0.0,0.0,0.0,0.0,0.0,0.0,0.0,0.0,0.0,0.0,0.0,0.0,0.0,0.0,0.0,0.0,0.0,0.0,0.0,0.0,0.0,0.0,0.0,0.0,0.0,0.0,0.0,0.0,0.0,0.0,0.0,0.0,0.0
0.381,0.381,0.381,0.381,0.381,0.38,0.38,0.38,0.38,0.38,0.38,0.379,0.379,0.378,0.378,0.377,0.377,0.377,0.377,0.377,0.376,0.376,0.376,0.376,0.375,0.375,0.375,0.375,0.375,0.375,0.374,0.374,0.373,0.373,0.373,0.373,0.373,0.373,0.372,0.372,0.372,0.372,0.371,0.371,0.371,0.37,0.37,0.37,0.37,0.0,0.0,0.0,0.369,0.369,0.369,0.369,0.369,0.369,0.369,0.368,0.368,0.367,0.366,0.366,0.366,0.365,0.365,0.365,0.365,0.365,0.365,0.365,0.365,0.365,0.364,0.364,0.364,0.364,0.364,0.363,0.363,0.363,0.363,0.362,0.362,0.362,0.362,0.362,0.362,0.361,0.361,0.361,0.361,0.36,0.36,0.359,0.359,0.359,0.359,0.359,0.358,0.358,0.358,0.358,0.358,0.359,0.359,0.359,0.359,0.358,0.358,0.358,0.358,0.358,0.358,0.357,0.357,0.357,0.357,0.356,0.356,0.356,0.356,0.355,0.355,0.355,0.355,0.355,0.355,0.354,0.354,0.0,0.0,0.352,0.352,0.352,0.352,0.352,0.352,0.352,0.352,0.352,0.351,0.351,0.351,0.351,0.351,0.35,0.35,0.35,0.349,0.349,0.349,0.349,0.349,0.349,0.349,0.349,0.348,0.348,0.348,0.348,0.348,0.348,0.348,0.348,0.347,0.347,0.346,0.346,0.346,0.34574999999999995,0.345,0.346,0.345,0.345,0.345,0.345,0.345,0.345,0.345,0.345,0.344,0.344,0.344,0.344,0.343,0.343,0.343,0.343,0.343,0.342,0.342,0.342,0.342,0.342,0.341,0.341,0.341,0.341,0.341,0.34,0.34,0.339,0.339,0.339,0.339,0.339,0.339,0.338,0.338,0.338,0.338,0.338,0.338,0.338,0.338,0.338,0.338,0.338,0.338,0.337,0.337,0.336,0.336,0.336,0.336,0.336,0.336,0.336,0.335,0.335,0.335,0.335,0.335,0.335,0.335,0.335,0.335,0.334,0.334,0.334,0.333,0.333,0.333,0.332,0.332,0.332,0.332,0.332,0.332,0.332,0.331,0.331,0.331,0.331,0.331,0.331,0.33,0.33,0.33,0.33,0.33,0.329,0.329,0.329,0.329,0.329,0.329,0.329,0.329,0.328,0.328,0.327,0.327,0.327,0.327,0.327,0.327,0.326,0.326,0.326,0.326,0.326,0.326,0.326,0.326,0.326,0.325,0.325,0.325,0.325,0.325,0.325,0.0,0.0,0.0,0.0,0.324,0.324,0.324,0.323,0.323,0.323,0.323,0.323,0.323,0.322,0.322,0.322,0.322,0.322,0.322,0.32175,0.321,0.321,0.32,0.32,0.32,0.32,0.319,0.319,0.319,0.319,0.319,0.319,0.319,0.319,0.318,0.318,0.0,0.3185,0.318,0.318,0.318,0.318,0.318,0.318,0.317,0.317,0.317,0.317,0.316,0.316,0.316,0.315,0.315,0.315,0.315,0.315,0.315,0.315,0.315,0.315,0.314,0.314,0.314,0.313,0.313,0.313,0.313,0.313,0.313,0.313,0.312,0.312,0.312,0.312,0.312,0.312,0.312,0.311,0.311,0.311,0.31,0.31,0.31,0.31,0.31,0.31,0.31,0.31,0.31,0.31,0.31,0.31,0.309,0.309,0.309,0.308,0.308,0.308,0.308,0.308,0.308,0.308,0.308,0.308,0.308,0.307,0.0,0.0,0.3065,0.307,0.307,0.307,0.307,0.306,0.306,0.306,0.306,0.305,0.305,0.305,0.305,0.305,0.305,0.305,0.305,0.305,0.305,0.305,0.305,0.304,0.304,0.304,0.304,0.303,0.303,0.303,0.303,0.302,0.302,0.302,0.302,0.302,0.302,0.0,0.0,0.0,0.0,0.301,0.301,0.301,0.301,0.301,0.301,0.301,0.3,0.3,0.3,0.3,0.299,0.299,0.299,0.299,0.299,0.298,0.298,0.298,0.298,0.298,0.297,0.297,0.297,0.297,0.296,0.296,0.296,0.295,0.295,0.295,0.295,0.295,0.295,0.295,0.294,0.294,0.294,0.294,0.294,0.294,0.294,0.294,0.0,0.0,0.293,0.293,0.293,0.293,0.293,0.293,0.293,0.293,0.293,0.293,0.293,0.0,0.0,0.0,0.0,0.0,0.0,0.0,0.0,0.0,0.0,0.0,0.0,0.0,0.0,0.0,0.0,0.0,0.0,0.0,0.0,0.0,0.0,0.0,0.0,0.0,0.0,0.0,0.0,0.0,0.0,0.0,0.0,0.0,0.0,0.0,0.0,0.0,0.0,0.0,0.0,0.0,0.0,0.0,0.0,0.0,0.0,0.0,0.0,0.0,0.0,0.0
0.38,0.38,0.38,0.379,0.379,0.379,0.379,0.379,0.378,0.378,0.378,0.377,0.377,0.377,0.377,0.377,0.376,0.376,0.376,0.376,0.375,0.374,0.374,0.374,0.374,0.374,0.373,0.373,0.373,0.373,0.373,0.373,0.373,0.372,0.372,0.372,0.372,0.371,0.371,0.371,0.37,0.37,0.37,0.37,0.37,0.369,0.369,0.369,0.369,0.0,0.0,0.368,0.368,0.367,0.367,0.367,0.367,0.367,0.366,0.366,0.366,0.365,0.365,0.365,0.364,0.364,0.364,0.364,0.364,0.364,0.364,0.364,0.364,0.363,0.363,0.363,0.363,0.363,0.363,0.362,0.362,0.362,0.362,0.362,0.362,0.361,0.361,0.361,0.36,0.36,0.36,0.359,0.359,0.359,0.359,0.358,0.358,0.358,0.358,0.358,0.357,0.357,0.357,0.357,0.357,0.356,0.356,0.356,0.358,0.358,0.357,0.357,0.357,0.356,0.356,0.356,0.355,0.356,0.355,0.355,0.355,0.355,0.355,0.355,0.355,0.355,0.354,0.354,0.353,0.353,0.352,0.352,0.352,0.351,0.351,0.351,0.351,0.351,0.351,0.351,0.351,0.351,0.351,0.35,0.35,0.35,0.349,0.349,0.349,0.348,0.348,0.348,0.348,0.348,0.348,0.348,0.348,0.348,0.348,0.348,0.348,0.348,0.347,0.347,0.346,0.346,0.346,0.345,0.345,0.345,0.345,0.345,0.345,0.345,0.345,0.345,0.345,0.345,0.344,0.344,0.344,0.343,0.342,0.342,0.342,0.342,0.342,0.342,0.342,0.342,0.342,0.342,0.341,0.341,0.341,0.341,0.34,0.339,0.339,0.339,0.339,0.339,0.339,0.338,0.338,0.338,0.338,0.338,0.338,0.338,0.338,0.337,0.337,0.337,0.337,0.337,0.337,0.337,0.337,0.336,0.336,0.336,0.336,0.335,0.335,0.335,0.335,0.335,0.335,0.335,0.335,0.335,0.335,0.335,0.334,0.334,0.334,0.334,0.333,0.333,0.333,0.332,0.332,0.332,0.332,0.332,0.332,0.331,0.331,0.331,0.331,0.331,0.33,0.33,0.33,0.33,0.33,0.33,0.329,0.329,0.329,0.329,0.329,0.329,0.329,0.329,0.329,0.328,0.328,0.328,0.327,0.327,0.327,0.326,0.326,0.326,0.326,0.326,0.326,0.326,0.326,0.325,0.325,0.325,0.324,0.324,0.324,0.324,0.324,0.324,0.324,0.324,0.324,0.324,0.0,0.0,0.0,0.323,0.323,0.323,0.323,0.323,0.322,0.322,0.322,0.322,0.321,0.321,0.321,0.321,0.321,0.321,0.321,0.321,0.321,0.0,0.0,0.0,0.319,0.319,0.318,0.318,0.318,0.318,0.318,0.318,0.318,0.318,0.318,0.318,0.318,0.318,0.318,0.318,0.318,0.318,0.317,0.317,0.317,0.316,0.316,0.315,0.315,0.315,0.315,0.315,0.315,0.315,0.315,0.314,0.314,0.314,0.313,0.313,0.313,0.313,0.313,0.313,0.312,0.312,0.312,0.312,0.312,0.312,0.312,0.312,0.312,0.311,0.311,0.31,0.31,0.31,0.31,0.31,0.31,0.31,0.309,0.309,0.309,0.309,0.309,0.309,0.309,0.309,0.309,0.3085,0.308,0.307,0.307,0.307,0.307,0.307,0.307,0.307,0.307,0.307,0.0,0.0,0.0,0.0,0.0,0.0,0.306,0.306,0.306,0.306,0.305,0.0,0.0,0.305,0.305,0.305,0.304,0.304,0.304,0.304,0.304,0.304,0.304,0.304,0.304,0.0,0.0,0.303,0.303,0.303,0.302,0.302,0.302,0.302,0.302,0.302,0.302,0.302,0.301,0.301,0.3,0.0,0.0,0.0,0.299,0.29975,0.3,0.3,0.3,0.3,0.3,0.3,0.3,0.3,0.299,0.299,0.299,0.299,0.298,0.298,0.297,0.297,0.297,0.297,0.297,0.296,0.296,0.295,0.295,0.295,0.295,0.295,0.295,0.295,0.295,0.294,0.294,0.294,0.294,0.294,0.294,0.294,0.293,0.293,0.293,0.293,0.293,0.293,0.0,0.0,0.0,0.293,0.292,0.292,0.292,0.292,0.292,0.292,0.292,0.292,0.0,0.0,0.0,0.0,0.0,0.0,0.0,0.0,0.0,0.0,0.0,0.0,0.0,0.0,0.0,0.0,0.0,0.0,0.0,0.0,0.0,0.0,0.0,0.0,0.0,0.0,0.0,0.0,0.0,0.0,0.0,0.0,0.0,0.0,0.0,0.0,0.0,0.0,0.0,0.0,0.0,0.0,0.0,0.0,0.0,0.0,0.0,0.0,0.0,0.0,0.0,0.0
0.378,0.378,0.378,0.377,0.378,0.377,0.377,0.377,0.377,0.377,0.377,0.376,0.376,0.376,0.375,0.375,0.374,0.374,0.374,0.374,0.373,0.373,0.373,0.373,0.373,0.373,0.373,0.373,0.373,0.372,0.372,0.372,0.371,0.371,0.37,0.37,0.37,0.37,0.37,0.369,0.369,0.369,0.369,0.369,0.369,0.368,0.368,0.367,0.367,0.366,0.366,0.366,0.366,0.366,0.365,0.366,0.366,0.365,0.365,0.364,0.364,0.364,0.364,0.363,0.363,0.363,0.363,0.362,0.362,0.362,0.363,0.363,0.362,0.362,0.362,0.362,0.362,0.362,0.362,0.362,0.362,0.362,0.361,0.361,0.361,0.36,0.36,0.359,0.359,0.359,0.359,0.358,0.358,0.358,0.358,0.357,0.357,0.356,0.356,0.356,0.356,0.355,0.355,0.355,0.355,0.355,0.355,0.355,0.355,0.355,0.355,0.355,0.355,0.355,0.355,0.355,0.355,0.355,0.355,0.355,0.355,0.354,0.355,0.354,0.354,0.354,0.353,0.352,0.352,0.352,0.351,0.351,0.35,0.35,0.35,0.35,0.35,0.35,0.35,0.35,0.35,0.35,0.35,0.349,0.349,0.349,0.348,0.348,0.348,0.348,0.348,0.348,0.348,0.347,0.347,0.347,0.347,0.347,0.347,0.347,0.346,0.346,0.346,0.346,0.345,0.345,0.345,0.345,0.345,0.344,0.344,0.344,0.344,0.343,0.343,0.343,0.343,0.343,0.34299999999999997,0.3425,0.342,0.342,0.342,0.342,0.341,0.341,0.341,0.341,0.341,0.341,0.341,0.3405,0.34,0.34,0.34,0.339,0.339,0.339,0.339,0.338,0.338,0.338,0.338,0.338,0.338,0.337,0.337,0.337,0.337,0.336,0.336,0.336,0.336,0.336,0.336,0.336,0.336,0.336,0.335,0.335,0.335,0.335,0.335,0.335,0.335,0.335,0.334,0.334,0.334,0.334,0.334,0.334,0.334,0.333,0.333,0.333,0.333,0.332,0.332,0.332,0.331,0.331,0.331,0.331,0.331,0.331,0.33,0.33,0.33,0.33,0.33,0.33,0.33,0.33,0.329,0.329,0.329,0.329,0.329,0.328,0.328,0.328,0.328,0.328,0.327,0.327,0.0,0.0,0.0,0.0,0.326,0.326,0.326,0.326,0.326,0.326,0.325,0.325,0.324,0.324,0.324,0.324,0.324,0.324,0.324,0.323,0.324,0.324,0.323,0.323,0.323,0.323,0.323,0.323,0.0,0.0,0.322,0.321,0.321,0.321,0.321,0.321,0.321,0.321,0.321,0.321,0.321,0.321,0.32,0.32,0.32,0.32,0.32,0.32,0.319,0.0,0.0,0.0,0.318,0.318,0.318,0.318,0.318,0.318,0.318,0.317,0.317,0.317,0.317,0.317,0.317,0.317,0.317,0.317,0.317,0.317,0.317,0.316,0.316,0.315,0.315,0.315,0.315,0.315,0.314,0.314,0.313,0.313,0.313,0.313,0.313,0.313,0.312,0.312,0.312,0.312,0.312,0.312,0.312,0.312,0.312,0.312,0.311,0.311,0.31,0.31,0.31,0.31,0.31,0.31,0.309,0.309,0.309,0.309,0.309,0.309,0.309,0.309,0.309,0.308,0.308,0.308,0.308,0.308,0.308,0.307625,0.307,0.307,0.307,0.307,0.307,0.307,0.307,0.307,0.307,0.0,0.0,0.0,0.0,0.0,0.0,0.305,0.305,0.305,0.305,0.305,0.305,0.0,0.0,0.304,0.304,0.304,0.304,0.303,0.303,0.303,0.303,0.303,0.303,0.303,0.303,0.0,0.0,0.302,0.302,0.302,0.302,0.302,0.302,0.302,0.302,0.301,0.301,0.301,0.3,0.299,0.299,0.299,0.299,0.299,0.299,0.299,0.299,0.299,0.299,0.299,0.299,0.299,0.299,0.299,0.299,0.298,0.298,0.298,0.297,0.297,0.296,0.296,0.296,0.296,0.295,0.295,0.295,0.295,0.295,0.295,0.294,0.294,0.294,0.294,0.294,0.294,0.294,0.294,0.294,0.293,0.293,0.293,0.293,0.293,0.293,0.293,0.293,0.292,0.0,0.0,0.0,0.292,0.292,0.292,0.292,0.292,0.292,0.292,0.292,0.292,0.0,0.0,0.0,0.0,0.0,0.0,0.0,0.0,0.0,0.0,0.0,0.0,0.0,0.0,0.0,0.0,0.0,0.0,0.0,0.0,0.0,0.0,0.0,0.0,0.0,0.0,0.0,0.0,0.0,0.0,0.0,0.0,0.0,0.0,0.0,0.0,0.0,0.0,0.0,0.0,0.0,0.0,0.0,0.0,0.0,0.0,0.0,0.0,0.0,0.0,0.0,0.0
