0.526,0.525,0.525,0.524,0.523,0.522,0.522,0.521,0.52,0.519,0.518,0.517,0.516,0.516,0.516,0.516,0.516,0.515,0.515,0.515,0.514,0.514,0.514,0.513,0.513,0.512,0.511,0.511,0.51,0.509,0.509,0.509,0.508,0.507,0.506,0.506,0.505,0.504,0.504,0.503,0.503,0.502,0.502,0.502,0.502,0.501,0.501,0.5,0.499,0.498,0.497,0.496,0.496,0.495,0.495,0.494,0.494,0.492,0.491,0.49,0.489,0.489,0.489,0.489,0.488,0.488,0.488,0.487,0.487,0.487,0.485,0.485,0.484,0.487,0.486,0.485,0.485,0.484,0.483,0.483,0.482,0.482,0.482,0.482,0.481,0.481,0.479,0.478,0.478,0.478,0.477,0.476,0.476,0.476,0.476,0.475,0.475,0.475,0.474,0.473,0.472,0.471,0.471,0.47,0.47,0.47,0.47,0.469,0.469,0.469,0.469,0.469,0.468,0.468,0.46749999999999997,0.468,0.466,0.465,0.465,0.464,0.464,0.463,0.463,0.463,0.463,0.462,0.461,0.461,0.46,0.458,0.458,0.458,0.457,0.457,0.457,0.456,0.456,0.455,0.455,0.454,0.453,0.453,0.453,0.452,0.452,0.452,0.451,0.451,0.45,0.449,0.448,0.448,0.447,0.447,0.447,0.447,0.447,0.447,0.447,0.446,0.446,0.446,0.445,0.445,0.445,0.445,0.444,0.444,0.443,0.442,0.442,0.441,0.441,0.44,0.438,0.437,0.437,0.436,0.436,0.436,0.436,0.435,0.435,0.434,0.433,0.432,0.432,0.431,0.431,0.431,0.431,0.43,0.43,0.43,0.43,0.429,0.429,0.429,0.428,0.428,0.428,0.427,0.427,0.427,0.426,0.426,0.426,0.425,0.425,0.424,0.424,0.424,0.424,0.423,0.423,0.423,0.422,0.422,0.422,0.421,0.421,0.421,0.421,0.42,0.42,0.419,0.418,0.417,0.416,0.416,0.416,0.416,0.415,0.415,0.415,0.415,0.415,0.414,0.414,0.413,0.413,0.412,0.411,0.0,0.0,0.41,0.41,0.41,0.409,0.409,0.408,0.407,0.407,0.407,0.40675000000000006,0.406,0.406,0.406,0.406,0.406,0.405,0.404,0.404,0.404,0.403,0.403,0.403,0.402,0.402,0.402,0.402,0.402,0.401,0.401,0.4,0.4,0.4,0.399,0.399,0.398,0.398,0.398,0.398,0.397,0.397,0.397,0.397,0.397,0.396,0.396,0.395,0.395,0.394,0.394,0.394,0.393,0.393,0.393,0.392,0.392,0.391,0.391,0.39,0.39,0.39,0.389,0.389,0.389,0.389,0.388,0.388,0.388,0.387,0.387,0.386,0.386,0.386,0.385,0.385,0.0,0.0,0.0,0.383,0.383,0.382,0.382,0.382,0.381,0.381,0.381,0.381,0.381,0.38,0.38,0.38,0.379,0.378,0.378,0.378,0.377,0.377,0.377,0.377,0.377,0.376,0.376,0.376,0.376,0.376,0.375,0.375,0.375,0.374,0.373,0.373,0.373,0.373,0.372,0.372,0.371,0.371,0.37,0.37,0.37,0.37,0.369,0.369,0.369,0.369,0.368,0.367,0.367,0.366,0.366,0.366,0.366,0.366,0.365,0.365,0.365,0.365,0.364,0.364,0.364,0.363,0.363,0.363,0.363,0.363,0.362,0.362,0.362,0.362,0.362,0.362,0.362,0.361,0.361,0.361,0.0,0.0,0.0,0.0,0.0,0.357,0.357,0.357,0.357,0.356,0.357,0.356,0.356,0.355,0.355,0.355,0.355,0.355,0.355,0.355,0.355,0.354,0.354,0.354,0.353,0.352,0.352,0.352,0.352,0.352,0.351,0.351,0.351,0.351,0.351,0.351,0.35,0.35,0.35,0.35,0.35,0.35,0.349,0.349,0.349,0.349,0.348,0.348,0.348,0.348,0.347,0.347,0.346,0.346,0.345,0.0,0.0,0.344,0.343,0.342,0.342,0.342,0.342,0.341,0.341,0.341,0.341,0.341,0.34,0.34,0.339,0.339,0.339,0.339,0.338,0.338,0.338,0.338,0.337,0.337,0.337,0.336,0.336,0.336,0.336,0.336,0.336,0.336,0.336,0.0,0.0,0.335,0.335,0.334,0.334,0.334,0.333,0.333,0.332,0.332,0.332,0.332,0.332,0.332,0.332,0.331,0.331,0.331,0.331,0.331,0.331,0.0,0.0,0.0,0.0,0.0,0.0,0.0,0.0,0.0,0.0,0.0,0.0,0.0,0.0,0.0,0.0,0.0,0.0,0.0,0.0,0.0,0.0,0.0,0.0,0.0,0.0,0.0,0.0,0.0,0.0,0.0,0.0,0.0,0.0,0.0,0.0,0.0,0.0,0.0,0.0,0.0,0.0,0.0,0.0,0.0
0.524,0.524,0.523,0.522,0.521,0.519,0.518,0.517,0.517,0.516,0.516,0.516,0.515,0.514,0.514,0.514,0.513,0.513,0.512,0.512,0.511,0.511,0.511,0.511,0.51,0.51,0.509,0.509,0.509,0.507,0.506,0.505,0.504,0.503,0.503,0.502,0.502,0.502,0.502,0.502,0.501,0.501,0.501,0.5,0.5,0.499,0.498,0.497,0.496,0.496,0.495,0.495,0.495,0.493,0.491,0.491,0.49,0.489,0.489,0.489,0.488,0.488,0.488,0.487,0.486,0.486,0.485,0.484,0.484,0.483,0.483,0.482,0.482,0.482,0.482,0.482,0.482,0.482,0.482,0.482,0.481,0.48,0.48,0.478,0.478,0.477,0.477,0.476,0.476,0.476,0.476,0.475,0.475,0.475,0.474,0.474,0.473,0.472,0.471,0.471,0.47,0.47,0.47,0.469,0.469,0.469,0.469,0.468,0.468,0.468,0.467,0.466,0.465,0.465,0.465,0.464,0.463,0.463,0.463,0.463,0.462,0.462,0.461,0.461,0.46,0.46,0.458,0.458,0.458,0.457,0.457,0.456,0.455,0.455,0.454,0.454,0.453,0.453,0.452,0.452,0.452,0.452,0.452,0.451,0.45,0.449,0.449,0.448,0.447,0.447,0.446,0.446,0.446,0.446,0.446,0.446,0.445,0.445,0.445,0.445,0.444,0.444,0.443,0.443,0.442,0.442,0.442,0.441,0.441,0.441,0.44,0.44,0.438,0.437,0.436,0.436,0.436,0.436,0.435,0.435,0.434,0.433,0.432,0.431,0.431,0.431,0.43,0.43,0.43,0.43,0.429,0.428,0.428,0.427,0.427,0.427,0.427,0.427,0.426,0.426,0.426,0.426,0.426,0.425,0.425,0.425,0.424,0.424,0.423,0.423,0.422,0.422,0.422,0.422,0.422,0.422,0.421,0.421,0.421,0.421,0.42,0.42,0.42,0.419,0.417,0.416,0.416,0.415,0.415,0.415,0.415,0.414,0.414,0.413,0.413,0.412,0.412,0.412,0.4115,0.411,0.411,0.41,0.41,0.409,0.4085,0.408,0.408,0.407,0.407,0.407,0.407,0.406,0.406,0.406,0.406,0.405,0.405,0.405,0.404,0.403,0.403,0.403,0.403,0.402,0.402,0.402,0.402,0.401,0.401,0.401,0.4,0.4,0.399,0.399,0.398,0.398,0.398,0.398,0.398,0.397,0.397,0.397,0.396,0.396,0.396,0.395,0.395,0.395,0.394,0.394,0.394,0.393,0.393,0.393,0.393,0.392,0.392,0.391,0.39,0.39,0.39,0.389,0.389,0.389,0.389,0.389,0.389,0.388,0.388,0.387,0.387,0.386,0.386,0.385,0.385,0.385,0.384,0.383,0.383,0.382,0.382,0.381,0.381,0.381,0.381,0.381,0.381,0.381,0.38,0.38,0.38,0.379,0.378,0.378,0.378,0.378,0.0,0.0,0.0,0.377,0.376,0.376,0.376,0.375,0.375,0.375,0.375,0.374,0.374,0.373,0.373,0.373,0.373,0.373,0.373,0.372,0.371,0.37,0.37,0.37,0.369,0.369,0.369,0.369,0.368,0.368,0.3675,0.367,0.367,0.366,0.366,0.366,0.366,0.365,0.365,0.365,0.364,0.364,0.363,0.364,0.363,0.363,0.363,0.362,0.362,0.362,0.362,0.362,0.362,0.362,0.361,0.361,0.361,0.361,0.361,0.36,0.359,0.359,0.359,0.358,0.358,0.357,0.356,0.356,0.356,0.356,0.355,0.355,0.355,0.355,0.355,0.355,0.355,0.355,0.355,0.354,0.354,0.354,0.354,0.354,0.353,0.353,0.352,0.352,0.352,0.3515,0.351,0.351,0.351,0.351,0.35,0.35,0.35,0.35,0.349,0.349,0.349,0.348,0.348,0.348,0.348,0.348,0.348,0.348,0.348,0.348,0.348,0.348,0.347,0.346,0.345,0.345,0.345,0.345,0.0,0.0,0.0,0.342,0.342,0.341,0.341,0.341,0.341,0.34,0.34,0.34,0.339,0.339,0.339,0.339,0.338,0.338,0.338,0.337,0.337,0.337,0.336,0.336,0.336,0.336,0.335,0.335,0.335,0.335,0.335,0.335,0.335,0.335,0.3345,0.334,0.334,0.333,0.333,0.333,0.333,0.332,0.332,0.332,0.332,0.331,0.331,0.33,0.33,0.33,0.33,0.33,0.33,0.33,0.33,0.33,0.0,0.0,0.0,0.0,0.0,0.0,0.0,0.0,0.0,0.0,0.0,0.0,0.0,0.0,0.0,0.0,0.0,0.0,0.0,0.0,0.0,0.0,0.0,0.0,0.0,0.0,0.0,0.0,0.0,0.0,0.0,0.0,0.0,0.0,0.0,0.0,0.0,0.0,0.0,0.0,0.0,0.0,0.0,0.0,0.0
0.522,0.52,0.519,0.518,0.517,0.516,0.516,0.515,0.515,0.514,0.513,0.512,0.511,0.511,0.51,0.51,0.51,0.51,0.51,0.509,0.509,0.509,0.509,0.509,0.509,0.509,0.508,0.507,0.505,0.504,0.503,0.502,0.502,0.502,0.501,0.501,0.501,0.5,0.5,0.5,0.5,0.499,0.498,0.497,0.497,0.496,0.496,0.495,0.495,0.494,0.494,0.491,0.491,0.49,0.489,0.489,0.488,0.488,0.487,0.487,0.486,0.486,0.485,0.485,0.483,0.483,0.48274999999999996,0.482,0.482,0.482,0.481,0.481,0.481,0.481,0.48,0.48,0.479,0.477,0.48,0.48,0.479,0.477,0.476,0.476,0.476,0.476,0.475,0.475,0.475,0.474,0.474,0.473,0.473,0.471,0.471,0.47,0.47,0.47,0.469,0.469,0.469,0.469,0.468,0.468,0.467,0.467,0.467,0.466,0.466,0.464,0.464,0.464,0.463,0.463,0.463,0.463,0.461,0.461,0.461,0.46,0.46,0.459,0.459,0.458,0.458,0.458,0.457,0.457,0.456,0.455,0.454,0.453,0.453,0.453,0.452,0.452,0.452,0.452,0.451,0.451,0.451,0.45,0.449,0.449,0.448,0.447,0.447,0.446,0.446,0.445,0.444,0.444,0.444,0.443,0.443,0.443,0.443,0.443,0.442,0.442,0.4415,0.441,0.441,0.441,0.441,0.441,0.441,0.43975,0.44,0.439,0.437,0.436,0.436,0.436,0.435,0.435,0.435,0.434,0.433,0.432,0.431,0.431,0.431,0.43,0.43,0.429,0.429,0.429,0.428,0.428,0.427,0.426,0.426,0.426,0.426,0.426,0.425,0.425,0.425,0.425,0.425,0.425,0.425,0.424,0.423,0.423,0.422,0.421,0.421,0.421,0.421,0.421,0.421,0.421,0.421,0.421,0.421,0.42,0.42,0.42,0.419,0.418,0.416,0.416,0.416,0.415,0.415,0.414,0.413,0.413,0.412,0.412,0.411,0.411,0.411,0.411,0.0,0.41,0.409,0.409,0.408,0.408,0.407,0.407,0.407,0.406,0.406,0.406,0.406,0.406,0.405,0.405,0.404,0.403,0.403,0.403,0.403,0.403,0.402,0.402,0.402,0.402,0.402,0.402,0.401,0.401,0.401,0.4,0.399,0.399,0.399,0.398,0.398,0.397,0.397,0.397,0.397,0.396,0.396,0.395,0.395,0.394,0.394,0.394,0.394,0.394,0.394,0.393,0.393,0.393,0.393,0.393,0.392,0.392,0.391,0.39,0.39,0.389,0.389,0.389,0.389,0.389,0.388,0.388,0.388,0.388,0.388,0.387,0.386,0.385,0.385,0.385,0.384,0.384,0.383,0.382,0.382,0.381,0.381,0.381,0.381,0.381,0.38,0.38,0.38,0.38,0.38,0.38,0.378,0.378,0.378,0.377,0.377,0.377,0.377,0.377,0.0,0.0,0.0,0.375,0.375,0.375,0.374,0.374,0.374,0.373,0.373,0.373,0.373,0.373,0.373,0.373,0.372,0.371,0.371,0.37,0.37,0.37,0.369,0.369,0.369,0.368,0.368,0.368,0.367,0.366,0.366,0.366,0.366,0.366,0.365,0.365,0.364,0.364,0.364,0.363,0.363,0.363,0.362,0.362,0.362,0.362,0.362,0.362,0.361,0.361,0.361,0.361,0.36,0.36,0.359,0.359,0.359,0.359,0.359,0.358,0.358,0.358,0.357,0.356,0.356,0.355,0.355,0.355,0.355,0.355,0.355,0.355,0.355,0.354,0.354,0.354,0.354,0.354,0.353,0.353,0.353,0.353,0.353,0.353,0.352,0.352,0.352,0.352,0.351,0.351,0.351,0.35,0.35,0.349,0.349,0.348,0.348,0.348,0.348,0.348,0.0,0.0,0.347,0.347,0.0,0.0,0.0,0.0,0.0,0.347,0.3465,0.346,0.345,0.344,0.344,0.343,0.342,0.34299999999999997,0.0,0.0,0.0,0.34,0.34,0.34,0.34,0.34,0.339,0.339,0.339,0.339,0.339,0.338,0.338,0.338,0.337,0.337,0.337,0.336,0.336,0.336,0.335,0.335,0.335,0.335,0.335,0.335,0.335,0.335,0.334,0.334,0.334,0.334,0.333,0.333,0.332,0.332,0.332,0.332,0.332,0.332,0.331,0.33,0.33,0.33,0.33,0.329,0.329,0.329,0.329,0.329,0.329,0.329,0.329,0.329,0.329,0.0,0.0,0.0,0.0,0.0,0.0,0.0,0.0,0.0,0.0,0.0,0.0,0.0,0.0,0.0,0.0,0.0,0.0,0.0,0.0,0.0,0.0,0.0,0.0,0.0,0.0,0.0,0.0,0.0,0.0,0.0,0.0,0.0,0.0,0.0,0.0,0.0,0.0,0.0,0.0,0.0,0.0,0.0,0.0
0.518,0.517,0.516,0.516,0.515,0.514,0.511,0.511,0.511,0.51,0.509,0.509,0.509,0.509,0.509,0.509,0.509,0.509,0.509,0.509,0.508,0.508,0.508,0.508,0.507,0.507,0.505,0.503,0.502,0.502,0.501,0.501,0.5,0.499,0.499,0.498,0.497,0.497,0.497,0.497,0.496,0.496,0.496,0.495,0.495,0.495,0.494,0.493,0.492,0.491,0.49,0.489,0.489,0.488,0.488,0.487,0.487,0.485,0.485,0.484,0.483,0.483,0.482,0.482,0.482,0.482,0.481,0.481,0.481,0.48,0.48,0.48,0.478,0.478,0.477,0.476,0.476,0.476,0.475,0.475,0.475,0.475,0.475,0.475,0.474,0.474,0.473,0.473,0.472,0.471,0.471,0.47,0.47,0.47,0.47,0.469,0.469,0.469,0.468,0.468,0.467,0.467,0.466,0.465,0.465,0.464,0.464,0.464,0.464,0.463,0.463,0.462,0.462,0.461,0.461,0.46,0.459,0.459,0.458,0.458,0.458,0.458,0.457,0.457,0.457,0.456,0.455,0.454,0.453,0.453,0.452,0.452,0.452,0.452,0.451,0.451,0.45,0.45,0.449,0.448,0.448,0.447,0.447,0.447,0.446,0.446,0.445,0.445,0.443,0.442,0.442,0.442,0.442,0.441,0.441,0.441,0.441,0.441,0.441,0.44,0.0,0.0,0.44,0.439,0.439,0.439,0.439,0.437,0.0,0.437,0.436,0.435,0.435,0.433,0.433,0.432,0.432,0.431,0.431,0.43,0.43,0.43,0.43,0.429,0.428,0.428,0.427,0.427,0.426,0.426,0.426,0.425,0.425,0.425,0.425,0.425,0.425,0.424,0.424,0.424,0.424,0.423,0.422,0.422,0.421,0.421,0.421,0.421,0.42,0.42,0.42,0.42,0.42,0.42,0.42,0.42,0.42,0.42,0.419,0.418,0.416,0.416,0.415,0.415,0.414,0.413,0.412,0.412,0.412,0.411,0.411,0.411,0.411,0.411,0.41,0.41,0.409,0.408,0.407,0.407,0.406,0.406,0.406,0.406,0.406,0.405,0.405,0.405,0.404,0.404,0.404,0.403,0.402,0.402,0.402,0.402,0.402,0.402,0.402,0.401,0.401,0.4,0.4,0.4,0.399,0.399,0.399,0.398,0.398,0.398,0.398,0.397,0.397,0.396,0.396,0.395,0.394,0.394,0.394,0.394,0.394,0.393,0.393,0.393,0.393,0.393,0.393,0.393,0.392,0.392,0.392,0.391,0.39,0.39,0.389,0.389,0.389,0.389,0.388,0.388,0.388,0.387,0.387,0.386,0.386,0.386,0.386,0.385,0.385,0.384,0.384,0.383,0.382,0.382,0.381,0.381,0.381,0.38,0.38,0.38,0.38,0.38,0.38,0.379,0.379,0.379,0.378,0.378,0.377,0.377,0.377,0.377,0.376,0.376,0.376,0.375,0.375,0.374,0.373,0.373,0.373,0.373,0.373,0.373,0.373,0.373,0.373,0.373,0.372,0.372,0.372,0.371,0.37,0.37,0.37,0.369,0.369,0.369,0.368,0.368,0.367,0.367,0.36675,0.366,0.366,0.366,0.366,0.365,0.365,0.365,0.363,0.363,0.363,0.362,0.362,0.362,0.362,0.362,0.362,0.362,0.361,0.361,0.361,0.361,0.36,0.36,0.359,0.359,0.359,0.359,0.358,0.358,0.358,0.358,0.358,0.357,0.356,0.356,0.355,0.355,0.354,0.354,0.354,0.354,0.354,0.354,0.354,0.354,0.353,0.353,0.353,0.353,0.353,0.352,0.352,0.352,0.352,0.352,0.352,0.352,0.351,0.351,0.351,0.351,0.35,0.35,0.35,0.349,0.348,0.348,0.348,0.348,0.347,0.347,0.3465,0.3465,0.0,0.0,0.0,0.0,0.0,0.0,0.0,0.0,0.0,0.0,0.0,0.0,0.0,0.0,0.342,0.341,0.341,0.341,0.34,0.339,0.339,0.339,0.339,0.339,0.339,0.339,0.339,0.338,0.338,0.0,0.3375,0.338,0.337,0.336,0.336,0.336,0.336,0.335,0.335,0.335,0.335,0.335,0.334,0.334,0.334,0.333,0.333,0.333,0.333,0.333,0.333,0.333,0.332,0.332,0.332,0.332,0.332,0.332,0.331,0.33,0.33,0.33,0.329,0.329,0.329,0.329,0.329,0.329,0.329,0.329,0.329,0.329,0.329,0.329,0.0,0.0,0.0,0.0,0.0,0.0,0.0,0.0,0.0,0.0,0.0,0.0,0.0,0.0,0.0,0.0,0.0,0.0,0.0,0.0,0.0,0.0,0.0,0.0,0.0,0.0,0.0,0.0,0.0,0.0,0.0,0.0,0.0,0.0,0.0,0.0,0.0,0.0,0.0,0.0,0.0,0.0,0.0,0.0,0.0
0.516,0.515,0.514,0.511,0.51,0.509,0.509,0.509,0.509,0.509,0.508,0.508,0.508,0.507,0.508,0.507,0.507,0.507,0.507,0.507,0.507,0.507,0.506,0.505,0.504,0.503,0.502,0.5015000000000001,0.501,0.5,0.499,0.498,0.496,0.496,0.496,0.496,0.495,0.495,0.495,0.495,0.495,0.495,0.494,0.493,0.493,0.492,0.491,0.489,0.489,0.489,0.488,0.488,0.487,0.486,0.485,0.485,0.484,0.483,0.482,0.482,0.482,0.481,0.481,0.481,0.48,0.48,0.479,0.479,0.478,0.478,0.477,0.477,0.477,0.476,0.476,0.475,0.475,0.474,0.473,0.472,0.472,0.471,0.47,0.47,0.471,0.471,0.471,0.47,0.47,0.469,0.469,0.469,0.469,0.468,0.468,0.468,0.467,0.467,0.466,0.465,0.465,0.464,0.464,0.463,0.463,0.463,0.463,0.463,0.462,0.461,0.461,0.461,0.46,0.459,0.458,0.458,0.458,0.458,0.457,0.457,0.456,0.456,0.455,0.455,0.0,0.0,0.453,0.452,0.452,0.452,0.451,0.451,0.45,0.449,0.449,0.448,0.448,0.447,0.447,0.447,0.446,0.446,0.446,0.445,0.443,0.442,0.442,0.442,0.441,0.441,0.441,0.441,0.441,0.44,0.44,0.44,0.44,0.439,0.438,0.438,0.0,0.0,0.436,0.436,0.436,0.436,0.436,0.436,0.4355,0.435,0.433,0.432,0.432,0.431,0.431,0.431,0.431,0.43,0.429,0.429,0.428,0.428,0.428,0.427,0.426,0.426,0.426,0.426,0.425,0.425,0.425,0.425,0.424,0.424,0.424,0.423,0.423,0.423,0.422,0.422,0.421,0.4215,0.421125,0.421,0.42,0.42,0.42,0.42,0.42,0.42,0.419,0.419,0.419,0.419,0.419,0.418,0.418,0.416,0.416,0.416,0.415,0.414,0.414,0.413,0.412,0.412,0.411,0.411,0.411,0.411,0.411,0.41,0.409,0.408,0.408,0.407,0.407,0.406,0.406,0.406,0.405,0.405,0.405,0.405,0.404,0.404,0.403,0.402,0.402,0.402,0.402,0.402,0.402,0.401,0.401,0.401,0.4,0.4,0.4,0.399,0.3985,0.398,0.398,0.398,0.398,0.398,0.397,0.397,0.397,0.396,0.396,0.395,0.395,0.394,0.394,0.394,0.393,0.393,0.393,0.393,0.393,0.392,0.392,0.392,0.392,0.392,0.391,0.391,0.391,0.391,0.39,0.389,0.389,0.389,0.389,0.388,0.388,0.387,0.386,0.386,0.386,0.385,0.385,0.385,0.385,0.385,0.385,0.0,0.0,0.382,0.381,0.381,0.381,0.381,0.38,0.38,0.38,0.379,0.379,0.379,0.379,0.378,0.378,0.378,0.378,0.377,0.377,0.377,0.377,0.377,0.376,0.376,0.376,0.375,0.374,0.374,0.373,0.373,0.373,0.372,0.373,0.373,0.372,0.372,0.372,0.372,0.371,0.371,0.37,0.37,0.37,0.37,0.369,0.369,0.369,0.368,0.368,0.367,0.367,0.366,0.366,0.366,0.366,0.365,0.365,0.365,0.364,0.364,0.363,0.363,0.362,0.362,0.362,0.362,0.361,0.361,0.361,0.36,0.36,0.36,0.36,0.36,0.359,0.359,0.359,0.359,0.359,0.358,0.358,0.358,0.358,0.357,0.357,0.356,0.356,0.355,0.355,0.354,0.354,0.354,0.354,0.353,0.353,0.353,0.353,0.353,0.352,0.352,0.352,0.352,0.352,0.352,0.352,0.351,0.351,0.351,0.351,0.351,0.351,0.351,0.35,0.351,0.35,0.35,0.349,0.348,0.348,0.348,0.347,0.347,0.346,0.346,0.346,0.345,0.345,0.345,0.345,0.343,0.0,0.0,0.0,0.0,0.0,0.0,0.0,0.0,0.0,0.0,0.0,0.0,0.34,0.339,0.339,0.339,0.339,0.338,0.338,0.338,0.338,0.338,0.338,0.338,0.338,0.337,0.337,0.3365,0.336,0.336,0.335,0.335,0.335,0.335,0.335,0.335,0.334,0.334,0.333,0.333,0.333,0.333,0.333,0.332,0.333,0.332,0.332,0.332,0.332,0.332,0.332,0.331,0.331,0.331,0.331,0.33,0.33,0.329,0.329,0.329,0.329,0.328,0.328,0.328,0.328,0.328,0.328,0.327,0.328,0.327,0.327,0.327,0.0,0.0,0.0,0.0,0.0,0.0,0.0,0.0,0.0,0.0,0.0,0.0,0.0,0.0,0.0,0.0,0.0,0.0,0.0,0.0,0.0,0.0,0.0,0.0,0.0,0.0,0.0,0.0,0.0,0.0,0.0,0.0,0.0,0.0,0.0,0.0,0.0,0.0,0.0,0.0,0.0,0.0,0.0,0.0,0.0
0.513,0.511,0.51,0.509,0.509,0.508,0.508,0.507,0.507,0.507,0.506,0.506,0.505,0.505,0.505,0.505,0.505,0.504,0.504,0.504,0.504,0.504,0.503,0.502,0.502,0.502,0.501,0.5,0.498,0.497,0.495,0.495,0.495,0.495,0.495,0.494,0.494,0.494,0.494,0.493,0.493,0.492,0.491,0.49,0.489,0.489,0.488,0.488,0.487,0.487,0.486,0.485,0.484,0.483,0.483,0.482,0.482,0.481,0.481,0.481,0.48,0.48,0.479,0.478,0.478,0.477,0.477,0.476,0.476,0.476,0.476,0.475,0.475,0.475,0.474,0.473,0.472,0.471,0.471,0.47,0.47,0.47,0.469,0.469,0.468,0.468,0.469,0.469,0.468,0.468,0.468,0.468,0.467,0.466,0.466,0.465,0.465,0.465,0.464,0.464,0.463,0.463,0.463,0.462,0.462,0.461,0.461,0.461,0.461,0.46,0.459,0.459,0.458,0.458,0.458,0.457,0.456,0.455,0.455,0.454,0.453,0.453,0.453,0.452,0.0,0.0,0.451,0.451,0.45,0.449,0.448,0.448,0.448,0.447,0.447,0.447,0.446,0.446,0.446,0.445,0.444,0.444,0.442,0.442,0.441,0.441,0.441,0.44,0.44,0.44,0.44,0.439,0.439,0.438,0.438,0.438,0.437,0.436,0.436,0.436,0.435,0.435,0.435,0.435,0.435,0.434,0.434,0.433,0.432,0.431,0.431,0.431,0.43,0.43,0.43,0.429,0.429,0.428,0.427,0.42674999999999996,0.426,0.426,0.426,0.425,0.425,0.425,0.425,0.425,0.424,0.424,0.423,0.422,0.422,0.422,0.422,0.421,0.421,0.421,0.421,0.421,0.42,0.42,0.42,0.42,0.419,0.418,0.418,0.418,0.418,0.417,0.417,0.417,0.417,0.416,0.416,0.416,0.416,0.415,0.414,0.4135,0.413,0.41225,0.411,0.411,0.411,0.411,0.41,0.41,0.409,0.409,0.409,0.408,0.407,0.407,0.406,0.406,0.406,0.405,0.405,0.404,0.404,0.403,0.403,0.403,0.402,0.402,0.402,0.402,0.402,0.401,0.401,0.401,0.4,0.4,0.399,0.399,0.399,0.398,0.0,0.0,0.39725,0.397,0.397,0.397,0.396,0.396,0.3955,0.395,0.394,0.394,0.394,0.394,0.393,0.393,0.393,0.393,0.393,0.392,0.392,0.391,0.391,0.391,0.391,0.39,0.39,0.39,0.39,0.389,0.389,0.389,0.389,0.389,0.388,0.388,0.387,0.386,0.385,0.385,0.385,0.385,0.385,0.385,0.384,0.384,0.384,0.383,0.0,0.0,0.0,0.3805,0.381,0.38,0.38,0.38,0.379,0.378,0.378,0.378,0.378,0.378,0.377,0.377,0.377,0.377,0.377,0.377,0.376,0.376,0.376,0.375,0.375,0.374,0.374,0.373,0.373,0.373,0.372,0.372,0.372,0.371,0.371,0.371,0.371,0.371,0.37,0.37,0.37,0.37,0.369,0.369,0.369,0.369,0.369,0.367,0.367,0.366,0.366,0.366,0.366,0.365,0.365,0.365,0.364,0.364,0.364,0.363,0.363,0.362,0.362,0.362,0.362,0.361,0.361,0.36,0.36,0.36,0.359,0.359,0.359,0.359,0.359,0.359,0.359,0.358,0.358,0.358,0.358,0.358,0.357,0.357,0.356,0.35575,0.355,0.355,0.355,0.354,0.354,0.354,0.353,0.353,0.353,0.352,0.352,0.352,0.352,0.351,0.351,0.351,0.351,0.351,0.351,0.351,0.351,0.35,0.35,0.35,0.35,0.35,0.35,0.349,0.349,0.349,0.348,0.348,0.348,0.348,0.347,0.346,0.345,0.345,0.345,0.345,0.345,0.344,0.344,0.343,0.342,0.342,0.341,0.0,0.0,0.0,0.0,0.0,0.0,0.0,0.0,0.0,0.0,0.338,0.338,0.338,0.338,0.338,0.338,0.337,0.337,0.337,0.337,0.337,0.337,0.336,0.336,0.33575,0.335,0.335,0.335,0.335,0.335,0.334,0.334,0.334,0.333,0.333,0.333,0.33275000000000005,0.332,0.332,0.332,0.332,0.332,0.332,0.332,0.332,0.332,0.332,0.332,0.331,0.331,0.33,0.33,0.33,0.329,0.329,0.329,0.328,0.3275,0.327,0.326,0.326,0.326,0.326,0.326,0.326,0.327,0.0,0.0,0.0,0.0,0.0,0.0,0.0,0.0,0.0,0.0,0.0,0.0,0.0,0.0,0.0,0.0,0.0,0.0,0.0,0.0,0.0,0.0,0.0,0.0,0.0,0.0,0.0,0.0,0.0,0.0,0.0,0.0,0.0,0.0,0.0,0.0,0.0,0.0,0.0,0.0,0.0,0.0,0.0,0.0,0.0,0.0,0.0,0.0,0.0,0.0
0.509,0.509,0.508,0.508,0.507,0.506,0.505,0.505,0.504,0.504,0.503,0.503,0.503,0.503,0.503,0.502,0.502,0.502,0.502,0.502,0.502,0.502,0.501,0.501,0.5,0.499,0.498,0.496,0.495,0.495,0.494,0.494,0.494,0.494,0.493,0.493,0.492,0.491,0.491,0.49,0.49,0.489,0.488,0.488,0.488,0.487,0.486,0.485,0.484,0.483,0.483,0.482,0.482,0.481,0.481,0.481,0.48,0.48,0.479,0.478,0.478,0.477,0.477,0.476,0.476,0.476,0.475,0.475,0.475,0.474,0.474,0.473,0.472,0.471,0.471,0.47,0.47,0.47,0.469,0.469,0.469,0.468,0.468,0.467,0.466,0.465,0.465,0.464,0.464,0.465,0.465,0.465,0.464,0.464,0.464,0.464,0.463,0.463,0.463,0.462,0.461,0.461,0.46,0.46,0.459,0.459,0.459,0.459,0.458,0.458,0.458,0.458,0.457,0.456,0.455,0.454,0.453,0.453,0.453,0.452,0.452,0.452,0.451,0.451,0.449,0.449,0.448,0.448,0.448,0.447,0.447,0.447,0.447,0.446,0.446,0.446,0.445,0.444,0.443,0.442,0.441,0.441,0.441,0.441,0.441,0.44,0.439,0.439,0.438,0.437,0.437,0.437,0.437,0.436,0.436,0.436,0.435,0.435,0.435,0.434,0.434,0.433,0.432,0.431,0.432,0.431,0.431,0.431,0.43,0.429,0.429,0.428,0.428,0.428,0.427,0.427,0.426,0.426,0.426,0.425,0.425,0.425,0.425,0.424,0.424,0.424,0.423,0.422,0.422,0.421,0.421,0.421,0.421,0.421,0.42,0.42,0.42,0.42,0.419,0.419,0.418,0.418,0.418,0.417,0.416,0.416,0.416,0.416,0.416,0.416,0.416,0.415,0.415,0.415,0.415,0.414,0.0,0.413,0.412,0.411,0.411,0.411,0.41,0.409,0.408,0.408,0.407,0.407,0.407,0.407,0.407,0.406,0.406,0.406,0.405,0.405,0.404,0.403,0.403,0.402,0.402,0.402,0.402,0.402,0.402,0.401,0.401,0.401,0.4,0.4,0.399,0.399,0.399,0.398,0.398,0.398,0.398,0.397,0.0,0.0,0.396,0.395,0.395,0.394,0.394,0.394,0.39425,0.3935625,0.393,0.393,0.393,0.393,0.392,0.392,0.392,0.391,0.391,0.39,0.39,0.389,0.389,0.389,0.389,0.389,0.389,0.389,0.389,0.389,0.389,0.388,0.388,0.387,0.386,0.386,0.385,0.385,0.385,0.384,0.384,0.384,0.383,0.383,0.382,0.382,0.382,0.381,0.0,0.0,0.0,0.379,0.379,0.378,0.378,0.378,0.377,0.377,0.377,0.377,0.377,0.377,0.377,0.376,0.376,0.3755,0.375,0.375,0.375,0.374,0.374,0.374,0.374,0.373,0.373,0.372,0.372,0.371,0.371,0.37,0.37,0.37,0.37,0.37,0.37,0.369,0.369,0.369,0.369,0.369,0.369,0.368,0.367,0.367,0.367,0.36624999999999996,0.366,0.366,0.365,0.365,0.365,0.364,0.364,0.363,0.363,0.363,0.362,0.362,0.362,0.362,0.362,0.361,0.361,0.36,0.359,0.359,0.359,0.359,0.359,0.358,0.358,0.358,0.358,0.358,0.358,0.358,0.357,0.357,0.357,0.356,0.356,0.355,0.355,0.355,0.355,0.354,0.353,0.353,0.353,0.352,0.352,0.352,0.352,0.352,0.351,0.351,0.351,0.351,0.35,0.35,0.35,0.35,0.35,0.349,0.349,0.349,0.349,0.349,0.348,0.348,0.348,0.348,0.348,0.348,0.348,0.347,0.346,0.346,0.345,0.345,0.345,0.345,0.344,0.344,0.344,0.342,0.342,0.342,0.341,0.34,0.339,0.339,0.339,0.0,0.0,0.337,0.337,0.337,0.337,0.337,0.337,0.337,0.337,0.337,0.337,0.337,0.337,0.336,0.336,0.336,0.336,0.336,0.335,0.335,0.335,0.335,0.334,0.334,0.334,0.333,0.333,0.333,0.333,0.332,0.332,0.332,0.332,0.332,0.332,0.332,0.332,0.332,0.331,0.331,0.331,0.331,0.3305,0.33,0.33,0.33,0.329,0.329,0.328,0.327,0.327,0.326,0.326,0.326,0.326,0.326,0.325,0.325,0.325,0.325,0.325,0.325,0.324,0.0,0.0,0.0,0.0,0.0,0.0,0.0,0.0,0.0,0.0,0.0,0.0,0.0,0.0,0.0,0.0,0.0,0.0,0.0,0.0,0.0,0.0,0.0,0.0,0.0,0.0,0.0,0.0,0.0,0.0,0.0,0.0,0.0,0.0,0.0,0.0,0.0,0.0,0.0,0.0,0.0,0.0,0.0,0.0,0.0,0.0,0.0,0.0,0.0,0.0
0.508,0.507,0.506,0.505,0.504,0.504,0.503,0.502,0.502,0.502,0.502,0.502,0.502,0.502,0.502,0.501,0.501,0.501,0.501,0.5,0.5,0.499,0.499,0.497,0.49675,0.496,0.495,0.494,0.494,0.493,0.492,0.492,0.491,0.491,0.491,0.49,0.489,0.489,0.489,0.488,0.488,0.487,0.486,0.485,0.485,0.483,0.483,0.482,0.482,0.482,0.481,0.481,0.48,0.479,0.479,0.478,0.477,0.477,0.477,0.476,0.476,0.476,0.475,0.475,0.475,0.474,0.473,0.473,0.472,0.471,0.471,0.47,0.47,0.47,0.469,0.469,0.468,0.467,0.467,0.467,0.466,0.465,0.465,0.465,0.464,0.464,0.464,0.463,0.463,0.463,0.462,0.462,0.463,0.463,0.463,0.462,0.462,0.461,0.46,0.46,0.459,0.458,0.458,0.458,0.458,0.458,0.458,0.458,0.457,0.457,0.457,0.455,0.454,0.453,0.452,0.452,0.452,0.452,0.451,0.451,0.45,0.45,0.448,0.448,0.447,0.447,0.447,0.446,0.446,0.446,0.446,0.446,0.445,0.445,0.444,0.443,0.442,0.442,0.441,0.441,0.441,0.44,0.44,0.44,0.439,0.438,0.437,0.436,0.436,0.436,0.436,0.436,0.435,0.435,0.435,0.435,0.434,0.433,0.432,0.432,0.431,0.431,0.431,0.43,0.43,0.43,0.43,0.429,0.428,0.427,0.427,0.426,0.426,0.426,0.426,0.425,0.425,0.425,0.425,0.424,0.424,0.423,0.423,0.422,0.4215,0.421,0.421,0.421,0.421,0.42,0.42,0.42,0.42,0.42,0.419,0.419,0.418,0.418,0.417,0.417,0.417,0.416,0.416,0.416,0.415,0.415,0.415,0.415,0.415,0.414,0.414,0.414,0.413,0.412,0.412,0.4115,0.41125,0.411,0.409,0.409,0.408,0.408,0.407,0.407,0.407,0.406,0.406,0.406,0.406,0.406,0.406,0.405,0.404,0.4035,0.403,0.402,0.402,0.402,0.402,0.402,0.402,0.401,0.401,0.401,0.4,0.4,0.399,0.399,0.398,0.398,0.398,0.398,0.398,0.398,0.397,0.397,0.396,0.395,0.394,0.394,0.394,0.393,0.393,0.393,0.393,0.393,0.393,0.392,0.392,0.391,0.391,0.391,0.39,0.39,0.389,0.389,0.389,0.389,0.389,0.389,0.389,0.388,0.388,0.388,0.388,0.388,0.388,0.388,0.387,0.387,0.386,0.386,0.385,0.385,0.385,0.384,0.383,0.383,0.382,0.382,0.382,0.381,0.381,0.381,0.381,0.38,0.379,0.378,0.377,0.377,0.377,0.377,0.377,0.377,0.377,0.377,0.376,0.376,0.376,0.376,0.375,0.374,0.3745,0.0,0.0,0.373,0.373,0.373,0.373,0.373,0.373,0.372,0.371,0.371,0.37,0.37,0.37,0.369,0.369,0.369,0.369,0.369,0.369,0.369,0.368,0.368,0.368,0.367,0.366,0.366,0.366,0.366,0.365,0.365,0.3645,0.364,0.364,0.364,0.363,0.363,0.362,0.362,0.362,0.362,0.362,0.361,0.361,0.361,0.36,0.36,0.359,0.359,0.359,0.358,0.358,0.358,0.358,0.358,0.358,0.357,0.357,0.357,0.356,0.356,0.356,0.355,0.355,0.355,0.355,0.355,0.355,0.354,0.353,0.352,0.352,0.352,0.351,0.351,0.351,0.351,0.351,0.351,0.35,0.35,0.35,0.349,0.349,0.349,0.349,0.348,0.348,0.348,0.348,0.348,0.348,0.348,0.348,0.348,0.348,0.347,0.347,0.346,0.345,0.3455,0.34512499999999996,0.345,0.344,0.344,0.344,0.343,0.343,0.342,0.342,0.341,0.341,0.341,0.34,0.339,0.339,0.338,0.338,0.337,0.336,0.336,0.336,0.336,0.336,0.336,0.336,0.336,0.336,0.336,0.336,0.336,0.336,0.335,0.335,0.335,0.335,0.335,0.335,0.334,0.334,0.333,0.333,0.333,0.332,0.332,0.332,0.332,0.332,0.332,0.331,0.331,0.331,0.331,0.331,0.331,0.33,0.331,0.33,0.33,0.33,0.33,0.329,0.328,0.328,0.329,0.329,0.327,0.326,0.326,0.326,0.325,0.325,0.325,0.325,0.324,0.324,0.0,0.0,0.3235,0.323,0.323,0.323,0.323,0.323,0.0,0.0,0.0,0.0,0.0,0.0,0.0,0.0,0.0,0.0,0.0,0.0,0.0,0.0,0.0,0.0,0.0,0.0,0.0,0.0,0.0,0.0,0.0,0.0,0.0,0.0,0.0,0.0,0.0,0.0,0.0,0.0,0.0,0.0,0.0,0.0,0.0,0.0,0.0,0.0,0.0,0.0,0.0,0.0,0.0,0.0,0.0,0.0
0.505,0.504,0.503,0.502,0.502,0.502,0.502,0.501,0.501,0.501,0.501,0.5,0.5,0.5,0.5,0.499,0.499,0.498,0.497,0.497,0.496,0.496,0.495,0.495,0.494,0.493,0.492,0.491,0.491,0.49,0.49,0.489,0.489,0.489,0.488,0.488,0.487,0.487,0.486,0.485,0.485,0.484,0.483,0.483,0.482,0.482,0.481,0.481,0.48,0.479,0.478,0.478,0.477,0.477,0.477,0.476,0.476,0.476,0.475,0.475,0.475,0.474,0.473,0.472,0.472,0.471,0.471,0.47,0.47,0.47,0.469,0.469,0.469,0.468,0.467,0.466,0.465,0.465,0.465,0.465,0.464,0.464,0.464,0.463,0.463,0.463,0.462,0.461,0.46,0.459,0.459,0.458,0.458,0.458,0.459,0.459,0.459,0.458,0.458,0.458,0.458,0.457,0.457,0.457,0.457,0.457,0.457,0.456,0.455,0.454,0.453,0.452,0.452,0.452,0.451,0.451,0.45,0.449,0.449,0.447,0.447,0.447,0.446,0.446,0.446,0.446,0.445,0.445,0.445,0.444,0.444,0.444,0.443,0.442,0.441,0.441,0.441,0.441,0.44,0.44,0.439,0.438,0.438,0.437,0.436,0.436,0.436,0.435,0.435,0.435,0.435,0.434,0.434,0.433,0.433,0.432,0.431,0.431,0.431,0.43,0.43,0.43,0.43,0.429,0.428,0.428,0.427,0.426,0.426,0.426,0.425,0.425,0.425,0.425,0.425,0.425,0.424,0.424,0.422,0.422,0.421,0.421,0.421,0.421,0.42025,0.4198125,0.42,0.42,0.42,0.42,0.419,0.418,0.418,0.418,0.417,0.417,0.416,0.416,0.415,0.415,0.415,0.415,0.415,0.414,0.414,0.414,0.413,0.413,0.413,0.412,0.412,0.411,0.411,0.411,0.41,0.409,0.408,0.407,0.407,0.407,0.407,0.406,0.406,0.406,0.406,0.405,0.405,0.404,0.404,0.404,0.403,0.403,0.4025,0.402,0.402,0.402,0.401,0.401,0.401,0.4,0.4,0.4,0.399,0.399,0.399,0.398,0.398,0.398,0.398,0.398,0.398,0.397,0.397,0.396,0.396,0.395,0.394,0.394,0.393,0.393,0.393,0.392,0.392,0.392,0.392,0.391,0.391,0.39,0.39,0.389,0.389,0.389,0.389,0.389,0.389,0.389,0.388,0.388,0.388,0.388,0.387,0.387,0.387,0.387,0.386,0.386,0.386,0.386,0.386,0.385,0.385,0.385,0.38375000000000004,0.383,0.382,0.382,0.382,0.381,0.381,0.381,0.381,0.381,0.38,0.38,0.379,0.378,0.377,0.377,0.377,0.376,0.376,0.376,0.376,0.376,0.376,0.375,0.375,0.374,0.374,0.374,0.373,0.373,0.373,0.0,0.0,0.372,0.372,0.372,0.372,0.371,0.371,0.37,0.0,0.37,0.369,0.369,0.369,0.369,0.368,0.368,0.367,0.367,0.367,0.367,0.366,0.366,0.366,0.366,0.366,0.365,0.365,0.364,0.3635,0.3635,0.363,0.362,0.362,0.362,0.362,0.362,0.362,0.362,0.361,0.361,0.361,0.36,0.36,0.359,0.359,0.359,0.358,0.358,0.358,0.357,0.357,0.357,0.356,0.356,0.356,0.356,0.355,0.355,0.355,0.355,0.355,0.355,0.355,0.355,0.354,0.353,0.353,0.352,0.352,0.351,0.351,0.351,0.351,0.35,0.3495,0.34975,0.35,0.349,0.349,0.349,0.349,0.348,0.348,0.348,0.348,0.348,0.348,0.348,0.348,0.348,0.347,0.347,0.347,0.346,0.346,0.345,0.345,0.345,0.345,0.344,0.344,0.344,0.343,0.342,0.342,0.342,0.342,0.342,0.341,0.341,0.341,0.34,0.339,0.338,0.33825000000000005,0.338,0.337,0.337,0.336,0.336,0.335,0.335,0.335,0.335,0.335,0.335,0.335,0.335,0.335,0.335,0.335,0.335,0.335,0.335,0.334,0.334,0.333,0.333,0.333,0.332,0.332,0.332,0.332,0.332,0.331,0.331,0.331,0.33,0.33,0.33,0.33,0.33,0.33,0.33,0.33,0.329,0.329,0.328,0.328,0.328,0.327,0.327,0.326,0.327,0.327,0.32575,0.325,0.325,0.324,0.324,0.324,0.324,0.323,0.323,0.323,0.0,0.0,0.322,0.321,0.321,0.3215,0.0,0.0,0.0,0.0,0.0,0.0,0.0,0.0,0.0,0.0,0.0,0.0,0.0,0.0,0.0,0.0,0.0,0.0,0.0,0.0,0.0,0.0,0.0,0.0,0.0,0.0,0.0,0.0,0.0,0.0,0.0,0.0,0.0,0.0,0.0,0.0,0.0,0.0,0.0,0.0,0.0,0.0,0.0,0.0,0.0,0.0,0.0,0.0,0.0,0.0
0.502,0.502,0.502,0.501,0.501,0.5,0.5,0.5,0.499,0.499,0.499,0.498,0.498,0.497,0.497,0.496,0.496,0.495,0.495,0.495,0.495,0.493,0.493,0.492,0.491,0.491,0.49,0.489,0.489,0.489,0.488,0.488,0.488,0.487,0.486,0.484,0.484,0.483,0.482,0.482,0.482,0.482,0.482,0.481,0.481,0.479,0.478,0.477,0.477,0.477,0.476,0.476,0.476,0.475,0.475,0.475,0.474,0.474,0.473,0.472,0.471,0.471,0.47,0.47,0.47,0.469,0.469,0.469,0.469,0.468,0.468,0.467,0.465,0.465,0.464,0.464,0.464,0.463,0.463,0.463,0.463,0.463,0.463,0.462,0.461,0.46,0.459,0.458,0.458,0.458,0.457,0.457,0.457,0.457,0.456,0.456,0.457,0.457,0.457,0.457,0.456,0.456,0.456,0.455,0.454,0.453,0.453,0.453,0.452,0.452,0.452,0.451,0.449,0.448,0.448,0.447,0.447,0.447,0.447,0.446,0.446,0.446,0.445,0.445,0.444,0.444,0.443,0.442,0.442,0.442,0.441,0.441,0.441,0.441,0.44,0.44,0.439,0.438,0.438,0.437,0.436,0.436,0.436,0.436,0.436,0.435,0.434,0.434,0.433,0.433,0.433,0.432,0.432,0.432,0.431,0.431,0.43,0.43,0.43,0.429,0.428,0.427,0.427,0.426,0.426,0.426,0.425,0.425,0.425,0.424,0.424,0.424,0.424,0.423,0.423,0.422,0.422,0.421,0.421,0.42,0.42,0.42,0.42,0.42,0.419,0.418,0.418,0.418,0.418,0.417,0.417,0.416,0.416,0.416,0.415,0.415,0.415,0.415,0.414,0.414,0.414,0.413,0.413,0.412,0.412,0.412,0.411,0.411,0.411,0.411,0.411,0.41,0.408,0.408,0.407,0.407,0.406,0.406,0.405,0.405,0.405,0.405,0.404,0.404,0.404,0.404,0.403,0.402,0.402,0.402,0.402,0.40125000000000005,0.401,0.4,0.4,0.4,0.4,0.399,0.399,0.398,0.398,0.398,0.398,0.398,0.398,0.398,0.397,0.397,0.397,0.397,0.397,0.396,0.395,0.394,0.394,0.393,0.393,0.393,0.393,0.392,0.391,0.391,0.391,0.39,0.39,0.389,0.389,0.389,0.389,0.389,0.389,0.388,0.388,0.388,0.387,0.387,0.386,0.386,0.386,0.386,0.386,0.386,0.385,0.385,0.385,0.385,0.385,0.385,0.385,0.385,0.384,0.383,0.382,0.382,0.381,0.381,0.381,0.381,0.381,0.38,0.38,0.38,0.378,0.377,0.377,0.377,0.377,0.376,0.376,0.375,0.375,0.375,0.375,0.374,0.374,0.374,0.373,0.373,0.373,0.372,0.372,0.372,0.372,0.371,0.371,0.371,0.37,0.37,0.37,0.37,0.369,0.369,0.369,0.369,0.368,0.368,0.367,0.367,0.366,0.366,0.366,0.366,0.366,0.366,0.366,0.366,0.365,0.365,0.364,0.364,0.362,0.362,0.362,0.362,0.362,0.362,0.361,0.361,0.361,0.361,0.36,0.36,0.36,0.359,0.359,0.359,0.0,0.358,0.358,0.358,0.357,0.357,0.357,0.356,0.356,0.355,0.355,0.355,0.355,0.355,0.355,0.355,0.355,0.354,0.354,0.354,0.353,0.352,0.352,0.352,0.352,0.351,0.351,0.35,0.35,0.349,0.349,0.3485,0.348,0.0,0.0,0.348,0.348,0.348,0.348,0.348,0.348,0.348,0.348,0.348,0.348,0.347,0.347,0.347,0.345,0.345,0.345,0.345,0.345,0.345,0.344,0.344,0.343,0.342,0.342,0.342,0.342,0.341,0.341,0.341,0.341,0.341,0.34,0.339,0.339,0.339,0.338,0.338,0.338,0.337,0.336,0.336,0.336,0.335,0.335,0.335,0.335,0.335,0.335,0.335,0.335,0.335,0.335,0.334,0.334,0.334,0.333,0.333,0.333,0.333,0.332,0.332,0.332,0.332,0.331,0.331,0.331,0.331,0.33,0.33,0.33,0.33,0.329,0.33,0.329,0.329,0.329,0.329,0.329,0.328,0.328,0.327,0.327,0.326,0.326,0.326,0.325,0.325,0.325,0.324,0.324,0.324,0.324,0.323,0.323,0.323,0.323,0.323,0.322,0.321,0.321,0.321,0.321,0.32,0.32,0.0,0.0,0.0,0.0,0.0,0.0,0.0,0.0,0.0,0.0,0.0,0.0,0.0,0.0,0.0,0.0,0.0,0.0,0.0,0.0,0.0,0.0,0.0,0.0,0.0,0.0,0.0,0.0,0.0,0.0,0.0,0.0,0.0,0.0,0.0,0.0,0.0,0.0,0.0,0.0,0.0,0.0,0.0,0.0,0.0,0.0,0.0,0.0,0.0,0.0
0.501,0.5,0.499,0.499,0.499,0.498,0.498,0.497,0.497,0.497,0.496,0.496,0.496,0.495,0.495,0.495,0.495,0.494,0.493,0.492,0.491,0.49,0.49,0.489,0.489,0.488,0.488,0.488,0.487,0.487,0.485,0.485,0.484,0.483,0.483,0.482,0.482,0.482,0.481,0.481,0.48,0.48,0.478,0.478,0.477,0.476,0.476,0.476,0.476,0.475,0.475,0.475,0.474,0.474,0.473,0.473,0.471,0.471,0.47,0.47,0.47,0.469,0.469,0.469,0.469,0.468,0.468,0.467,0.465,0.465,0.464,0.464,0.464,0.463,0.463,0.463,0.462,0.462,0.462,0.462,0.462,0.461,0.461,0.459,0.458,0.458,0.458,0.457,0.457,0.457,0.456,0.455,0.455,0.454,0.453,0.453,0.453,0.453,0.453,0.454,0.453,0.453,0.453,0.452,0.452,0.452,0.452,0.451,0.45,0.449,0.448,0.447,0.446,0.446,0.446,0.446,0.445,0.445,0.445,0.445,0.444,0.444,0.443,0.443,0.442,0.442,0.441,0.441,0.441,0.441,0.44,0.44,0.439,0.438,0.437,0.437,0.436,0.436,0.436,0.436,0.436,0.435,0.435,0.434,0.433,0.433,0.432,0.432,0.432,0.431,0.431,0.431,0.431,0.43,0.43,0.429,0.428,0.427,0.426,0.426,0.426,0.426,0.425,0.42475,0.425,0.425,0.424,0.423,0.422,0.422,0.421,0.421,0.421,0.421,0.421,0.421,0.421,0.42,0.42,0.42,0.419,0.418,0.418,0.417,0.417,0.416,0.416,0.416,0.416,0.416,0.415,0.415,0.415,0.414,0.414,0.413,0.412,0.412,0.412,0.411,0.411,0.411,0.411,0.411,0.411,0.411,0.41,0.41,0.41,0.408,0.4085,0.407875,0.407,0.406,0.406,0.406,0.405,0.405,0.404,0.404,0.404,0.404,0.403,0.402,0.402,0.402,0.402,0.402,0.401,0.401,0.4,0.399,0.399,0.398,0.398,0.398,0.398,0.398,0.398,0.398,0.398,0.398,0.397,0.397,0.397,0.397,0.396,0.395,0.395,0.395,0.394,0.394,0.0,0.0,0.393,0.392,0.392,0.391,0.391,0.391,0.39,0.39,0.389,0.389,0.389,0.389,0.389,0.388,0.388,0.388,0.388,0.387,0.386,0.386,0.386,0.386,0.385,0.385,0.385,0.385,0.385,0.385,0.385,0.385,0.384,0.384,0.384,0.383,0.383,0.382,0.381,0.381,0.381,0.381,0.38,0.379,0.379,0.379,0.379,0.378,0.378,0.377,0.377,0.377,0.376,0.376,0.376,0.376,0.375,0.374,0.374,0.374,0.374,0.373,0.373,0.373,0.373,0.372,0.371,0.371,0.37,0.37,0.37,0.37,0.369,0.369,0.369,0.369,0.369,0.369,0.368,0.368,0.367,0.366,0.366,0.366,0.366,0.366,0.366,0.365,0.365,0.365,0.365,0.365,0.364,0.364,0.364,0.363,0.363,0.362,0.362,0.361,0.361,0.361,0.36,0.36,0.36,0.36,0.359,0.359,0.359,0.359,0.359,0.358,0.358,0.358,0.3575,0.357,0.357,0.357,0.356,0.355,0.355,0.355,0.355,0.355,0.355,0.354,0.354,0.354,0.354,0.353,0.353,0.353,0.352,0.352,0.352,0.351,0.351,0.351,0.351,0.35,0.35,0.349,0.348,0.348,0.348,0.34775,0.3475,0.0,0.0,0.348,0.348,0.348,0.348,0.348,0.348,0.348,0.347,0.347,0.347,0.346,0.345,0.345,0.345,0.344,0.344,0.343,0.343,0.343,0.342,0.342,0.341,0.341,0.341,0.341,0.341,0.341,0.34,0.34,0.34,0.339,0.339,0.338,0.338,0.337,0.337,0.337,0.336,0.336,0.336,0.336,0.335,0.335,0.335,0.335,0.335,0.335,0.335,0.334,0.334,0.334,0.334,0.333,0.333,0.333,0.332,0.332,0.332,0.332,0.332,0.331,0.331,0.33,0.33,0.33,0.33,0.329,0.329,0.329,0.328,0.328,0.328,0.328,0.328,0.328,0.328,0.328,0.327,0.327,0.327,0.326,0.326,0.326,0.324,0.324,0.324,0.323,0.323,0.323,0.323,0.323,0.323,0.323,0.323,0.322,0.321,0.321,0.321,0.32,0.32,0.32,0.32,0.32,0.32,0.32,0.0,0.0,0.0,0.0,0.0,0.0,0.0,0.0,0.0,0.0,0.0,0.0,0.0,0.0,0.0,0.0,0.0,0.0,0.0,0.0,0.0,0.0,0.0,0.0,0.0,0.0,0.0,0.0,0.0,0.0,0.0,0.0,0.0,0.0,0.0,0.0,0.0,0.0,0.0,0.0,0.0,0.0,0.0,0.0,0.0,0.0,0.0,0.0,0.0
0.498,0.497,0.497,0.497,0.496,0.496,0.496,0.496,0.496,0.495,0.495,0.495,0.495,0.495,0.494,0.493,0.492,0.491,0.491,0.49,0.489,0.489,0.488,0.488,0.488,0.487,0.486,0.485,0.484,0.483,0.483,0.482,0.482,0.482,0.481,0.481,0.48,0.479,0.478,0.477,0.477,0.476,0.476,0.476,0.475,0.475,0.475,0.475,0.474,0.473,0.473,0.472,0.471,0.471,0.47,0.47,0.47,0.469,0.469,0.469,0.468,0.468,0.467,0.467,0.466,0.465,0.465,0.464,0.464,0.463,0.463,0.463,0.462,0.462,0.461,0.46,0.46,0.459,0.459,0.459,0.458,0.458,0.458,0.457,0.457,0.457,0.456,0.456,0.455,0.454,0.453,0.453,0.453,0.452,0.452,0.452,0.452,0.452,0.451,0.451,0.45,0.452,0.452,0.451,0.451,0.449,0.449,0.448,0.447,0.446,0.446,0.445,0.444,0.444,0.443,0.443,0.442,0.442,0.442,0.442,0.442,0.442,0.441,0.441,0.441,0.441,0.44,0.44,0.439,0.439,0.438,0.437,0.436,0.436,0.436,0.436,0.435,0.435,0.435,0.435,0.433,0.433,0.433,0.432,0.432,0.431,0.431,0.431,0.431,0.431,0.43,0.43,0.43,0.429,0.427,0.426,0.426,0.425,0.425,0.425,0.425,0.424,0.424,0.423,0.422,0.422,0.421,0.421,0.421,0.421,0.421,0.42,0.42,0.42,0.42,0.42,0.419,0.419,0.418,0.417,0.417,0.416,0.416,0.416,0.416,0.415,0.415,0.415,0.415,0.414,0.414,0.413,0.413,0.412,0.411,0.411,0.411,0.411,0.411,0.41,0.41,0.41,0.41,0.41,0.409,0.408,0.408,0.407,0.407,0.407,0.406,0.406,0.406,0.405,0.405,0.404,0.404,0.403,0.403,0.403,0.403,0.402,0.402,0.402,0.402,0.401,0.401,0.4,0.399,0.399,0.398,0.398,0.398,0.397,0.397,0.397,0.397,0.397,0.397,0.397,0.397,0.397,0.397,0.396,0.395,0.394,0.394,0.394,0.394,0.393,0.393,0.393,0.0,0.0,0.391,0.391,0.39,0.389,0.389,0.389,0.389,0.389,0.389,0.388,0.388,0.388,0.388,0.387,0.387,0.386,0.386,0.385,0.385,0.385,0.385,0.385,0.385,0.384,0.384,0.384,0.383,0.383,0.383,0.382,0.382,0.382,0.382,0.381,0.381,0.381,0.38,0.38,0.379,0.378,0.377,0.377,0.377,0.377,0.377,0.377,0.377,0.376,0.376,0.376,0.375,0.375,0.374,0.374,0.374,0.373,0.373,0.373,0.373,0.373,0.372,0.372,0.371,0.37,0.37,0.37,0.369,0.369,0.369,0.369,0.369,0.368,0.368,0.368,0.367,0.366,0.366,0.366,0.366,0.366,0.365,0.365,0.365,0.365,0.364,0.364,0.364,0.364,0.363,0.363,0.363,0.363,0.362,0.362,0.362,0.361,0.361,0.36,0.36,0.36,0.359,0.359,0.359,0.359,0.358,0.358,0.358,0.358,0.357,0.357,0.35649999999999993,0.356,0.35587499999999994,0.355,0.355,0.355,0.355,0.355,0.355,0.355,0.354,0.354,0.354,0.353,0.353,0.353,0.352,0.352,0.352,0.352,0.352,0.351,0.351,0.35,0.35,0.35,0.34924999999999995,0.348,0.348,0.348,0.348,0.348,0.347,0.347,0.347,0.347,0.347,0.347,0.347,0.347,0.347,0.347,0.347,0.346,0.346,0.346,0.345,0.345,0.345,0.344,0.344,0.343,0.342,0.342,0.341,0.341,0.341,0.341,0.341,0.34,0.34,0.34,0.339,0.339,0.339,0.339,0.338,0.338,0.338,0.337,0.337,0.336,0.336,0.336,0.335,0.335,0.335,0.335,0.335,0.335,0.335,0.334,0.334,0.334,0.333,0.333,0.333,0.333,0.333,0.332,0.332,0.332,0.332,0.332,0.332,0.331,0.33,0.33,0.33,0.329,0.329,0.329,0.328,0.327,0.327,0.327,0.327,0.327,0.327,0.327,0.327,0.327,0.327,0.327,0.326,0.326,0.326,0.326,0.324,0.324,0.323,0.323,0.323,0.323,0.323,0.322,0.322,0.322,0.322,0.322,0.321,0.321,0.32,0.32,0.32,0.319,0.319,0.319,0.319,0.318,0.319,0.319,0.319,0.0,0.0,0.0,0.0,0.0,0.0,0.0,0.0,0.0,0.0,0.0,0.0,0.0,0.0,0.0,0.0,0.0,0.0,0.0,0.0,0.0,0.0,0.0,0.0,0.0,0.0,0.0,0.0,0.0,0.0,0.0,0.0,0.0,0.0,0.0,0.0,0.0,0.0,0.0,0.0,0.0,0.0,0.0,0.0,0.0,0.0,0.0,0.0
0.496,0.496,0.496,0.495,0.495,0.495,0.495,0.495,0.495,0.494,0.494,0.493,0.493,0.493,0.491,0.49,0.49,0.489,0.489,0.489,0.488,0.488,0.487,0.486,0.484,0.483,0.483,0.482,0.482,0.482,0.481,0.481,0.48,0.48,0.479,0.478,0.477,0.476,0.476,0.476,0.476,0.475,0.475,0.475,0.474,0.473,0.473,0.472,0.472,0.471,0.47,0.47,0.47,0.469,0.469,0.469,0.468,0.468,0.467,0.467,0.466,0.465,0.465,0.464,0.464,0.463,0.463,0.463,0.462,0.461,0.461,0.46,0.46,0.459,0.458,0.458,0.457,0.457,0.457,0.457,0.457,0.0,0.0,0.0,0.454,0.454,0.453,0.453,0.452,0.452,0.452,0.452,0.452,0.451,0.451,0.451,0.45,0.449,0.449,0.4485,0.448,0.447,0.447,0.449,0.448,0.447,0.447,0.446,0.445,0.444,0.443,0.442,0.442,0.442,0.441,0.441,0.441,0.441,0.441,0.441,0.441,0.441,0.44,0.44,0.439,0.439,0.438,0.437,0.437,0.436,0.436,0.436,0.436,0.43475,0.435,0.433,0.433,0.433,0.433,0.432,0.432,0.431,0.431,0.431,0.431,0.431,0.431,0.43,0.43,0.43,0.429,0.427,0.426,0.426,0.425,0.425,0.425,0.424,0.424,0.424,0.423,0.422,0.422,0.421,0.421,0.421,0.42,0.42,0.42,0.42,0.42,0.419,0.419,0.418,0.418,0.417,0.417,0.417,0.416,0.416,0.416,0.416,0.415,0.415,0.414,0.414,0.413,0.413,0.412,0.412,0.412,0.411,0.411,0.411,0.411,0.41,0.41,0.409,0.408,0.408,0.408,0.408,0.407,0.40800000000000003,0.4075,0.407,0.406,0.406,0.406,0.405,0.404,0.404,0.403,0.403,0.403,0.402,0.402,0.402,0.402,0.402,0.402,0.401,0.401,0.4,0.4,0.399,0.399,0.398,0.398,0.398,0.397,0.397,0.397,0.397,0.396,0.396,0.396,0.395,0.395,0.394,0.394,0.394,0.394,0.394,0.393,0.393,0.393,0.393,0.392,0.392,0.391,0.391,0.0,0.0,0.389,0.389,0.389,0.389,0.389,0.388,0.388,0.387,0.387,0.386,0.386,0.386,0.386,0.385,0.385,0.385,0.385,0.385,0.384,0.384,0.384,0.383,0.383,0.382,0.382,0.382,0.382,0.381,0.381,0.381,0.381,0.381,0.381,0.38,0.38,0.379,0.379,0.377,0.377,0.377,0.377,0.376,0.376,0.376,0.376,0.375,0.375,0.374,0.374,0.373,0.373,0.373,0.373,0.373,0.373,0.373,0.3725,0.372,0.371,0.371,0.37,0.37,0.37,0.369,0.369,0.369,0.369,0.368,0.368,0.367,0.367,0.0,0.3665,0.366,0.366,0.366,0.365,0.365,0.365,0.365,0.364,0.364,0.364,0.364,0.363,0.363,0.363,0.362,0.362,0.362,0.362,0.362,0.361,0.361,0.36,0.36,0.359,0.359,0.359,0.359,0.358,0.358,0.358,0.358,0.358,0.357,0.357,0.356,0.356,0.355,0.355,0.355,0.355,0.355,0.354,0.354,0.354,0.354,0.354,0.353,0.353,0.353,0.352,0.352,0.352,0.352,0.352,0.351,0.351,0.351,0.351,0.35,0.35,0.349,0.349,0.348,0.348,0.348,0.348,0.347,0.347,0.346,0.346,0.345,0.345,0.346,0.345,0.345,0.345,0.346,0.346,0.346,0.346,0.345,0.345,0.345,0.345,0.344,0.344,0.343,0.342,0.342,0.342,0.341,0.341,0.34,0.34,0.33975,0.339,0.339,0.339,0.339,0.339,0.338,0.338,0.338,0.337,0.336,0.33625000000000005,0.336,0.336,0.335,0.335,0.335,0.335,0.335,0.335,0.335,0.334,0.334,0.333,0.333,0.333,0.333,0.333,0.333,0.332,0.332,0.33225000000000005,0.332,0.332,0.331,0.331,0.331,0.33,0.33,0.329,0.329,0.328,0.328,0.327,0.327,0.327,0.327,0.326,0.326,0.326,0.326,0.326,0.326,0.326,0.326,0.0,0.0,0.0,0.0,0.324,0.323,0.323,0.323,0.323,0.322,0.322,0.322,0.322,0.321,0.321,0.321,0.321,0.321,0.321,0.32025000000000003,0.32,0.319,0.319,0.319,0.318,0.318,0.318,0.318,0.318,0.318,0.0,0.0,0.0,0.0,0.0,0.0,0.0,0.0,0.0,0.0,0.0,0.0,0.0,0.0,0.0,0.0,0.0,0.0,0.0,0.0,0.0,0.0,0.0,0.0,0.0,0.0,0.0,0.0,0.0,0.0,0.0,0.0,0.0,0.0,0.0,0.0,0.0,0.0,0.0,0.0,0.0,0.0,0.0,0.0,0.0,0.0,0.0,0.0,0.0
0.495,0.495,0.495,0.494,0.494,0.493,0.493,0.492,0.492,0.492,0.491,0.491,0.49,0.49,0.489,0.489,0.489,0.488,0.488,0.487,0.487,0.485,0.483,0.483,0.482,0.482,0.481,0.481,0.48,0.479,0.479,0.478,0.477,0.476,0.476,0.476,0.475,0.475,0.475,0.474,0.474,0.474,0.473,0.473,0.472,0.471,0.471,0.47,0.47,0.469,0.469,0.469,0.468,0.468,0.468,0.467,0.466,0.465,0.465,0.465,0.464,0.463,0.463,0.463,0.463,0.462,0.461,0.46,0.459,0.459,0.458,0.458,0.458,0.458,0.457,0.456,0.456,0.455,0.455,0.455,0.454,0.0,0.0,0.0,0.452,0.452,0.452,0.452,0.451,0.451,0.451,0.45,0.449,0.449,0.448,0.448,0.448,0.447,0.0,0.0,0.0,0.446,0.446,0.444,0.444,0.445,0.444,0.443,0.442,0.442,0.441,0.441,0.441,0.441,0.441,0.44,0.44,0.44,0.44,0.44,0.439,0.439,0.438,0.438,0.437,0.436,0.436,0.436,0.436,0.435,0.435,0.434,0.434,0.432,0.432,0.431,0.431,0.431,0.431,0.431,0.431,0.431,0.43,0.43,0.43,0.43,0.43,0.429,0.428,0.426,0.426,0.425,0.425,0.425,0.424,0.424,0.423,0.422,0.422,0.422,0.421,0.421,0.42,0.42,0.42,0.42,0.42,0.419,0.418,0.418,0.418,0.417,0.417,0.416,0.416,0.416,0.416,0.415,0.415,0.415,0.415,0.414,0.414,0.413,0.412,0.412,0.412,0.411,0.411,0.411,0.411,0.41,0.41,0.409,0.409,0.408,0.407,0.407,0.407,0.407,0.406,0.406,0.406,0.406,0.406,0.406,0.405,0.405,0.404,0.403,0.403,0.402,0.402,0.402,0.402,0.401,0.401,0.401,0.401,0.401,0.4,0.4,0.399,0.399,0.399,0.398,0.398,0.398,0.397,0.397,0.397,0.396,0.395,0.394,0.394,0.394,0.394,0.394,0.0,0.0,0.393,0.393,0.393,0.392,0.392,0.0,0.0,0.391,0.389,0.389,0.389,0.389,0.389,0.388,0.388,0.388,0.387,0.387,0.387,0.386,0.386,0.386,0.385,0.385,0.385,0.385,0.385,0.385,0.384,0.383,0.383,0.382,0.382,0.382,0.382,0.381,0.381,0.381,0.381,0.381,0.38075,0.381,0.38,0.38,0.38,0.379,0.379,0.378,0.377,0.377,0.377,0.376,0.376,0.376,0.375,0.374,0.374,0.374,0.373,0.373,0.373,0.373,0.373,0.373,0.372,0.372,0.371,0.371,0.371,0.0,0.0,0.3705,0.369,0.369,0.369,0.369,0.369,0.369,0.368,0.367,0.366,0.366,0.366,0.366,0.0,0.0,0.365,0.365,0.365,0.365,0.364,0.364,0.364,0.363,0.363,0.363,0.363,0.362,0.362,0.362,0.362,0.362,0.361,0.361,0.361,0.36,0.36,0.359,0.359,0.359,0.358,0.358,0.358,0.358,0.358,0.357,0.356,0.356,0.356,0.356,0.355,0.355,0.355,0.355,0.354,0.354,0.354,0.353,0.353,0.352,0.0,0.0,0.0,0.352,0.352,0.352,0.351,0.351,0.351,0.351,0.351,0.35,0.35,0.349,0.349,0.348,0.348,0.348,0.348,0.347,0.347,0.346,0.346,0.346,0.345,0.345,0.345,0.345,0.345,0.345,0.345,0.345,0.345,0.345,0.345,0.345,0.345,0.345,0.345,0.345,0.344,0.343,0.342,0.342,0.342,0.341,0.34,0.34,0.339,0.339,0.339,0.339,0.338,0.338,0.338,0.338,0.338,0.337,0.337,0.336,0.336,0.336,0.335,0.335,0.335,0.335,0.335,0.335,0.335,0.334,0.334,0.333,0.333,0.333,0.333,0.333,0.332,0.332,0.332,0.332,0.332,0.332,0.332,0.332,0.331,0.33,0.33,0.33,0.329,0.329,0.328,0.328,0.327,0.327,0.326,0.326,0.326,0.326,0.326,0.326,0.326,0.325,0.325,0.325,0.325,0.325,0.0,0.0,0.0,0.0,0.323,0.322,0.322,0.322,0.322,0.321,0.321,0.321,0.321,0.321,0.321,0.32,0.32,0.32,0.32,0.319,0.319,0.318,0.318,0.318,0.318,0.318,0.318,0.318,0.318,0.318,0.0,0.0,0.0,0.0,0.0,0.0,0.0,0.0,0.0,0.0,0.0,0.0,0.0,0.0,0.0,0.0,0.0,0.0,0.0,0.0,0.0,0.0,0.0,0.0,0.0,0.0,0.0,0.0,0.0,0.0,0.0,0.0,0.0,0.0,0.0,0.0,0.0,0.0,0.0,0.0,0.0,0.0,0.0,0.0,0.0,0.0,0.0,0.0,0.0
0.494,0.493,0.492,0.492,0.491,0.49,0.49,0.489,0.489,0.489,0.489,0.489,0.489,0.488,0.488,0.488,0.487,0.487,0.486,0.485,0.483,0.482,0.482,0.481,0.481,0.48,0.479,0.478,0.477,0.476,0.476,0.476,0.475,0.475,0.474,0.474,0.474,0.473,0.473,0.472,0.471,0.471,0.471,0.47,0.47,0.469,0.469,0.469,0.468,0.468,0.467,0.467,0.466,0.465,0.465,0.464,0.464,0.464,0.464,0.463,0.463,0.463,0.461,0.46,0.46,0.459,0.458,0.458,0.458,0.457,0.457,0.457,0.456,0.455,0.455,0.454,0.453,0.453,0.452,0.452,0.452,0.0,0.0,0.0,0.45,0.449,0.449,0.449,0.449,0.448,0.448,0.448,0.447,0.447,0.447,0.447,0.446,0.446,0.0,0.0,0.0,0.444,0.443,0.442,0.442,0.441,0.441,0.44,0.441,0.441,0.44,0.44,0.439,0.439,0.438,0.438,0.438,0.438,0.438,0.437,0.437,0.436,0.436,0.436,0.436,0.435,0.435,0.434,0.433,0.432,0.432,0.431,0.431,0.431,0.431,0.43,0.43,0.43,0.43,0.43,0.43,0.429,0.429,0.429,0.428,0.428,0.427,0.426,0.426,0.425,0.425,0.424,0.423,0.423,0.422,0.421,0.421,0.421,0.421,0.42,0.42,0.42,0.42,0.419,0.418,0.418,0.418,0.417,0.417,0.416,0.416,0.416,0.416,0.415,0.415,0.415,0.414,0.413,0.413,0.413,0.413,0.412,0.412,0.412,0.411,0.411,0.411,0.411,0.41,0.41,0.409,0.409,0.408,0.407,0.407,0.407,0.406,0.406,0.406,0.406,0.406,0.405,0.405,0.405,0.404,0.404,0.404,0.403,0.402,0.402,0.402,0.401,0.401,0.401,0.4,0.4,0.4,0.4,0.399,0.399,0.398,0.398,0.398,0.398,0.398,0.397,0.397,0.397,0.396,0.395,0.394,0.394,0.394,0.393,0.393,0.393,0.393,0.393,0.0,0.0,0.391,0.391,0.39,0.39,0.0,0.0,0.0,0.389,0.388,0.387,0.387,0.387,0.387,0.386,0.386,0.386,0.385,0.386,0.385,0.385,0.385,0.385,0.385,0.384,0.384,0.384,0.383,0.382,0.382,0.381,0.381,0.381,0.381,0.381,0.381,0.381,0.381,0.381,0.38,0.38,0.379,0.379,0.378,0.378,0.377,0.377,0.377,0.377,0.377,0.376,0.376,0.375,0.374,0.374,0.373,0.373,0.373,0.373,0.373,0.373,0.372,0.372,0.371,0.371,0.371,0.37,0.37,0.37,0.3695,0.0,0.0,0.369,0.369,0.368,0.368,0.368,0.367,0.367,0.36650000000000005,0.366,0.365,0.365,0.364,0.364,0.364,0.364,0.364,0.363,0.363,0.363,0.363,0.363,0.362,0.362,0.362,0.362,0.362,0.362,0.361,0.361,0.361,0.361,0.36,0.36,0.359,0.359,0.359,0.358,0.358,0.358,0.358,0.357,0.356,0.356,0.356,0.355,0.355,0.355,0.355,0.355,0.355,0.354,0.354,0.354,0.353,0.353,0.352,0.352,0.352,0.351,0.0,0.0,0.0,0.351,0.351,0.351,0.351,0.35,0.35,0.35,0.349,0.349,0.348,0.348,0.348,0.348,0.347,0.346,0.346,0.345,0.345,0.345,0.345,0.345,0.345,0.345,0.345,0.344,0.344,0.344,0.344,0.0,0.0,0.0,0.0,0.0,0.344,0.344,0.344,0.343,0.342,0.342,0.342,0.34075000000000005,0.34,0.339,0.339,0.339,0.339,0.338,0.338,0.338,0.338,0.338,0.338,0.337,0.337,0.336,0.336,0.336,0.335,0.335,0.335,0.335,0.335,0.334,0.334,0.333,0.333,0.333,0.333,0.333,0.332,0.332,0.332,0.332,0.332,0.332,0.332,0.332,0.332,0.332,0.331,0.331,0.33,0.329,0.329,0.329,0.328,0.328,0.327,0.32675000000000004,0.326,0.326,0.326,0.326,0.325,0.325,0.325,0.325,0.324,0.324,0.324,0.324,0.324,0.324,0.0,0.0,0.0,0.322,0.321,0.321,0.321,0.321,0.321,0.321,0.32,0.32,0.32,0.32,0.32,0.319,0.319,0.318,0.318,0.318,0.318,0.318,0.318,0.317,0.317,0.317,0.317,0.317,0.317,0.3165,0.0,0.0,0.0,0.0,0.0,0.0,0.0,0.0,0.0,0.0,0.0,0.0,0.0,0.0,0.0,0.0,0.0,0.0,0.0,0.0,0.0,0.0,0.0,0.0,0.0,0.0,0.0,0.0,0.0,0.0,0.0,0.0,0.0,0.0,0.0,0.0,0.0,0.0,0.0,0.0,0.0,0.0,0.0,0.0,0.0,0.0,0.0,0.0,0.0
0.491,0.49,0.489,0.489,0.489,0.488,0.488,0.488,0.488,0.487,0.487,0.487,0.487,0.486,0.486,0.485,0.484,0.483,0.482,0.482,0.482,0.481,0.48,0.479,0.478,0.477,0.476,0.476,0.476,0.475,0.475,0.474,0.473,0.473,0.472,0.472,0.471,0.471,0.47,0.47,0.47,0.469,0.469,0.469,0.468,0.468,0.467,0.466,0.465,0.465,0.465,0.464,0.464,0.463,0.463,0.463,0.463,0.462,0.461,0.461,0.461,0.46,0.459,0.458,0.458,0.457,0.457,0.457,0.457,0.455,0.455,0.455,0.453,0.453,0.452,0.452,0.452,0.452,0.451,0.451,0.449,0.448,0.448,0.447,0.447,0.447,0.447,0.447,0.4475,0.446625,0.446,0.446,0.446,0.446,0.446,0.446,0.445,0.444,0.443,0.442,0.442,0.441,0.441,0.441,0.44,0.44,0.439,0.437,0.436,0.436,0.437,0.437,0.437,0.437,0.436,0.436,0.436,0.436,0.436,0.436,0.436,0.435,0.435,0.434,0.433,0.432,0.431,0.431,0.431,0.431,0.43,0.43,0.43,0.43,0.429,0.429,0.428,0.428,0.428,0.428,0.427,0.427,0.426,0.426,0.426,0.425,0.425,0.425,0.424,0.423,0.423,0.42225,0.421,0.421,0.421,0.42,0.42,0.42,0.42,0.419,0.419,0.418,0.418,0.417,0.417,0.417,0.416,0.416,0.416,0.415,0.415,0.415,0.413,0.413,0.412,0.412,0.411,0.411,0.411,0.411,0.411,0.411,0.411,0.41,0.41,0.41,0.41,0.409,0.409,0.409,0.407,0.407,0.407,0.406,0.406,0.406,0.405,0.405,0.404,0.404,0.404,0.404,0.403,0.403,0.403,0.402,0.402,0.402,0.402,0.401,0.4,0.4,0.4,0.399,0.399,0.398,0.398,0.398,0.398,0.398,0.397,0.397,0.397,0.397,0.397,0.395,0.394,0.394,0.394,0.393,0.393,0.393,0.393,0.392,0.392,0.391,0.391,0.39,0.0,0.0,0.389,0.389,0.389,0.388,0.0,0.0,0.0,0.386,0.386,0.385,0.385,0.385,0.385,0.385,0.385,0.385,0.385,0.385,0.385,0.384,0.384,0.384,0.383,0.382,0.382,0.382,0.381,0.381,0.381,0.381,0.38,0.38,0.38,0.38,0.38,0.38,0.38,0.38,0.379,0.378,0.378,0.377,0.377,0.377,0.377,0.376,0.376,0.376,0.375,0.374,0.374,0.373,0.373,0.373,0.373,0.373,0.372,0.371,0.371,0.371,0.371,0.37,0.37,0.37,0.369,0.369,0.369,0.369,0.368,0.368,0.367,0.367,0.367,0.366,0.366,0.366,0.366,0.365,0.365,0.364,0.364,0.363,0.363,0.363,0.363,0.362,0.362,0.362,0.362,0.362,0.362,0.362,0.362,0.362,0.361,0.361,0.361,0.36,0.36,0.36,0.359,0.359,0.359,0.359,0.359,0.358,0.358,0.358,0.357,0.356,0.356,0.355,0.355,0.355,0.355,0.355,0.354,0.354,0.354,0.354,0.353,0.353,0.352,0.352,0.352,0.351,0.351,0.351,0.351,0.35,0.35,0.35,0.35,0.35,0.349,0.349,0.349,0.349,0.349,0.348,0.348,0.348,0.347,0.347,0.346,0.346,0.345,0.345,0.345,0.345,0.345,0.345,0.344,0.344,0.344,0.344,0.343,0.343,0.343,0.343,0.343,0.0,0.0,0.0,0.0,0.0,0.343,0.342,0.342,0.342,0.341,0.34,0.34,0.339,0.339,0.338,0.338,0.338,0.338,0.337,0.336,0.336,0.336,0.336,0.336,0.3355,0.335,0.335,0.335,0.335,0.335,0.334,0.334,0.334,0.333,0.333,0.333,0.332,0.332,0.332,0.332,0.332,0.332,0.332,0.332,0.332,0.332,0.331,0.331,0.331,0.331,0.329,0.329,0.329,0.329,0.328,0.328,0.327,0.326,0.326,0.326,0.326,0.325,0.325,0.325,0.324,0.324,0.324,0.324,0.324,0.323,0.323,0.323,0.323,0.323,0.322,0.322,0.321,0.321,0.32,0.32,0.32,0.32,0.32,0.32,0.32,0.319,0.319,0.319,0.319,0.318,0.318,0.318,0.318,0.318,0.317,0.317,0.317,0.316,0.316,0.316,0.316,0.316,0.316,0.315,0.315,0.0,0.0,0.0,0.0,0.0,0.0,0.0,0.0,0.0,0.0,0.0,0.0,0.0,0.0,0.0,0.0,0.0,0.0,0.0,0.0,0.0,0.0,0.0,0.0,0.0,0.0,0.0,0.0,0.0,0.0,0.0,0.0,0.0,0.0,0.0,0.0,0.0,0.0,0.0,0.0,0.0,0.0,0.0,0.0,0.0,0.0,0.0,0.0,0.0
0.489,0.489,0.488,0.488,0.487,0.487,0.486,0.485,0.485,0.485,0.484,0.484,0.483,0.483,0.483,0.482,0.482,0.481,0.481,0.48,0.479,0.478,0.477,0.476,0.476,0.476,0.475,0.474,0.474,0.473,0.472,0.472,0.471,0.471,0.47,0.47,0.47,0.469,0.469,0.469,0.469,0.468,0.467,0.4665,0.466,0.46575000000000005,0.465,0.464,0.464,0.464,0.463,0.463,0.463,0.462,0.461,0.461,0.46,0.459,0.459,0.458,0.458,0.458,0.457,0.457,0.457,0.456,0.455,0.454,0.453,0.453,0.453,0.452,0.452,0.452,0.452,0.451,0.451,0.448,0.448,0.447,0.447,0.447,0.446,0.446,0.446,0.446,0.446,0.446,0.446,0.445,0.445,0.445,0.444,0.444,0.443,0.442,0.442,0.441,0.441,0.441,0.44,0.439,0.439,0.438,0.437,0.436,0.436,0.436,0.435,0.435,0.435,0.435,0.436,0.436,0.435,0.435,0.435,0.435,0.435,0.434,0.4335,0.433,0.431,0.431,0.431,0.431,0.43,0.43,0.43,0.43,0.429,0.429,0.428,0.428,0.427,0.427,0.4265,0.426,0.426,0.426,0.425,0.425,0.425,0.425,0.425,0.424,0.423,0.422,0.422,0.421,0.421,0.421,0.42,0.42,0.419,0.419,0.418,0.418,0.418,0.418,0.417,0.417,0.416,0.416,0.416,0.416,0.416,0.415,0.415,0.415,0.413,0.412,0.412,0.411,0.411,0.411,0.41,0.41,0.41,0.41,0.41,0.409,0.0,0.0,0.408,0.408,0.408,0.407,0.407,0.407,0.406,0.406,0.406,0.405,0.404,0.404,0.403,0.403,0.403,0.402,0.402,0.402,0.402,0.402,0.402,0.401,0.401,0.4,0.4,0.399,0.399,0.399,0.398,0.398,0.398,0.397,0.397,0.397,0.397,0.397,0.396,0.396,0.395,0.394,0.394,0.394,0.393,0.393,0.393,0.393,0.392,0.392,0.391,0.391,0.39,0.39,0.389,0.389,0.389,0.388,0.388,0.386,0.386,0.386,0.386,0.385,0.385,0.385,0.385,0.385,0.385,0.385,0.384,0.384,0.384,0.384,0.384,0.383,0.382,0.382,0.382,0.381,0.381,0.381,0.381,0.381,0.381,0.38,0.38,0.379,0.379,0.378,0.378,0.378,0.378,0.378,0.378,0.377,0.377,0.377,0.377,0.376,0.375,0.375,0.374,0.374,0.374,0.373,0.373,0.373,0.373,0.373,0.372,0.372,0.372,0.371,0.371,0.37,0.37,0.37,0.37,0.369,0.369,0.369,0.369,0.368,0.368,0.367,0.366,0.366,0.366,0.366,0.366,0.365,0.365,0.365,0.364,0.364,0.363,0.363,0.363,0.362,0.362,0.362,0.362,0.362,0.362,0.361,0.361,0.361,0.361,0.0,0.0,0.36,0.36,0.359,0.359,0.359,0.359,0.359,0.359,0.358,0.358,0.358,0.358,0.357,0.356,0.356,0.355,0.355,0.355,0.355,0.354,0.354,0.354,0.353,0.353,0.353,0.352,0.352,0.352,0.352,0.352,0.351,0.351,0.351,0.35,0.35,0.349,0.349,0.348,0.348,0.348,0.348,0.348,0.348,0.348,0.348,0.348,0.347,0.346,0.346,0.346,0.345,0.345,0.345,0.345,0.344,0.344,0.344,0.343,0.343,0.343,0.342,0.342,0.0,0.0,0.342,0.342,0.342,0.342,0.0,0.0,0.0,0.0,0.0,0.342,0.341,0.341,0.34,0.339,0.339,0.338,0.338,0.338,0.337,0.337,0.337,0.336,0.336,0.336,0.335,0.335,0.335,0.335,0.0,0.0,0.334,0.333,0.333,0.333,0.333,0.332,0.332,0.332,0.332,0.332,0.332,0.332,0.331,0.331,0.331,0.331,0.331,0.331,0.331,0.331,0.329,0.329,0.329,0.329,0.329,0.328,0.328,0.327,0.327,0.326,0.326,0.326,0.325,0.325,0.324,0.324,0.324,0.324,0.324,0.323,0.323,0.323,0.323,0.323,0.323,0.322,0.321,0.321,0.321,0.321,0.32,0.319,0.319,0.319,0.319,0.319,0.319,0.319,0.318,0.318,0.318,0.318,0.318,0.318,0.318,0.318,0.317,0.316,0.316,0.316,0.315,0.315,0.315,0.315,0.315,0.315,0.315,0.315,0.3145,0.0,0.0,0.0,0.0,0.0,0.0,0.0,0.0,0.0,0.0,0.0,0.0,0.0,0.0,0.0,0.0,0.0,0.0,0.0,0.0,0.0,0.0,0.0,0.0,0.0,0.0,0.0,0.0,0.0,0.0,0.0,0.0,0.0,0.0,0.0,0.0,0.0,0.0,0.0,0.0,0.0,0.0,0.0,0.0,0.0,0.0,0.0,0.0,0.0
0.488,0.487,0.487,0.486,0.485,0.484,0.483,0.483,0.483,0.482,0.482,0.482,0.482,0.481,0.481,0.48,0.48,0.479,0.478,0.477,0.477,0.476,0.476,0.475,0.475,0.473,0.472,0.471,0.471,0.471,0.47,0.47,0.47,0.469,0.469,0.469,0.468,0.467,0.467,0.466,0.465,0.465,0.465,0.464,0.464,0.464,0.463,0.463,0.463,0.462,0.462,0.46,0.46,0.459,0.459,0.458,0.458,0.458,0.457,0.457,0.457,0.457,0.4555,0.454,0.453,0.453,0.453,0.452,0.452,0.452,0.452,0.452,0.451,0.451,0.449,0.448,0.447,0.447,0.446,0.446,0.446,0.446,0.445,0.445,0.444,0.444,0.444,0.444,0.443,0.442,0.442,0.442,0.442,0.442,0.441,0.441,0.441,0.44,0.439,0.438,0.437,0.436,0.436,0.436,0.436,0.435,0.435,0.434,0.434,0.434,0.433,0.433,0.432,0.432,0.432,0.433,0.433,0.432,0.432,0.431,0.431,0.431,0.43,0.43,0.429,0.429,0.429,0.429,0.428,0.428,0.427,0.427,0.427,0.426,0.426,0.426,0.425,0.425,0.425,0.425,0.424,0.424,0.423,0.423,0.422,0.421,0.421,0.421,0.42,0.42,0.419,0.419,0.418,0.418,0.418,0.417,0.417,0.417,0.417,0.416,0.416,0.416,0.416,0.415,0.415,0.415,0.414,0.413,0.413,0.412,0.411,0.411,0.411,0.41,0.409,0.409,0.408,0.408,0.408,0.407,0.407,0.0,0.0,0.0,0.406,0.406,0.406,0.406,0.406,0.406,0.405,0.404,0.404,0.403,0.402,0.402,0.402,0.402,0.402,0.402,0.402,0.401,0.401,0.401,0.4,0.4,0.399,0.398,0.398,0.398,0.398,0.398,0.397,0.397,0.397,0.396,0.396,0.396,0.394,0.394,0.394,0.394,0.393,0.393,0.393,0.393,0.392,0.392,0.391,0.391,0.39,0.39,0.389,0.389,0.389,0.388,0.388,0.387,0.386,0.386,0.386,0.385,0.385,0.385,0.385,0.385,0.385,0.384,0.384,0.383,0.384,0.384,0.383,0.382,0.3825,0.38175000000000003,0.381,0.381,0.381,0.381,0.381,0.381,0.38,0.38,0.3795,0.379,0.379,0.378,0.378,0.377,0.377,0.377,0.377,0.377,0.377,0.377,0.377,0.376,0.376,0.375,0.374,0.374,0.373,0.373,0.373,0.373,0.373,0.373,0.372,0.371,0.371,0.37,0.37,0.37,0.37,0.37,0.369,0.369,0.369,0.369,0.369,0.369,0.368,0.368,0.367,0.367,0.366,0.366,0.366,0.365,0.365,0.365,0.365,0.364,0.364,0.363,0.363,0.362,0.362,0.362,0.362,0.362,0.362,0.362,0.362,0.361,0.361,0.36,0.36,0.359,0.0,0.0,0.0,0.359,0.358,0.358,0.358,0.358,0.358,0.358,0.358,0.357,0.357,0.356,0.356,0.355,0.355,0.355,0.355,0.354,0.354,0.353,0.353,0.352,0.352,0.352,0.352,0.352,0.352,0.351,0.351,0.351,0.351,0.351,0.35,0.35,0.349,0.349,0.348,0.348,0.348,0.348,0.347,0.347,0.347,0.347,0.347,0.347,0.346,0.346,0.345,0.345,0.345,0.345,0.344,0.344,0.343,0.342,0.342,0.342,0.342,0.342,0.342,0.342,0.341,0.0,0.0,0.341,0.341,0.341,0.34,0.34,0.0,0.0,0.0,0.34,0.339,0.339,0.339,0.338,0.338,0.337,0.336,0.336,0.336,0.335,0.335,0.335,0.335,0.335,0.335,0.335,0.334,0.334,0.333,0.0,0.0,0.0,0.332,0.332,0.332,0.332,0.332,0.332,0.332,0.331,0.331,0.331,0.33,0.33,0.33,0.33,0.33,0.33,0.329,0.329,0.329,0.329,0.328,0.328,0.328,0.327,0.327,0.327,0.326,0.326,0.325,0.324,0.324,0.324,0.324,0.324,0.323,0.323,0.323,0.323,0.323,0.322,0.322,0.322,0.321,0.321,0.321,0.321,0.32,0.32,0.319,0.319,0.319,0.318,0.318,0.318,0.318,0.318,0.318,0.318,0.3175,0.317625,0.318,0.317,0.317,0.317,0.316,0.316,0.316,0.315,0.315,0.315,0.315,0.315,0.315,0.315,0.314,0.314,0.314,0.314,0.0,0.0,0.0,0.0,0.0,0.0,0.0,0.0,0.0,0.0,0.0,0.0,0.0,0.0,0.0,0.0,0.0,0.0,0.0,0.0,0.0,0.0,0.0,0.0,0.0,0.0,0.0,0.0,0.0,0.0,0.0,0.0,0.0,0.0,0.0,0.0,0.0,0.0,0.0,0.0,0.0,0.0,0.0,0.0,0.0,0.0,0.0,0.0,0.0
0.486,0.485,0.484,0.483,0.483,0.482,0.482,0.482,0.481,0.481,0.48,0.48,0.479,0.478,0.478,0.477,0.477,0.476,0.476,0.475,0.475,0.473,0.473,0.472,0.471,0.47,0.47,0.47,0.469,0.469,0.469,0.468,0.468,0.467,0.466,0.465,0.465,0.464,0.464,0.464,0.464,0.463,0.463,0.463,0.463,0.462,0.462,0.461,0.46,0.459,0.458,0.458,0.458,0.458,0.457,0.457,0.457,0.457,0.456,0.455,0.453,0.453,0.452875,0.452,0.452,0.452,0.452,0.451,0.451,0.451,0.45,0.449,0.449,0.448,0.447,0.447,0.446,0.446,0.446,0.445,0.445,0.444,0.444,0.443,0.442,0.442,0.442,0.441,0.441,0.441,0.441,0.441,0.441,0.441,0.44,0.44,0.439,0.438,0.437,0.436,0.436,0.435,0.435,0.435,0.434,0.433,0.433,0.432,0.432,0.431,0.431,0.431,0.431,0.431,0.431,0.43,0.431,0.43,0.43,0.43,0.429,0.429,0.428,0.427,0.427,0.427,0.427,0.426,0.426,0.426,0.426,0.426,0.426,0.425,0.425,0.425,0.424,0.424,0.423,0.423,0.422,0.422,0.421,0.421,0.421,0.42,0.42,0.418,0.418,0.418,0.417,0.417,0.417,0.416,0.416,0.416,0.416,0.416,0.416,0.416,0.416,0.415,0.415,0.414,0.413,0.412,0.412,0.411,0.411,0.411,0.41,0.41,0.409,0.408,0.407,0.407,0.407,0.406,0.406,0.406,0.40549999999999997,0.0,0.0,0.406,0.405,0.405,0.405,0.405,0.4045,0.404,0.403,0.403,0.402,0.402,0.402,0.401,0.401,0.401,0.4,0.4,0.4,0.4,0.399,0.399,0.398,0.398,0.398,0.397,0.397,0.397,0.397,0.397,0.396,0.396,0.394,0.394,0.394,0.393,0.0,0.3925,0.393,0.393,0.392,0.392,0.392,0.391,0.391,0.39,0.39,0.389,0.389,0.389,0.388,0.388,0.388,0.387,0.386,0.386,0.385,0.385,0.385,0.385,0.385,0.384,0.384,0.384,0.383,0.382,0.382,0.382,0.382,0.382,0.381,0.381,0.381,0.3806875,0.381,0.38,0.38,0.38,0.379,0.379,0.378,0.378,0.378,0.377,0.377,0.377,0.377,0.377,0.376,0.376,0.376,0.376,0.376,0.376,0.375,0.3745,0.374,0.373,0.373,0.373,0.373,0.373,0.372,0.371,0.371,0.371,0.37,0.37,0.37,0.369,0.369,0.369,0.369,0.369,0.368,0.368,0.368,0.367,0.367,0.367,0.366,0.366,0.366,0.36574999999999996,0.365,0.365,0.365,0.364,0.364,0.364,0.363,0.0,0.0,0.362,0.362,0.362,0.362,0.361,0.361,0.36,0.36,0.36,0.36,0.359,0.359,0.359,0.359,0.358,0.0,0.0,0.0,0.358,0.357,0.357,0.357,0.357,0.357,0.356,0.356,0.355,0.355,0.355,0.355,0.355,0.354,0.354,0.353,0.352,0.352,0.352,0.351,0.351,0.351,0.351,0.351,0.351,0.351,0.351,0.35,0.35,0.35,0.349,0.349,0.348,0.348,0.348,0.348,0.347,0.346,0.346,0.346,0.346,0.0,0.0,0.0,0.345,0.345,0.345,0.345,0.345,0.344,0.344,0.343,0.342,0.342,0.342,0.342,0.341,0.341,0.341,0.341,0.341,0.3405,0.34025000000000005,0.34,0.34,0.339,0.339,0.339,0.339,0.339,0.339,0.338,0.338,0.338,0.338,0.338,0.337,0.336,0.335,0.335,0.335,0.335,0.335,0.335,0.335,0.334,0.334,0.334,0.333,0.333,0.332,0.332,0.0,0.0,0.0,0.331,0.331,0.331,0.331,0.331,0.331,0.33,0.33,0.33,0.329,0.329,0.329,0.329,0.328,0.328,0.328,0.328,0.327,0.328,0.327,0.327,0.327,0.327,0.326,0.326,0.326,0.326,0.32475000000000004,0.324,0.324,0.323,0.323,0.323,0.323,0.323,0.322,0.322,0.322,0.322,0.321,0.321,0.321,0.321,0.321,0.32,0.0,0.319,0.319,0.319,0.318,0.318,0.318,0.318,0.318,0.318,0.318,0.317,0.317,0.317,0.317,0.317,0.316,0.316,0.316,0.315,0.315,0.315,0.315,0.315,0.315,0.314,0.315,0.314,0.314,0.313,0.313,0.313,0.313,0.0,0.0,0.0,0.0,0.0,0.0,0.0,0.0,0.0,0.0,0.0,0.0,0.0,0.0,0.0,0.0,0.0,0.0,0.0,0.0,0.0,0.0,0.0,0.0,0.0,0.0,0.0,0.0,0.0,0.0,0.0,0.0,0.0,0.0,0.0,0.0,0.0,0.0,0.0,0.0,0.0,0.0,0.0,0.0,0.0,0.0,0.0,0.0,0.0
0.483,0.483,0.482,0.482,0.482,0.481,0.481,0.479,0.478,0.478,0.477,0.477,0.476,0.476,0.476,0.476,0.475,0.475,0.474,0.472,0.471,0.471,0.47,0.47,0.469,0.469,0.469,0.468,0.468,0.467,0.465,0.465,0.464,0.464,0.464,0.463,0.463,0.463,0.463,0.463,0.462,0.462,0.462,0.461,0.46,0.459,0.458,0.458,0.458,0.458,0.457,0.457,0.457,0.456,0.456,0.455,0.455,0.454,0.453,0.452,0.452,0.452,0.451,0.451,0.45,0.449,0.449,0.448,0.448,0.448,0.447,0.447,0.447,0.446,0.446,0.446,0.445,0.445,0.444,0.443,0.443,0.443,0.442,0.442,0.441,0.441,0.441,0.441,0.441,0.44,0.44,0.44,0.439,0.438,0.438,0.437,0.43674999999999997,0.436,0.435,0.435,0.434,0.433,0.433,0.433,0.432,0.431,0.431,0.431,0.431,0.431,0.43,0.43,0.43,0.429,0.429,0.428,0.427,0.426,0.426,0.427,0.427,0.426,0.426,0.425,0.425,0.425,0.425,0.425,0.425,0.425,0.425,0.424,0.424,0.424,0.423,0.423,0.422,0.422,0.421,0.421,0.421,0.42,0.42,0.42,0.418,0.418,0.417,0.417,0.416,0.416,0.416,0.416,0.416,0.416,0.415,0.415,0.415,0.415,0.415,0.415,0.415,0.414,0.412,0.412,0.411,0.411,0.411,0.41,0.4095,0.40874999999999995,0.408,0.408,0.407,0.406,0.406,0.406,0.405,0.405,0.405,0.405,0.404,0.404,0.404,0.404,0.403,0.403,0.403,0.403,0.40325,0.4025,0.401875,0.402,0.401,0.4,0.4,0.4,0.399,0.399,0.399,0.398,0.398,0.398,0.398,0.398,0.397,0.397,0.397,0.396,0.396,0.395,0.394,0.394,0.394,0.394,0.393,0.393,0.393,0.392,0.3915,0.391,0.391,0.39,0.39,0.39,0.39,0.389,0.389,0.389,0.388,0.388,0.388,0.387,0.387,0.386,0.386,0.385,0.385,0.385,0.385,0.385,0.384,0.384,0.384,0.383,0.382,0.382,0.382,0.381,0.381,0.381,0.381,0.381,0.38,0.38,0.38,0.379,0.379,0.378,0.378,0.378,0.378,0.377,0.377,0.377,0.377,0.376,0.376,0.376,0.376,0.375,0.375,0.375,0.374,0.374,0.374,0.3745,0.3735,0.37324999999999997,0.373,0.373,0.372,0.372,0.372,0.371,0.37,0.37,0.369,0.369,0.369,0.369,0.369,0.369,0.368,0.368,0.368,0.367,0.0,0.3665,0.366,0.366,0.366,0.366,0.366,0.366,0.365,0.365,0.364,0.364,0.364,0.363,0.363,0.363,0.362,0.0,0.0,0.362,0.361,0.36,0.36,0.36,0.359,0.359,0.359,0.359,0.359,0.359,0.358,0.358,0.358,0.357,0.357,0.356,0.356,0.355,0.355,0.355,0.3555,0.355375,0.355,0.355,0.355,0.355,0.354,0.354,0.354,0.353,0.352,0.352,0.352,0.351,0.351,0.351,0.351,0.351,0.35,0.35,0.35,0.35,0.35,0.35,0.349,0.349,0.349,0.348,0.348,0.348,0.347,0.346,0.346,0.345,0.345,0.345,0.345,0.345,0.0,0.0,0.0,0.344,0.344,0.344,0.343,0.343,0.342,0.342,0.342,0.342,0.341,0.341,0.341,0.341,0.341,0.34,0.34,0.34,0.34,0.339,0.339,0.339,0.338,0.338,0.338,0.338,0.338,0.338,0.337,0.337,0.337,0.336,0.336,0.335,0.335,0.335,0.334,0.334,0.334,0.334,0.333,0.333,0.333,0.333,0.333,0.332,0.332,0.331,0.331,0.33,0.33,0.33,0.33,0.329,0.33,0.329,0.33,0.329,0.329,0.329,0.329,0.329,0.327,0.327,0.327,0.327,0.327,0.327,0.327,0.326,0.327,0.326,0.326,0.326,0.325,0.325,0.324,0.324,0.324,0.323,0.323,0.323,0.322,0.322,0.322,0.322,0.321,0.321,0.321,0.321,0.321,0.321,0.32,0.32,0.32,0.32,0.32,0.319,0.318,0.318,0.318,0.318,0.318,0.318,0.318,0.318,0.317,0.317,0.317,0.317,0.316,0.316,0.315,0.315,0.315,0.315,0.315,0.0,0.0,0.315,0.314,0.314,0.314,0.314,0.313,0.313,0.313,0.313,0.313,0.312,0.0,0.0,0.0,0.0,0.0,0.0,0.0,0.0,0.0,0.0,0.0,0.0,0.0,0.0,0.0,0.0,0.0,0.0,0.0,0.0,0.0,0.0,0.0,0.0,0.0,0.0,0.0,0.0,0.0,0.0,0.0,0.0,0.0,0.0,0.0,0.0,0.0,0.0,0.0,0.0,0.0,0.0,0.0,0.0,0.0,0.0,0.0,0.0,0.0
0.482,0.482,0.481,0.481,0.479,0.478,0.477,0.476,0.476,0.476,0.475,0.475,0.475,0.475,0.474,0.473,0.471,0.471,0.47,0.47,0.469,0.469,0.469,0.468,0.468,0.467,0.466,0.466,0.464,0.464,0.463,0.463,0.463,0.463,0.462,0.462,0.461,0.461,0.461,0.46,0.46,0.459,0.458,0.458,0.458,0.458,0.457,0.457,0.457,0.456,0.456,0.455,0.454,0.453,0.453,0.452,0.452,0.452,0.451,0.451,0.45,0.449,0.448,0.448,0.447,0.447,0.447,0.447,0.446,0.446,0.446,0.446,0.445,0.444,0.444,0.443,0.443,0.442,0.442,0.442,0.441,0.441,0.441,0.441,0.44,0.44,0.44,0.44,0.439,0.438,0.438,0.437,0.437,0.436,0.436,0.436,0.435,0.434,0.433,0.432,0.432,0.431,0.431,0.431,0.431,0.43,0.43,0.43,0.429,0.429,0.428,0.428,0.427,0.427,0.426,0.426,0.426,0.425,0.425,0.425,0.424,0.425,0.425,0.424,0.424,0.424,0.424,0.423,0.423,0.423,0.422,0.422,0.422,0.421,0.421,0.421,0.421,0.42,0.42,0.42,0.419,0.419,0.417,0.417,0.416,0.416,0.416,0.416,0.416,0.415,0.415,0.415,0.415,0.415,0.414,0.414,0.414,0.414,0.414,0.413,0.412,0.411,0.411,0.411,0.41,0.41,0.409,0.408,0.408,0.407375,0.40659375,0.406,0.406,0.405,0.405,0.404,0.404,0.404,0.403,0.403,0.403,0.403,0.403,0.402,0.402,0.402,0.402,0.402,0.402,0.401,0.4,0.399,0.399,0.398,0.398,0.398,0.398,0.398,0.398,0.398,0.397,0.397,0.397,0.397,0.396,0.394,0.394,0.394,0.394,0.393,0.393,0.393,0.393,0.393,0.392,0.392,0.391,0.39,0.39,0.389,0.389,0.389,0.389,0.389,0.388,0.388,0.388,0.387,0.386,0.386,0.386,0.385,0.385,0.385,0.385,0.385,0.384,0.384,0.384,0.383,0.383,0.382,0.382,0.382,0.381,0.381,0.381,0.381,0.381,0.38,0.38,0.379,0.379,0.378,0.378,0.377,0.377,0.377,0.377,0.377,0.377,0.376,0.376,0.376,0.375,0.375,0.374,0.374,0.374,0.374,0.373,0.373,0.373,0.373,0.373,0.373,0.372,0.372,0.371,0.37,0.37,0.37,0.37,0.37,0.369,0.369,0.369,0.369,0.369,0.368,0.367,0.367,0.366,0.366,0.366,0.366,0.3655,0.365,0.365,0.365,0.365,0.365,0.364,0.364,0.364,0.363,0.363,0.363,0.362,0.362,0.362,0.362,0.362,0.361,0.36,0.36,0.359,0.359,0.359,0.359,0.358,0.358,0.358,0.358,0.358,0.358,0.358,0.357,0.357,0.356,0.355,0.355,0.355,0.354,0.354,0.354,0.354,0.354,0.354,0.353,0.353,0.353,0.353,0.352,0.352,0.352,0.351,0.351,0.35,0.35,0.349,0.349,0.349,0.349,0.349,0.349,0.349,0.349,0.349,0.349,0.348,0.348,0.348,0.348,0.346,0.346,0.345,0.345,0.345,0.345,0.345,0.344,0.344,0.344,0.0,0.0,0.343,0.342,0.342,0.342,0.342,0.342,0.342,0.341,0.341,0.341,0.341,0.34,0.34,0.339,0.34,0.339,0.339,0.339,0.339,0.338,0.338,0.338,0.337,0.337,0.337,0.3365,0.336,0.336,0.336,0.335,0.335,0.335,0.335,0.334,0.334,0.334,0.333,0.333,0.333,0.333,0.333,0.332,0.332,0.332,0.332,0.331,0.33,0.33,0.33,0.329,0.329,0.329,0.329,0.329,0.329,0.329,0.329,0.328,0.328,0.327,0.327,0.326,0.326,0.326,0.326,0.326,0.326,0.326,0.326,0.326,0.326,0.326,0.325,0.3245,0.324,0.324,0.323,0.323,0.323,0.322,0.321,0.321,0.321,0.321,0.321,0.321,0.321,0.321,0.32,0.32,0.32,0.32,0.32,0.319,0.319,0.318,0.319,0.31825000000000003,0.318,0.318,0.317,0.317,0.317,0.317,0.317,0.317,0.316,0.316,0.315,0.315,0.315,0.315,0.315,0.315,0.315,0.315,0.315,0.0,0.0,0.314,0.313,0.313,0.313,0.313,0.313,0.312,0.312,0.312,0.312,0.312,0.0,0.0,0.0,0.0,0.0,0.0,0.0,0.0,0.0,0.0,0.0,0.0,0.0,0.0,0.0,0.0,0.0,0.0,0.0,0.0,0.0,0.0,0.0,0.0,0.0,0.0,0.0,0.0,0.0,0.0,0.0,0.0,0.0,0.0,0.0,0.0,0.0,0.0,0.0,0.0,0.0,0.0,0.0,0.0,0.0,0.0,0.0,0.0,0.0
0.48,0.478,0.477,0.477,0.476,0.476,0.476,0.475,0.475,0.475,0.474,0.473,0.471,0.471,0.47,0.47,0.469,0.469,0.469,0.468,0.468,0.467,0.466,0.466,0.465,0.464,0.464,0.463,0.463,0.463,0.462,0.461,0.461,0.46,0.459,0.459,0.458,0.458,0.458,0.458,0.458,0.458,0.458,0.457,0.457,0.457,0.456,0.455,0.455,0.454,0.453,0.453,0.452,0.452,0.452,0.451,0.451,0.449,0.449,0.448,0.448,0.447,0.447,0.446,0.446,0.446,0.446,0.446,0.445,0.444,0.444,0.443,0.442,0.442,0.442,0.441,0.441,0.441,0.441,0.44,0.44,0.44,0.439,0.439,0.438,0.438,0.437,0.437,0.437,0.436,0.436,0.436,0.435,0.435,0.434,0.433,0.432,0.431,0.431,0.431,0.43,0.43,0.43,0.43,0.429,0.428,0.428,0.427,0.427,0.427,0.426,0.426,0.426,0.426,0.425,0.425,0.425,0.424,0.422,0.422,0.422,0.421,0.421,0.422,0.422,0.422,0.421,0.421,0.421,0.421,0.421,0.421,0.421,0.42,0.42,0.42,0.42,0.419,0.417,0.417,0.416,0.416,0.416,0.416,0.415,0.415,0.415,0.414,0.414,0.414,0.414,0.413,0.413,0.412,0.412,0.411,0.411,0.411,0.4115,0.0,0.0,0.0,0.409,0.409,0.408,0.407,0.407,0.407,0.406,0.406,0.405,0.404,0.404,0.403,0.403,0.403,0.403,0.402,0.402,0.402,0.402,0.402,0.402,0.401,0.401,0.4,0.4,0.399,0.399,0.398,0.398,0.398,0.398,0.397,0.397,0.397,0.397,0.397,0.397,0.397,0.397,0.396,0.394,0.394,0.393,0.393,0.393,0.393,0.393,0.392,0.392,0.392,0.391,0.391,0.39,0.39,0.389,0.389,0.388,0.388,0.388,0.387,0.386,0.386,0.386,0.386,0.385,0.385,0.385,0.385,0.385,0.385,0.384,0.384,0.384,0.383,0.382,0.382,0.382,0.382,0.381,0.381,0.381,0.381,0.381,0.381,0.38,0.38,0.379,0.379,0.378,0.378,0.377,0.377,0.377,0.377,0.376,0.376,0.376,0.376,0.376,0.375,0.375,0.374,0.374,0.373,0.373,0.373,0.373,0.373,0.373,0.373,0.372,0.372,0.371,0.371,0.37,0.37,0.369,0.369,0.369,0.369,0.369,0.369,0.368,0.368,0.367,0.367,0.367,0.367,0.366,0.366,0.366,0.365,0.365,0.365,0.364,0.364,0.364,0.363,0.363,0.363,0.363,0.363,0.362,0.362,0.362,0.362,0.362,0.362,0.361,0.36,0.36,0.359,0.359,0.359,0.358,0.358,0.358,0.358,0.358,0.358,0.358,0.358,0.358,0.357,0.356,0.355,0.355,0.355,0.354,0.354,0.353,0.353,0.352,0.352,0.352,0.352,0.352,0.352,0.352,0.352,0.352,0.351,0.351,0.35,0.35,0.349,0.349,0.349,0.348,0.348,0.348,0.348,0.348,0.348,0.348,0.348,0.348,0.348,0.348,0.347,0.346,0.345,0.345,0.345,0.34424999999999994,0.344,0.344,0.344,0.343,0.342,0.342,0.342,0.342,0.342,0.342,0.341,0.341,0.341,0.341,0.341,0.341,0.341,0.34,0.34,0.339,0.339,0.339,0.339,0.339,0.338,0.338,0.338,0.338,0.338,0.337,0.337,0.336,0.336,0.336,0.335,0.335,0.335,0.0,0.0,0.0,0.334,0.334,0.333,0.333,0.333,0.333,0.332,0.332,0.332,0.332,0.332,0.332,0.331,0.331,0.33,0.33,0.329,0.329,0.329,0.328,0.328,0.328,0.328,0.328,0.328,0.327,0.326,0.326,0.326,0.326,0.326,0.326,0.326,0.326,0.326,0.325,0.325,0.324,0.324,0.324,0.324,0.3235,0.323,0.323,0.323,0.322,0.321,0.321,0.321,0.321,0.32,0.32,0.32,0.32,0.32,0.32,0.32,0.3195,0.0,0.319,0.319,0.318,0.318,0.318,0.318,0.318,0.317,0.317,0.316,0.316,0.316,0.316,0.316,0.316,0.315,0.315,0.315,0.315,0.315,0.315,0.315,0.314,0.314,0.314,0.314,0.314,0.314,0.313,0.313,0.313,0.313,0.313,0.312,0.312,0.312,0.312,0.312,0.312,0.0,0.0,0.0,0.0,0.0,0.0,0.0,0.0,0.0,0.0,0.0,0.0,0.0,0.0,0.0,0.0,0.0,0.0,0.0,0.0,0.0,0.0,0.0,0.0,0.0,0.0,0.0,0.0,0.0,0.0,0.0,0.0,0.0,0.0,0.0,0.0,0.0,0.0,0.0,0.0,0.0,0.0,0.0,0.0,0.0,0.0,0.0,0.0,0.0,0.0
0.476,0.476,0.476,0.475,0.475,0.475,0.474,0.474,0.473,0.472,0.471,0.47,0.47,0.469,0.469,0.469,0.468,0.467,0.467,0.466,0.465,0.465,0.464,0.464,0.463,0.463,0.463,0.462,0.461,0.46,0.459,0.459,0.458,0.458,0.458,0.457,0.457,0.457,0.457,0.457,0.457,0.457,0.456,0.456,0.455,0.455,0.454,0.453,0.453,0.452,0.452,0.451,0.451,0.45,0.449,0.449,0.448,0.447,0.447,0.446,0.446,0.446,0.445,0.445,0.444,0.444,0.444,0.443,0.442,0.442,0.442,0.441,0.441,0.441,0.441,0.44,0.44,0.439,0.439,0.438,0.438,0.437,0.437,0.436,0.436,0.436,0.436,0.436,0.436,0.435,0.435,0.433,0.432,0.432,0.431,0.431,0.431,0.43,0.43,0.429,0.429,0.428,0.427,0.427,0.427,0.426,0.426,0.426,0.426,0.425,0.425,0.425,0.425,0.424,0.424,0.423,0.422,0.421,0.421,0.421,0.421,0.42,0.42,0.42,0.42,0.421,0.42,0.42,0.42,0.42,0.42,0.42,0.419,0.419,0.418,0.417,0.417,0.416,0.416,0.416,0.415,0.415,0.415,0.414,0.414,0.413,0.413,0.412,0.412,0.412,0.411,0.411,0.411,0.411,0.411,0.41,0.41,0.41,0.409,0.0,0.0,0.0,0.40700000000000003,0.407,0.406,0.406,0.405,0.405,0.404,0.404,0.403,0.402,0.402,0.402,0.402,0.402,0.402,0.402,0.401,0.401,0.401,0.401,0.399,0.399,0.399,0.398,0.398,0.398,0.397,0.397,0.397,0.397,0.397,0.396,0.397,0.397,0.396,0.396,0.395,0.395,0.394,0.394,0.393,0.393,0.392,0.392,0.391,0.391,0.391,0.39,0.39,0.39,0.39,0.389,0.389,0.389,0.388,0.387,0.387,0.386,0.386,0.385,0.385,0.385,0.385,0.385,0.385,0.384,0.384,0.384,0.383,0.382,0.382,0.382,0.382,0.381,0.381,0.381,0.381,0.381,0.381,0.38,0.38,0.38,0.379,0.379,0.378,0.378,0.378,0.377,0.377,0.377,0.377,0.376,0.376,0.376,0.375,0.375,0.374,0.374,0.374,0.373,0.373,0.373,0.373,0.373,0.373,0.372,0.372,0.372,0.371,0.37,0.37,0.37,0.37,0.369,0.369,0.369,0.369,0.368,0.368,0.368,0.368,0.367,0.367,0.366,0.366,0.366,0.366,0.366,0.365,0.365,0.364,0.364,0.364,0.363,0.363,0.362,0.362,0.362,0.362,0.362,0.362,0.362,0.362,0.361,0.361,0.361,0.36,0.36,0.359,0.359,0.359,0.358,0.358,0.358,0.358,0.358,0.358,0.358,0.357,0.357,0.357,0.356,0.356,0.355,0.355,0.355,0.354,0.354,0.353,0.352,0.352,0.352,0.351,0.351,0.351,0.351,0.351,0.351,0.351,0.351,0.35,0.35,0.35,0.349,0.349,0.348,0.348,0.348,0.348,0.348,0.348,0.348,0.347,0.347,0.347,0.346,0.346,0.346,0.345,0.345,0.345,0.345,0.344,0.344,0.343,0.343,0.342,0.342,0.342,0.342,0.342,0.341,0.341,0.341,0.341,0.341,0.341,0.34,0.34,0.34,0.34,0.339,0.33875000000000005,0.338,0.338,0.338,0.338,0.338,0.338,0.338,0.337,0.337,0.337,0.336,0.336,0.336,0.335,0.335,0.335,0.334,0.0,0.0,0.0,0.0,0.0,0.332,0.332,0.332,0.332,0.332,0.332,0.332,0.332,0.331,0.331,0.331,0.33,0.33,0.329,0.329,0.329,0.329,0.328,0.328,0.327,0.327,0.327,0.326,0.326,0.326,0.326,0.326,0.326,0.326,0.325,0.325,0.325,0.325,0.324,0.324,0.324,0.324,0.323,0.323,0.323,0.322,0.322,0.322,0.321,0.321,0.321,0.32,0.32,0.32,0.32,0.32,0.32,0.32,0.319,0.319,0.319,0.319,0.319,0.3185,0.318,0.318,0.318,0.317,0.317,0.317,0.317,0.316,0.315,0.315,0.315,0.315,0.315,0.315,0.315,0.315,0.315,0.315,0.314,0.314,0.314,0.314,0.313,0.313,0.313,0.313,0.313,0.313,0.313,0.313,0.312,0.312,0.312,0.312,0.312,0.312,0.312,0.312,0.311,0.0,0.0,0.0,0.0,0.0,0.0,0.0,0.0,0.0,0.0,0.0,0.0,0.0,0.0,0.0,0.0,0.0,0.0,0.0,0.0,0.0,0.0,0.0,0.0,0.0,0.0,0.0,0.0,0.0,0.0,0.0,0.0,0.0,0.0,0.0,0.0,0.0,0.0,0.0,0.0,0.0,0.0,0.0,0.0,0.0,0.0,0.0,0.0,0.0,0.0
0.475,0.475,0.474,0.473,0.473,0.472,0.471,0.47,0.47,0.47,0.469,0.469,0.469,0.468,0.467,0.466,0.465,0.465,0.464,0.463,0.463,0.463,0.463,0.462,0.461,0.461,0.46,0.459,0.459,0.458,0.458,0.457,0.457,0.457,0.456,0.456,0.455,0.455,0.455,0.455,0.455,0.454,0.454,0.453,0.453,0.453,0.452,0.452,0.452,0.451,0.45,0.449,0.448,0.447,0.447,0.447,0.447,0.446,0.446,0.445,0.444,0.444,0.443,0.443,0.442,0.442,0.441,0.441,0.441,0.441,0.441,0.44,0.44,0.439,0.438,0.438,0.437,0.437,0.436,0.436,0.436,0.436,0.436,0.435,0.435,0.435,0.435,0.434,0.434,0.432,0.432,0.431,0.431,0.43,0.43,0.43,0.429,0.428,0.427,0.427,0.426,0.426,0.426,0.426,0.426,0.425,0.425,0.425,0.425,0.425,0.424,0.423,0.422,0.421,0.421,0.421,0.421,0.42,0.42,0.42,0.42,0.419,0.419,0.418,0.418,0.417,0.417,0.417,0.418,0.418,0.418,0.417,0.417,0.416,0.416,0.416,0.415,0.415,0.415,0.414,0.414,0.413,0.412,0.412,0.411,0.411,0.411,0.411,0.411,0.411,0.411,0.41,0.41,0.41,0.409,0.4085,0.408,0.407,0.407,0.0,0.0,0.405,0.405,0.405,0.404,0.404,0.403,0.403,0.403,0.402,0.402,0.402,0.401,0.401,0.401,0.401,0.401,0.4,0.399,0.399,0.399,0.399,0.398,0.398,0.398,0.397,0.397,0.397,0.396,0.396,0.395,0.395,0.394,0.394,0.394,0.394,0.394,0.394,0.393,0.393,0.393,0.393,0.392,0.391,0.39,0.39,0.389,0.389,0.389,0.389,0.389,0.389,0.389,0.389,0.387,0.386,0.386,0.385,0.385,0.385,0.385,0.385,0.385,0.384,0.384,0.383,0.383,0.382,0.382,0.382,0.381,0.381,0.381,0.381,0.381,0.381,0.381,0.38,0.38,0.38,0.379,0.379,0.379,0.378,0.378,0.377,0.377,0.377,0.377,0.376,0.376,0.376,0.375,0.375,0.374,0.374,0.373,0.373,0.373,0.373,0.373,0.373,0.372,0.372,0.372,0.371,0.371,0.37,0.37,0.37,0.37,0.369,0.369,0.369,0.369,0.369,0.369,0.368,0.367,0.367,0.366,0.367,0.366,0.366,0.366,0.365,0.365,0.365,0.365,0.364,0.364,0.363,0.363,0.363,0.362,0.362,0.362,0.362,0.362,0.362,0.361,0.361,0.361,0.361,0.36,0.36,0.36,0.359,0.359,0.359,0.359,0.358,0.358,0.358,0.357,0.357,0.357,0.357,0.356,0.356,0.356,0.355,0.355,0.355,0.355,0.354,0.354,0.353,0.353,0.0,0.352,0.351,0.351,0.351,0.351,0.35,0.35,0.35,0.349,0.349,0.349,0.349,0.349,0.348,0.348,0.348,0.348,0.348,0.348,0.347,0.347,0.347,0.346,0.346,0.346,0.345,0.345,0.345,0.345,0.345,0.345,0.344,0.344,0.343,0.343,0.342,0.342,0.342,0.341,0.341,0.341,0.341,0.341,0.341,0.34,0.34,0.34,0.34,0.339,0.339,0.339,0.339,0.339,0.338,0.338,0.337,0.337,0.337,0.337,0.336,0.336,0.336,0.0,0.0,0.0,0.335,0.335,0.335,0.334,0.333,0.333,0.332,0.0,0.0,0.0,0.0,0.0,0.331,0.331,0.331,0.331,0.33,0.33,0.33,0.33,0.33,0.329,0.329,0.329,0.329,0.329,0.329,0.328,0.327,0.327,0.327,0.326,0.326,0.326,0.326,0.326,0.325,0.325,0.325,0.324,0.324,0.324,0.324,0.324,0.324,0.323,0.323,0.323,0.323,0.323,0.322,0.322,0.321,0.321,0.32,0.32,0.32,0.32,0.32,0.319,0.32,0.319,0.319,0.319,0.318,0.318,0.318,0.318,0.318,0.317,0.317,0.317,0.317,0.316,0.316,0.315,0.315,0.315,0.315,0.315,0.315,0.315,0.315,0.315,0.315,0.314,0.314,0.0,0.0,0.0,0.313,0.313,0.313,0.313,0.313,0.312,0.313,0.313,0.312,0.312,0.312,0.312,0.312,0.312,0.312,0.311,0.311,0.311,0.311,0.0,0.0,0.0,0.0,0.0,0.0,0.0,0.0,0.0,0.0,0.0,0.0,0.0,0.0,0.0,0.0,0.0,0.0,0.0,0.0,0.0,0.0,0.0,0.0,0.0,0.0,0.0,0.0,0.0,0.0,0.0,0.0,0.0,0.0,0.0,0.0,0.0,0.0,0.0,0.0,0.0,0.0,0.0,0.0,0.0,0.0,0.0,0.0,0.0,0.0,0.0
0.473,0.4725,0.472,0.471,0.47,0.47,0.469,0.469,0.469,0.468,0.468,0.467,0.466,0.465,0.464,0.464,0.464,0.463,0.462,0.462,0.461,0.461,0.46,0.46,0.459,0.458,0.458,0.458,0.457,0.457,0.456,0.455,0.455,0.454,0.454,0.453,0.453,0.453,0.453,0.453,0.452,0.452,0.452,0.452,0.452,0.452,0.452,0.45,0.449,0.449,0.448,0.447,0.447,0.446,0.446,0.446,0.445,0.443,0.443,0.442,0.442,0.442,0.441,0.441,0.441,0.441,0.44,0.44,0.439,0.439,0.438,0.437,0.437,0.437,0.436,0.436,0.436,0.436,0.436,0.435,0.435,0.435,0.434,0.434,0.433,0.432,0.432,0.431,0.431,0.431,0.43,0.43,0.43,0.429,0.428,0.427,0.426,0.426,0.426,0.426,0.425,0.425,0.425,0.425,0.425,0.424,0.424,0.423,0.423,0.422,0.421,0.421,0.421,0.42,0.42,0.42,0.419,0.419,0.418,0.418,0.417,0.417,0.417,0.416,0.416,0.416,0.415,0.415,0.415,0.416,0.416,0.416,0.415,0.415,0.415,0.414,0.414,0.413,0.412,0.412,0.412,0.411,0.411,0.411,0.41,0.41,0.41,0.409,0.409,0.409,0.409,0.408,0.408,0.408,0.407,0.407,0.406,0.406,0.405,0.0,0.0,0.403,0.402,0.402,0.402,0.402,0.402,0.402,0.402,0.401,0.401,0.4,0.4,0.4,0.399,0.399,0.398,0.398,0.0,0.0,0.398,0.397,0.397,0.397,0.397,0.396,0.396,0.395,0.395,0.394,0.394,0.393,0.393,0.393,0.393,0.393,0.393,0.393,0.392,0.392,0.391,0.391,0.39,0.389,0.389,0.389,0.389,0.389,0.389,0.388,0.387,0.387,0.386,0.386,0.385,0.385,0.385,0.385,0.385,0.384,0.384,0.383,0.383,0.382,0.381,0.381,0.381,0.381,0.381,0.381,0.381,0.381,0.38,0.38,0.38,0.38,0.379,0.379,0.378,0.378,0.377,0.377,0.377,0.377,0.377,0.376,0.376,0.376,0.375,0.375,0.374,0.374,0.374,0.373,0.373,0.373,0.373,0.372,0.372,0.372,0.371,0.371,0.37,0.37,0.37,0.37,0.37,0.369,0.369,0.369,0.369,0.369,0.369,0.368,0.368,0.367,0.367,0.367,0.366,0.366,0.366,0.366,0.365,0.365,0.365,0.364,0.364,0.364,0.364,0.363,0.363,0.362,0.362,0.362,0.362,0.362,0.361,0.361,0.361,0.36,0.36,0.36,0.359,0.359,0.359,0.359,0.359,0.358,0.358,0.358,0.358,0.358,0.357,0.357,0.356,0.356,0.355,0.355,0.355,0.355,0.3545,0.354,0.354,0.354,0.353,0.352,0.352,0.352,0.351,0.351,0.351,0.35,0.35,0.35,0.35,0.349,0.349,0.349,0.348,0.348,0.348,0.348,0.348,0.348,0.348,0.347,0.347,0.347,0.346,0.345,0.3455,0.345,0.345,0.345,0.345,0.345,0.345,0.344,0.344,0.344,0.3435,0.34299999999999997,0.3425,0.342,0.342,0.341,0.341,0.341,0.341,0.341,0.341,0.34,0.34,0.34,0.339,0.339,0.339,0.339,0.338,0.338,0.338,0.338,0.337,0.337,0.336,0.336,0.336,0.336,0.336,0.335,0.335,0.335,0.0,0.0,0.0,0.334,0.333,0.333,0.332,0.332,0.332,0.331,0.331,0.331,0.33,0.33,0.33,0.33,0.329,0.329,0.329,0.329,0.329,0.329,0.329,0.329,0.329,0.328,0.328,0.328,0.328,0.327,0.327,0.326,0.326,0.326,0.326,0.325,0.325,0.324,0.324,0.324,0.324,0.324,0.324,0.324,0.323,0.323,0.323,0.323,0.323,0.323,0.323,0.322,0.322,0.321,0.321,0.32,0.32,0.32,0.319,0.319,0.319,0.319,0.318,0.318,0.318,0.318,0.318,0.318,0.317,0.317,0.316,0.316,0.316,0.315,0.315,0.315,0.315,0.315,0.315,0.315,0.314,0.314,0.314,0.313,0.313,0.313,0.313,0.313,0.313,0.313,0.0,0.0,0.0,0.312,0.312,0.312,0.312,0.312,0.312,0.312,0.312,0.312,0.312,0.312,0.312,0.312,0.0,0.0,0.311,0.311,0.311,0.0,0.0,0.0,0.0,0.0,0.0,0.0,0.0,0.0,0.0,0.0,0.0,0.0,0.0,0.0,0.0,0.0,0.0,0.0,0.0,0.0,0.0,0.0,0.0,0.0,0.0,0.0,0.0,0.0,0.0,0.0,0.0,0.0,0.0,0.0,0.0,0.0,0.0,0.0,0.0,0.0,0.0,0.0,0.0,0.0,0.0,0.0,0.0,0.0,0.0,0.0,0.0
0.47,0.47,0.469,0.469,0.468,0.468,0.468,0.467,0.467,0.466,0.465,0.464,0.464,0.464,0.463,0.462,0.461,0.46,0.46,0.459,0.458,0.458,0.458,0.458,0.457,0.457,0.457,0.456,0.455,0.454,0.453,0.453,0.452,0.452,0.452,0.452,0.452,0.452,0.452,0.452,0.452,0.451,0.451,0.451,0.451,0.449,0.449,0.448,0.447,0.447,0.446,0.446,0.445,0.444,0.443,0.442,0.442,0.441,0.441,0.441,0.441,0.441,0.44,0.44,0.439,0.439,0.437,0.437,0.436,0.436,0.436,0.436,0.436,0.436,0.435,0.435,0.435,0.435,0.434,0.433,0.433,0.433,0.432,0.431,0.431,0.431,0.43,0.43,0.43,0.429,0.428,0.427,0.427,0.426,0.426,0.425,0.425,0.425,0.425,0.425,0.424,0.424,0.424,0.423,0.423,0.422,0.422,0.421,0.421,0.421,0.42,0.42,0.42,0.419,0.419,0.418,0.417,0.417,0.417,0.416,0.416,0.416,0.415,0.415,0.415,0.414,0.414,0.413,0.413,0.413,0.413,0.412,0.414,0.413,0.413,0.412,0.412,0.411,0.411,0.411,0.41,0.41,0.409,0.409,0.409,0.408,0.408,0.407,0.407,0.407,0.407,0.407,0.406,0.406,0.406,0.404,0.404,0.403,0.402,0.402,0.402,0.402,0.401,0.401,0.401,0.401,0.401,0.401,0.4,0.4,0.399,0.399,0.398,0.398,0.398,0.398,0.397,0.397,0.0,0.0,0.397,0.396,0.396,0.395,0.395,0.394,0.394,0.393,0.393,0.393,0.393,0.393,0.393,0.392,0.392,0.392,0.392,0.391,0.391,0.39,0.39,0.389,0.389,0.389,0.388,0.388,0.387,0.387,0.386,0.386,0.386,0.385,0.385,0.385,0.385,0.384,0.384,0.384,0.384,0.383,0.382,0.382,0.381,0.381,0.381,0.381,0.381,0.38,0.38,0.38,0.38,0.379,0.379,0.378,0.378,0.378,0.378,0.377,0.377,0.377,0.377,0.376,0.376,0.375,0.375,0.375,0.374,0.374,0.374,0.373,0.373,0.373,0.373,0.373,0.372,0.3715,0.371,0.37,0.37,0.37,0.37,0.369,0.369,0.369,0.369,0.369,0.369,0.369,0.368,0.368,0.368,0.367,0.367,0.367,0.367,0.366,0.366,0.366,0.366,0.365,0.365,0.365,0.364,0.364,0.364,0.363,0.363,0.362,0.362,0.362,0.362,0.362,0.362,0.361,0.361,0.361,0.36,0.359,0.359,0.359,0.359,0.359,0.358,0.358,0.358,0.358,0.358,0.358,0.357,0.357,0.356,0.356,0.356,0.356,0.355,0.355,0.355,0.354,0.354,0.3535,0.35324999999999995,0.353,0.352,0.352,0.352,0.351,0.351,0.351,0.351,0.35,0.349,0.349,0.349,0.349,0.348,0.348,0.348,0.348,0.348,0.348,0.347,0.347,0.347,0.346,0.346,0.345,0.345,0.345,0.345,0.345,0.345,0.345,0.345,0.345,0.344,0.344,0.344,0.343,0.343,0.342,0.342,0.342,0.341,0.341,0.341,0.34,0.34,0.34,0.339,0.339,0.339,0.339,0.339,0.339,0.339,0.338,0.338,0.338,0.337,0.337,0.337,0.336,0.336,0.336,0.335,0.335,0.335,0.335,0.335,0.335,0.335,0.334,0.334,0.0,0.0,0.332,0.332,0.332,0.331,0.331,0.33,0.329,0.329,0.329,0.329,0.329,0.329,0.329,0.329,0.329,0.329,0.329,0.328,0.328,0.328,0.328,0.328,0.327,0.327,0.327,0.326,0.325,0.325,0.325,0.325,0.324,0.324,0.324,0.324,0.324,0.32325,0.323,0.323,0.323,0.323,0.323,0.323,0.323,0.323,0.322,0.322,0.322,0.321,0.321,0.32,0.32,0.32,0.319,0.319,0.319,0.318,0.318,0.318,0.318,0.318,0.318,0.318,0.317,0.317,0.316,0.316,0.315,0.315,0.315,0.315,0.315,0.315,0.314,0.314,0.314,0.314,0.314,0.313,0.313,0.0,0.0,0.312,0.312,0.312,0.312,0.312,0.3115,0.0,0.0,0.311,0.311,0.311,0.311,0.311,0.311,0.0,0.3105,0.0,0.0,0.0,0.0,0.0,0.0,0.0,0.0,0.0,0.0,0.0,0.0,0.0,0.0,0.0,0.0,0.0,0.0,0.0,0.0,0.0,0.0,0.0,0.0,0.0,0.0,0.0,0.0,0.0,0.0,0.0,0.0,0.0,0.0,0.0,0.0,0.0,0.0,0.0,0.0,0.0,0.0,0.0,0.0,0.0,0.0,0.0,0.0,0.0,0.0,0.0,0.0,0.0,0.0,0.0,0.0,0.0,0.0,0.0,0.0,0.0,0.0,0.0
0.468,0.468,0.467,0.466,0.465,0.46525000000000005,0.465,0.465,0.464,0.464,0.463,0.463,0.463,0.463,0.461,0.459,0.459,0.458,0.458,0.458,0.457,0.457,0.457,0.457,0.456,0.455,0.454,0.453,0.453,0.452,0.452,0.452,0.452,0.451,0.451,0.451,0.451,0.45,0.45,0.45,0.449,0.449,0.448,0.448,0.448,0.447,0.447,0.446,0.446,0.446,0.445,0.444,0.442,0.442,0.441,0.441,0.441,0.44,0.44,0.44,0.439,0.439,0.438,0.437,0.436,0.436,0.436,0.436,0.436,0.435,0.435,0.435,0.434,0.434,0.433,0.433,0.432,0.432,0.431,0.431,0.431,0.431,0.431,0.43,0.43,0.429,0.428,0.428,0.427,0.426,0.425,0.425,0.425,0.425,0.425,0.425,0.425,0.424,0.424,0.424,0.423,0.423,0.422,0.422,0.421,0.421,0.42,0.42,0.42,0.42,0.419,0.418,0.418,0.417,0.417,0.416,0.416,0.416,0.416,0.415,0.415,0.414,0.414,0.413,0.413,0.412,0.412,0.412,0.411,0.411,0.411,0.411,0.4115,0.411,0.411,0.411,0.411,0.411,0.41,0.409,0.409,0.408,0.408,0.407,0.407,0.407,0.407,0.406,0.406,0.406,0.406,0.405,0.404,0.404,0.403,0.402,0.402,0.402,0.401,0.401,0.4,0.4,0.4,0.4,0.4,0.399,0.399,0.399,0.398,0.398,0.398,0.39775,0.397,0.397,0.397,0.397,0.396,0.396,0.395,0.395,0.394,0.394,0.394,0.393,0.393,0.393,0.393,0.393,0.392,0.392,0.391,0.391,0.0,0.3905,0.391,0.39,0.39,0.389,0.389,0.389,0.389,0.389,0.387,0.386,0.386,0.386,0.385,0.385,0.385,0.385,0.385,0.384,0.384,0.383,0.383,0.382,0.382,0.382,0.381,0.381,0.381,0.381,0.381,0.38,0.38,0.38,0.379,0.378,0.378,0.378,0.378,0.378,0.377,0.377,0.377,0.377,0.377,0.376,0.376,0.375,0.374,0.374,0.374,0.374,0.373,0.373,0.373,0.373,0.373,0.373,0.372,0.372,0.371,0.37,0.37024999999999997,0.37,0.369,0.369,0.369,0.369,0.369,0.369,0.369,0.369,0.368,0.368,0.368,0.367,0.367,0.367,0.366,0.366,0.366,0.366,0.366,0.366,0.366,0.365,0.365,0.364,0.364,0.364,0.363,0.363,0.363,0.362,0.362,0.362,0.362,0.362,0.361,0.361,0.36,0.359,0.359,0.359,0.359,0.358,0.358,0.358,0.358,0.358,0.358,0.357,0.357,0.357,0.356,0.356,0.356,0.355,0.355,0.355,0.355,0.355,0.354,0.354,0.353,0.352,0.352,0.352,0.3518125,0.351,0.351,0.351,0.351,0.351,0.35,0.349,0.349,0.348,0.348,0.348,0.348,0.348,0.348,0.348,0.347,0.347,0.346,0.346,0.345,0.345,0.345,0.345,0.345,0.345,0.345,0.345,0.345,0.345,0.344,0.344,0.344,0.344,0.343,0.343,0.342,0.342,0.342,0.341,0.341,0.34,0.34,0.34,0.339,0.339,0.339,0.339,0.339,0.339,0.338,0.338,0.338,0.338,0.337,0.337,0.337,0.336,0.336,0.336,0.335,0.335,0.335,0.335,0.335,0.33425000000000005,0.334,0.334,0.333,0.333,0.333,0.332,0.332,0.0,0.0,0.33,0.33,0.33,0.329,0.329,0.329,0.329,0.329,0.329,0.328,0.328,0.328,0.328,0.328,0.328,0.327,0.327,0.327,0.327,0.327,0.326,0.326,0.326,0.326,0.325,0.325,0.324,0.324,0.324,0.324,0.324,0.323,0.323,0.323,0.323,0.322,0.322,0.322,0.322,0.322,0.322,0.0,0.0,0.0,0.321,0.321,0.321,0.32,0.32,0.319,0.319,0.318,0.318,0.318,0.318,0.318,0.318,0.318,0.317,0.317,0.317,0.316,0.316,0.315,0.315,0.315,0.315,0.315,0.314,0.314,0.314,0.314,0.313,0.313,0.313,0.313,0.312,0.312,0.312,0.0,0.0,0.312,0.312,0.311,0.311,0.311,0.31,0.31,0.31,0.31,0.31,0.31,0.31,0.31,0.31,0.3095,0.309,0.0,0.0,0.0,0.0,0.0,0.0,0.0,0.0,0.0,0.0,0.0,0.0,0.0,0.0,0.0,0.0,0.0,0.0,0.0,0.0,0.0,0.0,0.0,0.0,0.0,0.0,0.0,0.0,0.0,0.0,0.0,0.0,0.0,0.0,0.0,0.0,0.0,0.0,0.0,0.0,0.0,0.0,0.0,0.0,0.0,0.0,0.0,0.0,0.0,0.0,0.0,0.0,0.0,0.0,0.0,0.0,0.0,0.0,0.0,0.0,0.0,0.0,0.0
0.465,0.465,0.464,0.464,0.463,0.463,0.463,0.463,0.463,0.462,0.461,0.461,0.46,0.459,0.458,0.458,0.458,0.457,0.457,0.456,0.456,0.455,0.454,0.453,0.453,0.452,0.452,0.452,0.452,0.451,0.451,0.451,0.45,0.449,0.449,0.448,0.448,0.448,0.447,0.447,0.447,0.447,0.447,0.447,0.446,0.446,0.446,0.445,0.444,0.4435,0.443,0.441,0.441,0.441,0.44,0.44,0.439,0.438,0.438,0.437,0.436,0.436,0.436,0.436,0.435,0.435,0.435,0.434,0.433,0.433,0.432,0.432,0.432,0.432,0.431,0.431,0.431,0.431,0.43,0.43,0.43,0.43,0.429,0.428,0.428,0.427,0.426,0.426,0.425,0.425,0.425,0.424,0.424,0.424,0.423,0.423,0.423,0.422,0.422,0.421,0.421,0.421,0.421,0.421,0.42,0.42,0.419,0.419,0.418,0.417,0.417,0.416,0.416,0.416,0.416,0.416,0.415,0.415,0.414,0.414,0.413,0.412,0.412,0.412,0.411,0.411,0.411,0.411,0.411,0.411,0.41,0.41,0.41,0.409,0.408,0.408,0.409,0.408,0.408,0.407,0.407,0.407,0.406,0.406,0.406,0.406,0.406,0.405,0.405,0.404,0.403,0.403,0.402,0.402,0.402,0.401,0.4,0.4,0.399,0.399,0.399,0.398,0.398,0.398,0.398,0.398,0.398,0.398,0.397,0.397,0.397,0.397,0.396,0.396,0.395,0.394,0.394,0.394,0.394,0.393,0.393,0.393,0.392,0.392,0.392,0.392,0.391,0.391,0.39,0.39,0.39,0.389,0.389,0.389,0.389,0.389,0.389,0.389,0.389,0.388,0.387,0.386,0.386,0.385,0.385,0.385,0.385,0.384,0.384,0.383,0.383,0.382,0.382,0.381,0.381,0.381,0.381,0.381,0.381,0.381,0.381,0.38,0.38,0.379,0.378,0.378,0.377,0.377,0.377,0.377,0.377,0.377,0.377,0.376,0.376,0.376,0.375,0.374,0.374,0.373,0.373,0.373,0.373,0.373,0.373,0.372,0.372,0.372,0.372,0.371,0.37,0.37,0.369,0.369,0.369,0.369,0.368,0.368,0.368,0.368,0.368,0.367,0.367,0.367,0.367,0.366,0.366,0.366,0.366,0.366,0.366,0.366,0.365,0.365,0.365,0.365,0.364,0.364,0.364,0.363,0.363,0.362,0.362,0.362,0.362,0.362,0.361,0.361,0.361,0.359,0.359,0.359,0.358,0.358,0.358,0.358,0.358,0.357,0.357,0.357,0.357,0.356,0.356,0.356,0.355,0.355,0.355,0.355,0.355,0.35424999999999995,0.354,0.354,0.354,0.353,0.353,0.352,0.352,0.351,0.351,0.351,0.351,0.35,0.35,0.349,0.349,0.349,0.348,0.348,0.348,0.348,0.348,0.348,0.347,0.347,0.347,0.346,0.345,0.345,0.345,0.345,0.345,0.345,0.345,0.344,0.344,0.344,0.344,0.344,0.344,0.344,0.343,0.343,0.343,0.342,0.342,0.341,0.341,0.341,0.34,0.339,0.339,0.339,0.339,0.339,0.338,0.338,0.338,0.338,0.338,0.338,0.337,0.337,0.337,0.336,0.336,0.336,0.336,0.335,0.335,0.335,0.335,0.335,0.334,0.334,0.333,0.333,0.333,0.333,0.332,0.332,0.332,0.331,0.33,0.329,0.329,0.329,0.329,0.329,0.329,0.329,0.328,0.328,0.328,0.328,0.327,0.327,0.327,0.327,0.327,0.326,0.327,0.326,0.326,0.326,0.326,0.325,0.325,0.324,0.324,0.324,0.324,0.324,0.324,0.323,0.323,0.323,0.323,0.322,0.322,0.322,0.321,0.321,0.321,0.321,0.321,0.321,0.0,0.0,0.0,0.3195,0.32,0.319,0.319,0.318,0.318,0.0,0.3175,0.318,0.317,0.317,0.317,0.316,0.316,0.316,0.315,0.315,0.315,0.315,0.314,0.314,0.314,0.313,0.313,0.313,0.313,0.313,0.313,0.312,0.312,0.312,0.312,0.312,0.311,0.311,0.3105,0.31,0.31,0.31,0.31,0.31,0.31,0.309,0.309,0.309,0.309,0.308,0.308,0.308,0.308,0.0,0.0,0.0,0.0,0.0,0.0,0.0,0.0,0.0,0.0,0.0,0.0,0.0,0.0,0.0,0.0,0.0,0.0,0.0,0.0,0.0,0.0,0.0,0.0,0.0,0.0,0.0,0.0,0.0,0.0,0.0,0.0,0.0,0.0,0.0,0.0,0.0,0.0,0.0,0.0,0.0,0.0,0.0,0.0,0.0,0.0,0.0,0.0,0.0,0.0,0.0,0.0,0.0,0.0,0.0,0.0,0.0,0.0,0.0,0.0,0.0,0.0,0.0,0.0,0.0,0.0
0.463,0.463,0.463,0.462,0.462,0.461,0.461,0.46,0.46,0.459,0.459,0.458,0.458,0.458,0.457,0.457,0.456,0.456,0.455,0.453,0.453,0.453,0.452,0.452,0.452,0.452,0.451,0.451,0.45,0.449,0.449,0.448,0.447,0.447,0.447,0.447,0.446,0.446,0.446,0.446,0.446,0.446,0.446,0.445,0.445,0.444,0.443,0.442,0.441,0.441,0.441,0.44,0.439,0.438,0.438,0.437,0.437,0.436,0.436,0.436,0.436,0.435,0.435,0.434,0.433,0.433,0.432,0.432,0.431,0.431,0.431,0.431,0.431,0.43,0.43,0.43,0.43,0.43,0.429,0.429,0.428,0.428,0.427,0.426,0.426,0.425,0.425,0.424,0.424,0.423,0.423,0.422,0.422,0.422,0.421,0.421,0.421,0.421,0.421,0.42,0.42,0.42,0.419,0.419,0.418,0.417,0.417,0.417,0.416,0.416,0.416,0.415,0.415,0.415,0.415,0.414,0.413,0.413,0.412,0.412,0.412,0.411,0.411,0.411,0.411,0.411,0.41,0.41,0.409,0.409,0.408,0.407,0.407,0.407,0.407,0.406,0.406,0.406,0.407,0.406,0.406,0.406,0.405,0.405,0.405,0.404,0.404,0.403,0.403,0.402,0.402,0.402,0.402,0.401,0.4,0.399,0.399,0.398,0.398,0.398,0.398,0.398,0.397,0.397,0.397,0.397,0.397,0.396,0.396,0.395,0.394,0.394,0.394,0.394,0.393,0.393,0.393,0.393,0.392,0.392,0.391,0.391,0.39,0.391,0.39,0.39,0.39,0.389,0.389,0.389,0.389,0.389,0.389,0.388,0.388,0.388,0.387,0.387,0.386,0.386,0.385,0.385,0.385,0.385,0.384,0.384,0.383,0.383,0.382,0.381,0.381,0.381,0.381,0.381,0.381,0.38,0.38,0.38,0.379,0.379,0.0,0.0,0.378,0.377,0.377,0.377,0.377,0.377,0.376,0.376,0.376,0.375,0.375,0.375,0.374,0.374,0.373,0.373,0.373,0.373,0.373,0.372,0.372,0.372,0.371,0.371,0.37,0.37,0.37,0.369,0.369,0.369,0.369,0.368,0.368,0.367,0.367,0.366,0.366,0.366,0.366,0.366,0.366,0.366,0.366,0.366,0.365,0.365,0.365,0.365,0.364,0.364,0.364,0.364,0.363,0.363,0.363,0.363,0.363,0.362,0.362,0.362,0.362,0.362,0.361,0.359,0.359,0.359,0.359,0.358,0.358,0.358,0.357,0.357,0.356,0.356,0.356,0.356,0.355,0.355,0.355,0.355,0.355,0.355,0.354,0.354,0.354,0.353,0.35325,0.353,0.352,0.352,0.352,0.352,0.352,0.351,0.35075,0.351,0.35,0.349,0.349,0.349,0.348,0.348,0.348,0.348,0.348,0.348,0.347,0.347,0.347,0.346,0.346,0.346,0.345,0.345,0.345,0.345,0.344,0.344,0.344,0.343,0.343,0.343,0.343,0.343,0.343,0.342,0.342,0.342,0.342,0.342,0.342,0.341,0.3405,0.34,0.339,0.339,0.339,0.338,0.338,0.338,0.338,0.338,0.337,0.337,0.337,0.337,0.336,0.336,0.336,0.336,0.335,0.335,0.335,0.335,0.335,0.335,0.335,0.334,0.334,0.333,0.333,0.332,0.332,0.332,0.332,0.332,0.332,0.331,0.331,0.33,0.329,0.329,0.329,0.328,0.328,0.328,0.328,0.328,0.327,0.327,0.327,0.327,0.327,0.327,0.326,0.326,0.326,0.326,0.326,0.326,0.325,0.324,0.324,0.324,0.324,0.324,0.323,0.323,0.323,0.323,0.323,0.323,0.322,0.322,0.322,0.321,0.321,0.321,0.321,0.321,0.321,0.321,0.321,0.321,0.0,0.0,0.0,0.318,0.318,0.318,0.318,0.318,0.317,0.317,0.317,0.316,0.316,0.316,0.315,0.315,0.315,0.315,0.315,0.315,0.314,0.314,0.313,0.313,0.313,0.312,0.312,0.312,0.312,0.312,0.312,0.312,0.312,0.311,0.311,0.311,0.31,0.31,0.31,0.31,0.31,0.31,0.309,0.309,0.309,0.309,0.308,0.308,0.307,0.307,0.307,0.307,0.307,0.0,0.0,0.0,0.0,0.0,0.0,0.0,0.0,0.0,0.0,0.0,0.0,0.0,0.0,0.0,0.0,0.0,0.0,0.0,0.0,0.0,0.0,0.0,0.0,0.0,0.0,0.0,0.0,0.0,0.0,0.0,0.0,0.0,0.0,0.0,0.0,0.0,0.0,0.0,0.0,0.0,0.0,0.0,0.0,0.0,0.0,0.0,0.0,0.0,0.0,0.0,0.0,0.0,0.0,0.0,0.0,0.0,0.0,0.0,0.0,0.0,0.0,0.0,0.0,0.0,0.0
