0,0,0,0,0,0,0,0,0,0,0,0,0,0,0,0,0,0,0,0,0,0,0,0,0,0,0,0,0,0,0,0,0,0,0.606,0.606,0,0,0,0.602,0.602,0.601,0.601,0.6,0.599,0.598,0.598,0.596,0.595,0.595,0.594,0.594,0.593,0.593,0.592,0.592,0.591,0.591,0.59,0.59,0.589,0.587,0.586,0.585,0.584,0.584,0.583,0.583,0.583,0.582,0.582,0.581,0.581,0.581,0.581,0.58,0.58,0.579,0.577,0.576,0.575,0.574,0.573,0.572,0.571,0.57,0.569,0.568,0.567,0.566,0.565,0.565,0.564,0.564,0.562,0.56,0.559,0.557,0.556,0.555,0.555,0.555,0.554,0.554,0.554,0.553,0.552,0.551,0.551,0.551,0.55,0.55,0.549,0.549,0.549,0.548,0.547,0.547,0.547,0.546,0.544,0.542,0.541,0.54,0.54,0.539,0.539,0.538,0.537,0.535,0.534,0.533,0.533,0.532,0.532,0.531,0.531,0.53,0.53,0.529,0.528,0.526,0.525,0.524,0.524,0.523,0.523,0.522,0.522,0.521,0.521,0.52,0.519,0.519,0.519,0.519,0.518,0.518,0.518,0.518,0.517,0.517,0.516,0.516,0.515,0.514,0.513,0.511,0.509,0.509,0.508,0.508,0.508,0.507,0.506,0.505,0.505,0.504,0.504,0.503,0.503,0.503,0.502,0.502,0.502,0.502,0.502,0.501,0.501,0.5,0.5,0.499,0.498,0.496,0.496,0.495,0.495,0.493,0.492,0.491,0.491,0.49,0.489,0.489,0.488,0.488,0.488,0.488,0.488,0.487,0.487,0.486,0.485,0.484,0.483,0.483,0.482,0.482,0.481,0.481,0.48,0.479,0.478,0.478,0.477,0.477,0.477,0.476,0.476,0.476,0.476,0.475,0.475,0.473,0.472,0.471,0.471,0.47,0.469,0.469,0.469,0.468,0.467,0.467,0.466,0.465,0.465,0.465,0.465,0,0,0.463,0.463,0.463,0.463,0.462,0.461,0.46,0.458,0.461,0.46,0.458,0.458,0.458,0.457,0.457,0.457,0.457,0.456,0.456,0.455,0.455,0.454,0.454,0.453,0.453,0.452,0.452,0.452,0.452,0.452,0.452,0.451,0.451,0.451,0.45,0.45,0.449,0.449,0.449,0.448,0.448,0.448,0.447,0.447,0.447,0.446,0.446,0.446,0.446,0.445,0.444,0.442,0.441,0.441,0.44,0.44,0.439,0.438,0.437,0.437,0.436,0.436,0.436,0.436,0.436,0.435,0.433,0.433,0.432,0.431,0.431,0.431,0.431,0.43,0.43,0.43,0.43,0.429,0.429,0.429,0.428,0.427,0.426,0.426,0.426,0.425,0.425,0.425,0.424,0.424,0.423,0.422,0.422,0.421,0.421,0.421,0.421,0.42,0.421,0.42,0.42,0.42,0.42,0.42,0.42,0.42,0.42,0.42,0.419,0,0,0.417,0.417,0.417,0.416,0.416,0.415,0.414,0,0.411,0.411,0.411,0.41,0.41,0.409,0.409,0.408,0.408,0.408,0.407,0.407,0.407,0.407,0.406,0.406,0.405,0.405,0.404,0.404,0.403,0.403,0.402,0.402,0.402,0.402,0.402,0.402,0.401,0.401,0.401,0.4,0.4,0.399,0.399,0.398,0.398,0.398,0.397,0.397,0.397,0.397,0.396,0.396,0.394,0.393,0.393,0.393,0.393,0.393,0.393,0.392,0.392,0.391,0.391,0.39,0.39,0.389,0.389,0.389,0.39,0.39,0.389,0,0,0.387,0.386,0.385,0.385,0.384,0.383,0.382,0.383,0.383,0.382,0.382,0.382,0.382,0.382,0.381,0.381,0.381,0.38,0.38,0.38,0,0,0.377,0.377,0.377,0.376,0.376,0.376,0.375,0.375,0.374,0.374,0.373,0.373,0.373,0.373,0.373,0.372,0.372,0.371,0.371,0.371,0.37,0.37,0.37,0.369,0.369,0.369,0.369,0.369,0.369,0.369,0.369,0.368,0,0,0.366,0.366,0.366,0.366,0.365,0.365,0.364,0.364,0.364,0.364,0.363,0.363,0.363,0.363,0.363,0.362,0.362,0.362,0.361,0.361,0.36,0.36,0.359,0.359,0.359,0.359,0.358,0.359,0.358,0.358,0.357,0.357,0.356,0.355,0.355,0.355,0,0,0.353,0.353,0.353,0.353,0.352,0.352,0.352,0.352,0.351,0.351,0.351,0.351,0.35,0.35,0.35,0.349,0.349,0.349,0.348,0.348,0.348,0.348,0.348,0.347,0.346,0.346,0.346,0.346,0.346,0.346,0.345,0.345,0.345,0.345,0.345,0.345,0,0,0,0,0,0,0,0,0,0,0,0,0,0,0,0,0,0,0,0,0,0,0,0,0,0,0,0,0,0,0,0,0,0,0,0,0,0,0,0,0,0,0,0,0,0,0,0,0,0,0,0,0,0,0,0,0,0,0,0,0,0,0,0,0,0,0,0,0,0,0,0,0,0,0
0,0,0,0,0,0,0,0,0,0,0,0,0,0,0,0,0,0,0,0,0,0,0,0,0,0,0,0,0,0,0,0,0,0.603,0,0,0,0.601,0.601,0.6,0.6,0.599,0.598,0.597,0.595,0.594,0.594,0.593,0.592,0.592,0.592,0.592,0.591,0.591,0.59,0.589,0.588,0.587,0.586,0.586,0.584,0.584,0.583,0.583,0.582,0.582,0.582,0.581,0.581,0.58,0.58,0.579,0.578,0.578,0.577,0.575,0.575,0.574,0.573,0.573,0.571,0.57,0.569,0.567,0.566,0.565,0.565,0.564,0.564,0.564,0.563,0.563,0.561,0.559,0.557,0.556,0.556,0.555,0.555,0.554,0.553,0.551,0.551,0.55,0.55,0.549,0.549,0.548,0.548,0.548,0.548,0.547,0.547,0.547,0.547,0.546,0.545,0.543,0.542,0.541,0.54,0.539,0.539,0.538,0.538,0.537,0.536,0.534,0.533,0.532,0.532,0.531,0.531,0.531,0.53,0.53,0.528,0.527,0.526,0.525,0.524,0.524,0.523,0.523,0.522,0.522,0.521,0.519,0.519,0.518,0.518,0.517,0.517,0.516,0.516,0.516,0.516,0.516,0.516,0.516,0.516,0.516,0.515,0.514,0.512,0.51,0.509,0.509,0.508,0.507,0.507,0.506,0.505,0.504,0.503,0.503,0.503,0.502,0.502,0.502,0.502,0.501,0.501,0.501,0.501,0.5,0.499,0.499,0.497,0.497,0.496,0.496,0.495,0.495,0.494,0.492,0.49,0.49,0.489,0.489,0.489,0.488,0.488,0.487,0.487,0.487,0.486,0.486,0.486,0.484,0.484,0.483,0.483,0.482,0.482,0.481,0.481,0.48,0.479,0.477,0.477,0.476,0.476,0.476,0.475,0.475,0.475,0.475,0.475,0.474,0.473,0.472,0.471,0.47,0.47,0.469,0.469,0.469,0.467,0.467,0.466,0.465,0.465,0.465,0.464,0.464,0.463,0.463,0.463,0.463,0.463,0.462,0.461,0.461,0.46,0.46,0.458,0.458,0.457,0.457,0.456,0.455,0.457,0.456,0.456,0.456,0.455,0.454,0.454,0.453,0.453,0.452,0.452,0.452,0.452,0.452,0.451,0.451,0.451,0.45,0.45,0.449,0.449,0.449,0.448,0.448,0.448,0.447,0.447,0.447,0.447,0.447,0.446,0.446,0.446,0.446,0.445,0.445,0.444,0.444,0.442,0.441,0.441,0.44,0.44,0.439,0.437,0.437,0.436,0.436,0.436,0.436,0.436,0.435,0.435,0.433,0.432,0.432,0.431,0.431,0.431,0.43,0.43,0.43,0.429,0.429,0.429,0.428,0.428,0.427,0.426,0.426,0.425,0.425,0.425,0.425,0.424,0.424,0.423,0.422,0.422,0.421,0.421,0.421,0.42,0.42,0.42,0.419,0.419,0.419,0.419,0.419,0.419,0.419,0.418,0.418,0.418,0.417,0.417,0.416,0.416,0.416,0.415,0.415,0.415,0.414,0,0,0.411,0.411,0.411,0.41,0.409,0.409,0.408,0.408,0.407,0.407,0.407,0.406,0.406,0.406,0.406,0.405,0.405,0.404,0.403,0.403,0.402,0.402,0.402,0.402,0.402,0.401,0.401,0.401,0.4,0.4,0.399,0.399,0.399,0.398,0.398,0.398,0.398,0.398,0.397,0.397,0.397,0.394,0.394,0.393,0.393,0.393,0.393,0.393,0.393,0.392,0.392,0.392,0.391,0.391,0.39,0.39,0.39,0.389,0.389,0.389,0.389,0.389,0.389,0.388,0,0,0,0,0.382,0.382,0.381,0.381,0.381,0.381,0.381,0.381,0.381,0.381,0.381,0.381,0.381,0.38,0.38,0.379,0.378,0.377,0.377,0.377,0.377,0.376,0.376,0.375,0.374,0.374,0.374,0.373,0.373,0.373,0.373,0.373,0.373,0.373,0.372,0.372,0.371,0.37,0.37,0.37,0.37,0.37,0.369,0.369,0.369,0.369,0.369,0.368,0.368,0.368,0.367,0.366,0.366,0.366,0.366,0.365,0.365,0.365,0.364,0.364,0.364,0.363,0.363,0.362,0.362,0.362,0.362,0.362,0.362,0.362,0.362,0.361,0.36,0.36,0.359,0.359,0.359,0.359,0.358,0.358,0.358,0.358,0.358,0.357,0,0,0,0,0.353,0.353,0.352,0.352,0.352,0.352,0.352,0.352,0.352,0.351,0.351,0.351,0.351,0.351,0.35,0.349,0.349,0.349,0.349,0.349,0.348,0.348,0.348,0.348,0.348,0.347,0.347,0.346,0.346,0.345,0.345,0.345,0.345,0.345,0.345,0.345,0.345,0.345,0.345,0.345,0.345,0,0,0,0,0,0,0,0,0,0,0,0,0,0,0,0,0,0,0,0,0,0,0,0,0,0,0,0,0,0,0,0,0,0,0,0,0,0,0,0,0,0,0,0,0,0,0,0,0,0,0,0,0,0,0,0,0,0,0,0,0,0,0,0,0,0,0,0,0,0,0,0,0,0,0
0,0,0,0,0,0,0,0,0,0,0,0,0,0,0,0,0,0,0,0,0,0,0,0,0,0,0,0,0,0,0,0,0,0,0,0.6,0.599,0.598,0.598,0.597,0.597,0.595,0.594,0.593,0.592,0.592,0.592,0.591,0.591,0.591,0.59,0.589,0.588,0.587,0.586,0.586,0.585,0.584,0.583,0.583,0.582,0.582,0.582,0.581,0.581,0.58,0.579,0.579,0.578,0.576,0.575,0.575,0.574,0.574,0.573,0.573,0.572,0.572,0.57,0.568,0.566,0.565,0.565,0.564,0.564,0.563,0.563,0.563,0.562,0.56,0.559,0,0.556,0.556,0.555,0.555,0.554,0.553,0.552,0.55,0.549,0.549,0.548,0.548,0.548,0.547,0.547,0.547,0.547,0.547,0.547,0.546,0.546,0.545,0.543,0.542,0.54,0.54,0.539,0.539,0.538,0.537,0.536,0.536,0.535,0.533,0.532,0.531,0.531,0.531,0.53,0.529,0.528,0.528,0.527,0.526,0.524,0.524,0.523,0.523,0.523,0.522,0.521,0.52,0.519,0.518,0.517,0.516,0.516,0.516,0.516,0.516,0.516,0.516,0.516,0.515,0.515,0.515,0.514,0.514,0.513,0.513,0.511,0.51,0.509,0.508,0.507,0.506,0.505,0.504,0.504,0.503,0.502,0.502,0.502,0.502,0.502,0.501,0.501,0.501,0.501,0.5,0.499,0.499,0.499,0.498,0.497,0.496,0.496,0.495,0.495,0.495,0.494,0.492,0.49,0,0.489,0.488,0.488,0.487,0.487,0.486,0.485,0.485,0.484,0.483,0.483,0.483,0.483,0.482,0.482,0.482,0.481,0.481,0.48,0.478,0.478,0.477,0.476,0.475,0.475,0.475,0.474,0.474,0.473,0.473,0.472,0.472,0.471,0.471,0.471,0.47,0.469,0.469,0.468,0.468,0.467,0.466,0.465,0.465,0.464,0.464,0.464,0.463,0.463,0.463,0.463,0.462,0.461,0.461,0.46,0.459,0.458,0.458,0.458,0.458,0.457,0.457,0.456,0.455,0.454,0.453,0.453,0.452,0.452,0.453,0.453,0.452,0.452,0.452,0.452,0.451,0.451,0.45,0.45,0.449,0.449,0.449,0.449,0.448,0.448,0.447,0.447,0.447,0.447,0.447,0.447,0.446,0.446,0.446,0.446,0.446,0.445,0.444,0.444,0.443,0.442,0.442,0.441,0.441,0,0.44,0,0.438,0.437,0.436,0.436,0.436,0.435,0.435,0.435,0.435,0.434,0.433,0.432,0.431,0.431,0.431,0.43,0.43,0.429,0.429,0.428,0.427,0.427,0.426,0.426,0.426,0.426,0.425,0.425,0.425,0.425,0.424,0.423,0.423,0.422,0.422,0.421,0.421,0.421,0.42,0.42,0.42,0.42,0.418,0.418,0.418,0.417,0.417,0.417,0.417,0.417,0.417,0.417,0.416,0.416,0.416,0.416,0.415,0.415,0.414,0.413,0.413,0.412,0,0,0,0.41,0.409,0.409,0.408,0.408,0.407,0.407,0,0,0.406,0.406,0.405,0.405,0.404,0.404,0.403,0.403,0.402,0.402,0.402,0.401,0.401,0.4,0.4,0.4,0.399,0.399,0.399,0.398,0.398,0.398,0.398,0.398,0.398,0.397,0.397,0.396,0.395,0.394,0.394,0.394,0.393,0.393,0.393,0.393,0.392,0.392,0.392,0.391,0.391,0.39,0.39,0.389,0.389,0.389,0.389,0.389,0.388,0.387,0.387,0.387,0.386,0.386,0,0,0,0,0.381,0.381,0.381,0.381,0.381,0.38,0.38,0.38,0.38,0.38,0,0,0,0.378,0.378,0.377,0.377,0.377,0.377,0.376,0.375,0.374,0.374,0.374,0.373,0.373,0.373,0.373,0.373,0.373,0.372,0.372,0.372,0.371,0.371,0.371,0.37,0.37,0.37,0.369,0.369,0.369,0.369,0.369,0.368,0.367,0.367,0.367,0.367,0.366,0.366,0.366,0.366,0.365,0.365,0.364,0.364,0.364,0.364,0.363,0.363,0.363,0.362,0.362,0.362,0.362,0.362,0.362,0.362,0.361,0.361,0.36,0.36,0.359,0.359,0.358,0.358,0.358,0.358,0.357,0.357,0.357,0.356,0.356,0.355,0,0,0,0.352,0.351,0.351,0.351,0.351,0.351,0.351,0.351,0.351,0.351,0.351,0.35,0.35,0.349,0.349,0.348,0.348,0.348,0.348,0.348,0.348,0.348,0.348,0.347,0.347,0.347,0.346,0.345,0.345,0.345,0.345,0.344,0.344,0.344,0.344,0.344,0.344,0.344,0.344,0.344,0.344,0.344,0,0,0,0,0,0,0,0,0,0,0,0,0,0,0,0,0,0,0,0,0,0,0,0,0,0,0,0,0,0,0,0,0,0,0,0,0,0,0,0,0,0,0,0,0,0,0,0,0,0,0,0,0,0,0,0,0,0,0,0,0,0,0,0,0,0,0,0,0,0,0,0,0,0,0
0,0,0,0,0,0,0,0,0,0,0,0,0,0,0,0,0,0,0,0,0,0,0,0,0,0,0,0,0,0,0,0,0,0.599,0.599,0.598,0.596,0.595,0.594,0.593,0.592,0.592,0.592,0.591,0.591,0.59,0.59,0.588,0.587,0.586,0.586,0.585,0.584,0.584,0.583,0.583,0.582,0.582,0.582,0.581,0.581,0.58,0.579,0.578,0.577,0.576,0.575,0.574,0.574,0.573,0.573,0.573,0.572,0.571,0.569,0.568,0.566,0.566,0.565,0.564,0.564,0.563,0.563,0.562,0.562,0.561,0.559,0.558,0.557,0.556,0.556,0.555,0.555,0.554,0.552,0.551,0.549,0.549,0.548,0.548,0.547,0.547,0.547,0.547,0.547,0.546,0.546,0.545,0.545,0.544,0.544,0.542,0.541,0.54,0.54,0.539,0.538,0.538,0.537,0.536,0.535,0.534,0.532,0.532,0.532,0.531,0.53,0.53,0.529,0.528,0.527,0.526,0.525,0.525,0.524,0.524,0.523,0.523,0.522,0.521,0.52,0.519,0.518,0.517,0.516,0.516,0.516,0.516,0.515,0.515,0.514,0.514,0.514,0.513,0.513,0.512,0.512,0.511,0.511,0.51,0.51,0.509,0.508,0.507,0.506,0.505,0.504,0.503,0.502,0.502,0.502,0.502,0.502,0.501,0.501,0.5,0.5,0.499,0.499,0.499,0.499,0.498,0.497,0.497,0.497,0.496,0.495,0.495,0.495,0.494,0.493,0.491,0.49,0.489,0.488,0.488,0.487,0.486,0.486,0.485,0.484,0.483,0.482,0.482,0.482,0.482,0.482,0.482,0.481,0.481,0.481,0.48,0.479,0.478,0.477,0.476,0.476,0.475,0.474,0.474,0.473,0.473,0.472,0.472,0.471,0.471,0.47,0.47,0.47,0.47,0.469,0.469,0.468,0.467,0.465,0.465,0.464,0.464,0.464,0.463,0.463,0.463,0.463,0.463,0.462,0.462,0.461,0.46,0.458,0.458,0.458,0.457,0.457,0.457,0.457,0.456,0.455,0.454,0.453,0.453,0.452,0.452,0.452,0.452,0.451,0.45,0.45,0.452,0.451,0.45,0.449,0.449,0.448,0.448,0.447,0.447,0.447,0.447,0.447,0.447,0.446,0.446,0.446,0.446,0.446,0.446,0.445,0.445,0.445,0.445,0.444,0,0,0.442,0.441,0.441,0.441,0.441,0.44,0.439,0.438,0.437,0.436,0.436,0.436,0.436,0.435,0.435,0.434,0.433,0.432,0.432,0.431,0.431,0.431,0.43,0.43,0.43,0.429,0.428,0.427,0.426,0.426,0.426,0.425,0.425,0.425,0.425,0.425,0.424,0.424,0.423,0.423,0.422,0.421,0.421,0.421,0.421,0.42,0.42,0.42,0.418,0.418,0.418,0.417,0.417,0.417,0.416,0.416,0.416,0.416,0.416,0.416,0.416,0.415,0.415,0.415,0.415,0.415,0.414,0.413,0.411,0.411,0.411,0.41,0.41,0.41,0,0.408,0.407,0.407,0.407,0.406,0.406,0.406,0,0.405,0.404,0.404,0.404,0.403,0.403,0.402,0.402,0.402,0.401,0.401,0.4,0.399,0.399,0.398,0.398,0.398,0.398,0.398,0.398,0.397,0.397,0.397,0.397,0.396,0.395,0.395,0.394,0.394,0.394,0.393,0.393,0.393,0.392,0.391,0.391,0.391,0.391,0.39,0.39,0.39,0.389,0.389,0.389,0.389,0.389,0.388,0.387,0.386,0.386,0.385,0.385,0.385,0.385,0.384,0.383,0,0,0,0.38,0.38,0.38,0.38,0.379,0.379,0.379,0.378,0.378,0,0,0,0.377,0.377,0.377,0.376,0.376,0.376,0.375,0.374,0.374,0.373,0.373,0.372,0.372,0.372,0.372,0.372,0.371,0.371,0.371,0.37,0.37,0.37,0.37,0.37,0.369,0.369,0.369,0.369,0.368,0.368,0.367,0.367,0.366,0.366,0.366,0.366,0.366,0.366,0.366,0.365,0.364,0.364,0.364,0.363,0.363,0.363,0.362,0.362,0.362,0.362,0.362,0.362,0.362,0.362,0.362,0.361,0.36,0.36,0.36,0.359,0,0,0,0.358,0.357,0.357,0.356,0.356,0.355,0.355,0.355,0.354,0.354,0.353,0,0.351,0.351,0.351,0.35,0.351,0.351,0.35,0.35,0.35,0.35,0.35,0.35,0.349,0.348,0.348,0.348,0.348,0.348,0.348,0.348,0.348,0.347,0.347,0.346,0.345,0.345,0.345,0.345,0.344,0.344,0.344,0.343,0.343,0.343,0.343,0.342,0.342,0.342,0.342,0.342,0.342,0.342,0,0,0,0,0,0,0,0,0,0,0,0,0,0,0,0,0,0,0,0,0,0,0,0,0,0,0,0,0,0,0,0,0,0,0,0,0,0,0,0,0,0,0,0,0,0,0,0,0,0,0,0,0,0,0,0,0,0,0,0,0,0,0,0,0,0,0,0,0,0,0,0,0,0,0,0
0,0,0,0,0,0,0,0,0,0,0,0,0,0,0,0,0,0,0,0,0,0,0,0,0,0,0,0,0,0,0,0.597,0.596,0.596,0.596,0.595,0.593,0.592,0.592,0.592,0.591,0.591,0.591,0.59,0.587,0.586,0.585,0.585,0.584,0.583,0.583,0.582,0.582,0.582,0.582,0.581,0.581,0.581,0.58,0.579,0.578,0.577,0.576,0.575,0.574,0.573,0.573,0.573,0.572,0.571,0.571,0.568,0.566,0.566,0.565,0.564,0.564,0.564,0.563,0.562,0.561,0.56,0.558,0.558,0.557,0.556,0.556,0.556,0.555,0.555,0.554,0.553,0.551,0.55,0.548,0.548,0.547,0.547,0.547,0.547,0.546,0.546,0.546,0.544,0.544,0.543,0.542,0.542,0.541,0.54,0.54,0.539,0.539,0.538,0.538,0.536,0.535,0.534,0.534,0.533,0.531,0.531,0.531,0.53,0.53,0.529,0.527,0.526,0.525,0.525,0.524,0.523,0.523,0.523,0.523,0.522,0.521,0.52,0.519,0.517,0.517,0.516,0.516,0.515,0.515,0.514,0.514,0.513,0.513,0.512,0.511,0.511,0.511,0.51,0.51,0.509,0.509,0.509,0.509,0.509,0.507,0.506,0.505,0.504,0.503,0.502,0.502,0.502,0.501,0.501,0.501,0.5,0.499,0.499,0.499,0.498,0.498,0.497,0.497,0.497,0.497,0.497,0.496,0.496,0.495,0.495,0.495,0.493,0,0.49,0.489,0,0,0.488,0.487,0.486,0.484,0.483,0.482,0.482,0.482,0.482,0.481,0.481,0.481,0.48,0.48,0.479,0.479,0.478,0.478,0,0.476,0.476,0.475,0.474,0.473,0.473,0.472,0.471,0.471,0.471,0.47,0.47,0.47,0.47,0.469,0.469,0.469,0.468,0.468,0.466,0.464,0.464,0.463,0.463,0.463,0.463,0.463,0.462,0.462,0.461,0.461,0.461,0.46,0.458,0.458,0.458,0.457,0.457,0.456,0.455,0.454,0.454,0.453,0.453,0.452,0.452,0.452,0.452,0.451,0.451,0.45,0.449,0.449,0.448,0.447,0.447,0.447,0.446,0.447,0.447,0.447,0.447,0.446,0.446,0.446,0.446,0.446,0.445,0.445,0.444,0.444,0.444,0.444,0.443,0.443,0.443,0.443,0.442,0.442,0,0,0.44,0.44,0.439,0.438,0.437,0.437,0.436,0.436,0.435,0.435,0.434,0.433,0.433,0.433,0.432,0.432,0.431,0.431,0.431,0.431,0.43,0.43,0.429,0.429,0.428,0.427,0.426,0.425,0.425,0.425,0.425,0.424,0.424,0.424,0.423,0.423,0.423,0.422,0.421,0.421,0.421,0.42,0.42,0.42,0.419,0.418,0.417,0.417,0.417,0.416,0.416,0.416,0.416,0.416,0.416,0.415,0.415,0.415,0.415,0.415,0.414,0.414,0.414,0.414,0.413,0.411,0.411,0.411,0.41,0.41,0.408,0.408,0.407,0.407,0.407,0.406,0.406,0.406,0.406,0.405,0.404,0.404,0.404,0.403,0.403,0.402,0.402,0.402,0.402,0.401,0.401,0.4,0.399,0.398,0.398,0.398,0.398,0.397,0.397,0.397,0.397,0.397,0.397,0.394,0.394,0.394,0.394,0.394,0.394,0.394,0.393,0.393,0.393,0.392,0.392,0.391,0.391,0.39,0.389,0.389,0.389,0.389,0.389,0.389,0.389,0.389,0.387,0.387,0.386,0,0.385,0,0,0,0,0.383,0.381,0.381,0,0,0,0,0.378,0.378,0.378,0.378,0.378,0.378,0.377,0.377,0.377,0,0,0.375,0.375,0.375,0.375,0.375,0.374,0.374,0.373,0.373,0.372,0.372,0.371,0.371,0.371,0.371,0.37,0.37,0.37,0.37,0.37,0.369,0.369,0.369,0.369,0.369,0.368,0.368,0.368,0.367,0.366,0.366,0.366,0.366,0.366,0.366,0.365,0.365,0.365,0.365,0.364,0.364,0.363,0.363,0.363,0.362,0.362,0.362,0,0.362,0.362,0.362,0.362,0.362,0.362,0.362,0.361,0.36,0.359,0.359,0.359,0.358,0.358,0,0.356,0.356,0.355,0.355,0.355,0.355,0.355,0.354,0.354,0.352,0.351,0.351,0.351,0.35,0.349,0.349,0.349,0.349,0.349,0.349,0.348,0,0.348,0.348,0.348,0.348,0.348,0.348,0.348,0.348,0.347,0.347,0.347,0.347,0.345,0,0,0.345,0.345,0.344,0.344,0.343,0.343,0.342,0.342,0.342,0.342,0.341,0,0.341,0,0,0,0.342,0.341,0,0,0,0,0,0,0,0,0,0,0,0,0,0,0,0,0,0,0,0,0,0,0,0,0,0,0,0,0,0,0,0,0,0,0,0,0,0,0,0,0,0,0,0,0,0,0,0,0,0,0,0,0,0,0,0,0,0,0,0,0,0,0,0,0,0,0,0,0,0,0,0,0,0,0,0
0,0,0,0,0,0,0,0,0,0,0,0,0,0,0,0,0,0,0,0,0,0,0,0,0,0,0,0,0,0,0.593,0.592,0.592,0.592,0.592,0.592,0.592,0.591,0.591,0.59,0.59,0.589,0.586,0.585,0.584,0.583,0.583,0.582,0.582,0.582,0.581,0.581,0.581,0.58,0.58,0.579,0.579,0.577,0.576,0.575,0.575,0.574,0.573,0.573,0.573,0.572,0.571,0.57,0.569,0.566,0.566,0.565,0.564,0.564,0.563,0.562,0.561,0.561,0.559,0.557,0.557,0.556,0.556,0.556,0.555,0.555,0.555,0.554,0.553,0.551,0.55,0.548,0.547,0.547,0.547,0.546,0.546,0.546,0.545,0.544,0.543,0.543,0.542,0.542,0.541,0.54,0.539,0.539,0.539,0.538,0.538,0.537,0.535,0.534,0.533,0.532,0.532,0.531,0.531,0.53,0.529,0.528,0.527,0.526,0.526,0.525,0.524,0.524,0.523,0.523,0.522,0.522,0.522,0.521,0.52,0.519,0.518,0.517,0.516,0.516,0.516,0.514,0.513,0.512,0.511,0.511,0.511,0.51,0.51,0.51,0.509,0.509,0.509,0.509,0.509,0.508,0.508,0.507,0.506,0.505,0.504,0.503,0.502,0.502,0.501,0.501,0.5,0.5,0.499,0.498,0.497,0.497,0.497,0.496,0.496,0.496,0.496,0.496,0.496,0.496,0.496,0.495,0.495,0.495,0.494,0.491,0.49,0.489,0.489,0.488,0.487,0.487,0.486,0.485,0.484,0.482,0.482,0.482,0.481,0.481,0.48,0.48,0.479,0.479,0.478,0.477,0.477,0.477,0.476,0.476,0.476,0.475,0.474,0.473,0.473,0.472,0.471,0.471,0.47,0.47,0.47,0.469,0.469,0.469,0.469,0.469,0.468,0.468,0.466,0.465,0.464,0.464,0.463,0.462,0.462,0.461,0.461,0.46,0.46,0.459,0.459,0.458,0.458,0.458,0.458,0.457,0.457,0.456,0.456,0.455,0.454,0.453,0.452,0.452,0.452,0.452,0.451,0.451,0.449,0.449,0.448,0.448,0.448,0.447,0.447,0.447,0.447,0.446,0.446,0.446,0.445,0.444,0.444,0.443,0.445,0.445,0.444,0.444,0.443,0.443,0.442,0.442,0.442,0.441,0.441,0.441,0.441,0.441,0.441,0.441,0.44,0.44,0.439,0.438,0.437,0.436,0.436,0.436,0.436,0.435,0.434,0.433,0.432,0.432,0.431,0.431,0.431,0.431,0.431,0.431,0.43,0.43,0.43,0.43,0.429,0.427,0.427,0.426,0.425,0.425,0.424,0.424,0.423,0.423,0.423,0.422,0.422,0.421,0.421,0.421,0.421,0.42,0.42,0.418,0.418,0.417,0.417,0.416,0.416,0.416,0.416,0.416,0.415,0.415,0.415,0.415,0.415,0.414,0.414,0.414,0.413,0.413,0.412,0.412,0.412,0.411,0.411,0.411,0.41,0.41,0.409,0.408,0.408,0.407,0.406,0.406,0.406,0.406,0.405,0.404,0.404,0.404,0.403,0.403,0.403,0.402,0.402,0.402,0.402,0.401,0.401,0.4,0.399,0.398,0.398,0.398,0.397,0.397,0.397,0.397,0.396,0.394,0.394,0.394,0.394,0.393,0.393,0.393,0.393,0.393,0.393,0.393,0.392,0.392,0.391,0.391,0.391,0.39,0.389,0,0,0,0.389,0.389,0.388,0.388,0.388,0.387,0.386,0.386,0.385,0.385,0.385,0.384,0,0,0,0.381,0.381,0.38,0,0,0.378,0.378,0.377,0.377,0.377,0.377,0.377,0.377,0.377,0.376,0.375,0.374,0.374,0.373,0.373,0.373,0.373,0.373,0.373,0.373,0.373,0.373,0.372,0.371,0.37,0.37,0.37,0.37,0.37,0.369,0.369,0.369,0.369,0.369,0.369,0.368,0.368,0.367,0.367,0.366,0.366,0.366,0.366,0.366,0.365,0.365,0.365,0.365,0.364,0.364,0.364,0.364,0.363,0.363,0.363,0.362,0.362,0.362,0.362,0.362,0.362,0,0.362,0.362,0.361,0.361,0.361,0.36,0,0.36,0.359,0.359,0.358,0.358,0.358,0.356,0.355,0.355,0.355,0.355,0.354,0.354,0.354,0.353,0,0.351,0.351,0.35,0.35,0.349,0.349,0.348,0.348,0.348,0.348,0.348,0.348,0.348,0,0.348,0.348,0.348,0.348,0.347,0.347,0.347,0.346,0.346,0.346,0.345,0.345,0.345,0,0,0,0.343,0.342,0.342,0.342,0.342,0.341,0.341,0.341,0.341,0.34,0.34,0.34,0,0,0,0,0.34,0,0,0,0,0,0,0,0,0,0,0,0,0,0,0,0,0,0,0,0,0,0,0,0,0,0,0,0,0,0,0,0,0,0,0,0,0,0,0,0,0,0,0,0,0,0,0,0,0,0,0,0,0,0,0,0,0,0,0,0,0,0,0,0,0,0,0,0,0,0,0,0,0,0,0,0
0,0,0,0,0,0,0,0,0,0,0,0,0,0,0,0,0,0,0,0,0,0,0,0,0,0,0,0,0,0.591,0.591,0.591,0.591,0.591,0.591,0.591,0.59,0.589,0.589,0.586,0.586,0.584,0.584,0.583,0.582,0.582,0.582,0.581,0.581,0.58,0.58,0.579,0.579,0.578,0.576,0.575,0.575,0.574,0.574,0.573,0.573,0.573,0.572,0.571,0.57,0.569,0.566,0.565,0.565,0.564,0.564,0.563,0.563,0.562,0.56,0.559,0.558,0.556,0.556,0.555,0.555,0.555,0.554,0.554,0.553,0.553,0.552,0.551,0.549,0.548,0.547,0.547,0.546,0.545,0.544,0.543,0.543,0.542,0.542,0.541,0.54,0.54,0.54,0.539,0.539,0.538,0.538,0.537,0.536,0.535,0.533,0,0.532,0.531,0.53,0.529,0.528,0.528,0.527,0.526,0.525,0.525,0.524,0.524,0.523,0.523,0.523,0.522,0.521,0.52,0.519,0.518,0.519,0.518,0.517,0.516,0.516,0.516,0.515,0.513,0.512,0.511,0.51,0.51,0.509,0.509,0.509,0.509,0.509,0.508,0.508,0.508,0.508,0.507,0.506,0.505,0.504,0,0,0.502,0.502,0.501,0.501,0.5,0.499,0.497,0.497,0.496,0.496,0.496,0.495,0.495,0.495,0.495,0.495,0.495,0.495,0.495,0.495,0.495,0.494,0.494,0.493,0.49,0.49,0.489,0.488,0.488,0.487,0.485,0.484,0.483,0.483,0.482,0.482,0.481,0.481,0.48,0.479,0.478,0.478,0.477,0.477,0.476,0.476,0.476,0.476,0.475,0.475,0.474,0.473,0.472,0.471,0.471,0.47,0.47,0.47,0.47,0.469,0.469,0.469,0.469,0.469,0.468,0.468,0.468,0.466,0.465,0.464,0.464,0.463,0.463,0.461,0.46,0.459,0.459,0.458,0.458,0.458,0.457,0.457,0.457,0.457,0.456,0.456,0.455,0.454,0.453,0.453,0.452,0.452,0.452,0.452,0.451,0.451,0.449,0.449,0.448,0.447,0.447,0.447,0.447,0.447,0.446,0.446,0.446,0,0.445,0.444,0.443,0.443,0.442,0.442,0.441,0.441,0.441,0.442,0.441,0.441,0.441,0.441,0.441,0.44,0.44,0.44,0.44,0.44,0.439,0.438,0.438,0.437,0.436,0.436,0.436,0.435,0.435,0.434,0.433,0.432,0.432,0.431,0.431,0.431,0.431,0.431,0.431,0.431,0.43,0.43,0.429,0.429,0.429,0.428,0.427,0.426,0.425,0.425,0.424,0.424,0.423,0.422,0.422,0.421,0.421,0.421,0.421,0.421,0.42,0.42,0.42,0.418,0.417,0.417,0.416,0.416,0.416,0.416,0.415,0.415,0.415,0.415,0.414,0.414,0.414,0.414,0.413,0.413,0.412,0.412,0.411,0.411,0.411,0.411,0.411,0.41,0.41,0.409,0,0,0,0.407,0.407,0.406,0.406,0.406,0.405,0.404,0.404,0.403,0.403,0.402,0.402,0.402,0.402,0.402,0.402,0.401,0.4,0.4,0.399,0.399,0.398,0.398,0.397,0.397,0.396,0.396,0.394,0.394,0.394,0.393,0.393,0.393,0.393,0.393,0.392,0.392,0.392,0.392,0.392,0.391,0.391,0.391,0.39,0.39,0.389,0.389,0.389,0.389,0.388,0,0,0,0.386,0.386,0.386,0.385,0.385,0.385,0.385,0.384,0.383,0.382,0.381,0,0.381,0.38,0.38,0.379,0.378,0.378,0.378,0.377,0.377,0.377,0.377,0.377,0.377,0.376,0.376,0.375,0.374,0.373,0.373,0.373,0.372,0.372,0.372,0.372,0.372,0.372,0.372,0.371,0.371,0.37,0.37,0.37,0.369,0.369,0.369,0.369,0.369,0.369,0.368,0.368,0.367,0.367,0.366,0.366,0.366,0.366,0.366,0.365,0.365,0.365,0.364,0.364,0.364,0.363,0.363,0.363,0.362,0.362,0.362,0.362,0.362,0.362,0.362,0.362,0.362,0.361,0.361,0,0,0.361,0.361,0.361,0.36,0.36,0.36,0.36,0.359,0.359,0.358,0.358,0.357,0.355,0.355,0.354,0.354,0.354,0.353,0.353,0.353,0.352,0,0.351,0.351,0.35,0.349,0.349,0.348,0.348,0.348,0.348,0.348,0.348,0.348,0,0,0,0.346,0.346,0.346,0.346,0.346,0.345,0.345,0.345,0.345,0.344,0.344,0.343,0.343,0,0,0,0.342,0.342,0.341,0.341,0.341,0.34,0.34,0.34,0.339,0.339,0.339,0.339,0,0,0,0,0,0,0,0,0,0,0,0,0,0,0,0,0,0,0,0,0,0,0,0,0,0,0,0,0,0,0,0,0,0,0,0,0,0,0,0,0,0,0,0,0,0,0,0,0,0,0,0,0,0,0,0,0,0,0,0,0,0,0,0,0,0,0,0,0,0,0,0,0,0,0,0,0,0,0,0,0
0,0,0,0,0,0,0,0,0,0,0,0,0,0,0,0,0,0,0,0,0,0,0,0,0,0,0,0,0,0.591,0.59,0.59,0.59,0.589,0.589,0.588,0.587,0.584,0.584,0.583,0.583,0.582,0.582,0.581,0.581,0.58,0.579,0.579,0.578,0.577,0.576,0.575,0.575,0.575,0.574,0.574,0.573,0.573,0.573,0.572,0.571,0.57,0.569,0.567,0.565,0.565,0.564,0.564,0.563,0.562,0.561,0.56,0.559,0.558,0.557,0.556,0.555,0.555,0.554,0.554,0.553,0.552,0.551,0.55,0.55,0.549,0.548,0.547,0.546,0.546,0.544,0.543,0.542,0.541,0.541,0.54,0.54,0.54,0.539,0.539,0.539,0.538,0.538,0.538,0.537,0.535,0.534,0.533,0.532,0.531,0.531,0.529,0.528,0.527,0.526,0.525,0.524,0.524,0.524,0.523,0.523,0.523,0.522,0.522,0.521,0.52,0.519,0.519,0.518,0.517,0.517,0.516,0.516,0.516,0,0,0.513,0.511,0.51,0.51,0.509,0.509,0.509,0.509,0.508,0.508,0.508,0.507,0.507,0.507,0.506,0.505,0.505,0.504,0.503,0.503,0.502,0.502,0.502,0.501,0.5,0.5,0.497,0.496,0.496,0.495,0.495,0.495,0.495,0.494,0.494,0.494,0.494,0.494,0.493,0.493,0.493,0.493,0.492,0.492,0.49,0.49,0.489,0.488,0.488,0.487,0.485,0.485,0.483,0.482,0.482,0.481,0.481,0.48,0.48,0.479,0.478,0.477,0.477,0.476,0.476,0.476,0.475,0.475,0.475,0.475,0.473,0.473,0.472,0.471,0.471,0.47,0.47,0.469,0.469,0.469,0.469,0.469,0.468,0.468,0.467,0.467,0.467,0.465,0.464,0.464,0.464,0.463,0.463,0.462,0.461,0.46,0,0,0,0.457,0.457,0.457,0.457,0.456,0.455,0.455,0.454,0.453,0.453,0.453,0.452,0.452,0.452,0.452,0.451,0.451,0.449,0.448,0.448,0.447,0.447,0.447,0.446,0.446,0.446,0.446,0.446,0.445,0.444,0.444,0.443,0.442,0.441,0.441,0.441,0.441,0.441,0.44,0.44,0.44,0.439,0.438,0.438,0.44,0.439,0.439,0.439,0.438,0.438,0.437,0.437,0.436,0.436,0.436,0.435,0.435,0.433,0.432,0.432,0.432,0.432,0.431,0.431,0.431,0.43,0.43,0.43,0.43,0.43,0.429,0.429,0.429,0.428,0.427,0.426,0.426,0.425,0.425,0.425,0.424,0.423,0.422,0.422,0.421,0.421,0.421,0.421,0.42,0.42,0.42,0.42,0.418,0.417,0.416,0.416,0.416,0.416,0.415,0.415,0.414,0.414,0.414,0.413,0.413,0.412,0.412,0.412,0.412,0.411,0.411,0.411,0.411,0.411,0.411,0.41,0.41,0.409,0.409,0.408,0.407,0.407,0,0,0,0.406,0.406,0.406,0.405,0.404,0.404,0.403,0.403,0.402,0,0,0.401,0.401,0.401,0.401,0.4,0.399,0.399,0.398,0.398,0.397,0.397,0.397,0.394,0.394,0.393,0.393,0.393,0.393,0.393,0.393,0.392,0.391,0.391,0.391,0.391,0.391,0.39,0.39,0.39,0.39,0.389,0.389,0.389,0.389,0.389,0.388,0.388,0.386,0,0.385,0.385,0.385,0.385,0.385,0.385,0.384,0.384,0.383,0.382,0.382,0.381,0.38,0.38,0.379,0.378,0.378,0.377,0.377,0.377,0.377,0.377,0.377,0.376,0.376,0.376,0.376,0,0.375,0.374,0.373,0.373,0.373,0.372,0.371,0.371,0.371,0.371,0.371,0.371,0,0.37,0.37,0.37,0.369,0.369,0.369,0.369,0.369,0.368,0.368,0.367,0.367,0.366,0.366,0.366,0.366,0.366,0.365,0.365,0.365,0.364,0.364,0.363,0.363,0,0,0.362,0.362,0.362,0.362,0.362,0.362,0.362,0.362,0.362,0.361,0.361,0.361,0.361,0.36,0.36,0.359,0,0.36,0.36,0.36,0.359,0.359,0.359,0.359,0.359,0.358,0.357,0.355,0.355,0.354,0.354,0.353,0.352,0.352,0.352,0.352,0.351,0.351,0.351,0.35,0.349,0.349,0.348,0.348,0.348,0.348,0.347,0.347,0.347,0.347,0.346,0.346,0.346,0.345,0.345,0.345,0.345,0.345,0.345,0.344,0.344,0,0.343,0.343,0.342,0.342,0.342,0.341,0.341,0.341,0.34,0.34,0.34,0.34,0.339,0.339,0.339,0.339,0.339,0.338,0.338,0.338,0.338,0.338,0.338,0.337,0,0,0,0,0,0,0,0,0,0,0,0,0,0,0,0,0,0,0,0,0,0,0,0,0,0,0,0,0,0,0,0,0,0,0,0,0,0,0,0,0,0,0,0,0,0,0,0,0,0,0,0,0,0,0,0,0,0,0,0,0,0,0,0,0,0,0,0,0,0,0,0,0,0,0,0,0
0,0,0,0,0,0,0,0,0,0,0,0,0,0,0,0,0,0,0,0,0,0,0,0,0,0,0,0,0.589,0.589,0.589,0.588,0.587,0.586,0.584,0.584,0.583,0.582,0.582,0.581,0.581,0.58,0.579,0.578,0.577,0.576,0.575,0.575,0.574,0.574,0.573,0.574,0.573,0.573,0.573,0.573,0.572,0.572,0.571,0.57,0.569,0.567,0.566,0.564,0.563,0.563,0.562,0.561,0.56,0.559,0.558,0.557,0.556,0.556,0.555,0.554,0.553,0.553,0.552,0.55,0.549,0.548,0.548,0.547,0.547,0.547,0.545,0.543,0.542,0.541,0.54,0.539,0.539,0.539,0.539,0.539,0.538,0.538,0.538,0.538,0.537,0.536,0.535,0.534,0.533,0.532,0.532,0.531,0.531,0.527,0.526,0.525,0.524,0.524,0.523,0.523,0.523,0.522,0.522,0.522,0.521,0.519,0.519,0.518,0.518,0.517,0.517,0.517,0.516,0.516,0.516,0.515,0.515,0.514,0.512,0.511,0.51,0.509,0.509,0.509,0.508,0.508,0.507,0.507,0.506,0.506,0.505,0.504,0.504,0.503,0.503,0.503,0.502,0.502,0.502,0.501,0.501,0.5,0.5,0.499,0.498,0.496,0.495,0.495,0.494,0.494,0.493,0.492,0.491,0.491,0.491,0.49,0.491,0.491,0.491,0.49,0.49,0.489,0.489,0.489,0.488,0.488,0.487,0.486,0.485,0.484,0.483,0.482,0.481,0.48,0.48,0.479,0.479,0.478,0.477,0.476,0.476,0.476,0.476,0.475,0.475,0.474,0.474,0.473,0.472,0.472,0.471,0.47,0.47,0.47,0.469,0.469,0.468,0.468,0.467,0.467,0.467,0.467,0.466,0.465,0.465,0.464,0.464,0.464,0.463,0.463,0.462,0.461,0.46,0.459,0.458,0.458,0.458,0,0.456,0.456,0.455,0.455,0.454,0.453,0.453,0.452,0.452,0.452,0.452,0.452,0,0.451,0.449,0.449,0.448,0.448,0.447,0.447,0.447,0.446,0.446,0.446,0.446,0.445,0.445,0.444,0.444,0.443,0.442,0.441,0.441,0.441,0.441,0.44,0.44,0.44,0.439,0.438,0.438,0.437,0.437,0.436,0.436,0.436,0.436,0.436,0.435,0.436,0.436,0.436,0.436,0.435,0.435,0.435,0.433,0.432,0.431,0.431,0,0.431,0.43,0.43,0.43,0.429,0.429,0.429,0.428,0.428,0.427,0.427,0.427,0.426,0.426,0.425,0.425,0.425,0.424,0,0,0,0.421,0.421,0.421,0.42,0.42,0.42,0.419,0.418,0.418,0.417,0.416,0.416,0.416,0.415,0.415,0.414,0.414,0.413,0.413,0.412,0.412,0.412,0.411,0.411,0.411,0.411,0.411,0.411,0.411,0.41,0.41,0.41,0.409,0.408,0.408,0.407,0.407,0.407,0.406,0.406,0.406,0,0,0.404,0.404,0.404,0.403,0.403,0.402,0.402,0.402,0.402,0.401,0.401,0,0.4,0.399,0.399,0.399,0.398,0.398,0.398,0.396,0.395,0.394,0.394,0.393,0.393,0.393,0.393,0.392,0.392,0.391,0.391,0.391,0.39,0.39,0.39,0.389,0.389,0.389,0.389,0.389,0.389,0.389,0.389,0.388,0.388,0.387,0.386,0.385,0.385,0.385,0.385,0.384,0.384,0.383,0.383,0.382,0.382,0.382,0.382,0.381,0.381,0.38,0.379,0.378,0.378,0.377,0.377,0.377,0.377,0.377,0.377,0.376,0.376,0.375,0.375,0.374,0.374,0.374,0.373,0,0,0.373,0.372,0.371,0.37,0.37,0.37,0.37,0.37,0.369,0.37,0,0,0.369,0.369,0.369,0.368,0.368,0.367,0.367,0.366,0.366,0.366,0.366,0.366,0.365,0.365,0.365,0.365,0.364,0.364,0.363,0.362,0.362,0.362,0,0,0,0.361,0.361,0.361,0.361,0.361,0.361,0.361,0.361,0.361,0.36,0.36,0.36,0.359,0.359,0.359,0.359,0.359,0.359,0.359,0.359,0.359,0.359,0.359,0.358,0.358,0.357,0.355,0.354,0.354,0.353,0.352,0.352,0.352,0.352,0.351,0.351,0.351,0.351,0.35,0.349,0.348,0.348,0.348,0.348,0.347,0.347,0.347,0.346,0.346,0.345,0.345,0.345,0.345,0.345,0.344,0.344,0.344,0.344,0.344,0.343,0,0,0,0.341,0.341,0.341,0.34,0.339,0.339,0.339,0.339,0.339,0.339,0.339,0.338,0.338,0.338,0.338,0.338,0.338,0.337,0.337,0.337,0.337,0.337,0.336,0,0,0,0,0,0,0,0,0,0,0,0,0,0,0,0,0,0,0,0,0,0,0,0,0,0,0,0,0,0,0,0,0,0,0,0,0,0,0,0,0,0,0,0,0,0,0,0,0,0,0,0,0,0,0,0,0,0,0,0,0,0,0,0,0,0,0,0,0,0,0,0,0,0,0,0,0
0,0,0,0,0,0,0,0,0,0,0,0,0,0,0,0,0,0,0,0,0,0,0,0,0,0,0,0.587,0.587,0.586,0.585,0.584,0.584,0.583,0.582,0.582,0.581,0.581,0.58,0.579,0.577,0.577,0.575,0.575,0.574,0.573,0.573,0.573,0.573,0.573,0.572,0.572,0.572,0.572,0.571,0.571,0.57,0.568,0.567,0.566,0.564,0.564,0.563,0.562,0.561,0.56,0.558,0.558,0.557,0.556,0.556,0.555,0.555,0.554,0.553,0.551,0.549,0.549,0.548,0.547,0.547,0.547,0.546,0.543,0.542,0.541,0.54,0.54,0.539,0.539,0.538,0.538,0.538,0.537,0.536,0.536,0.536,0.535,0.535,0.534,0.534,0.533,0.533,0.532,0.531,0.531,0.53,0.526,0.525,0.524,0.523,0.523,0.522,0.522,0.521,0.521,0.521,0.519,0.519,0.518,0.518,0.517,0.517,0.517,0.516,0.516,0.516,0.516,0.515,0.515,0.514,0.513,0.511,0.51,0.509,0.509,0.509,0.508,0.507,0.507,0.506,0.505,0.505,0.503,0.503,0.503,0.502,0.502,0.502,0.502,0.502,0.502,0.501,0.5,0.5,0.499,0.498,0.496,0.495,0.495,0.495,0.494,0.493,0.493,0.491,0.491,0.49,0.489,0.489,0.489,0.489,0.489,0.489,0.489,0.489,0.488,0.488,0.488,0.488,0.487,0,0.485,0.484,0.483,0.483,0.482,0.482,0.481,0.48,0.478,0.478,0.477,0.477,0.476,0.476,0.475,0.475,0.475,0.474,0.473,0.472,0.471,0.471,0.471,0.471,0.47,0.47,0.469,0.469,0.469,0.468,0.467,0.466,0.466,0.465,0.465,0.464,0.464,0.464,0.463,0.463,0.463,0.463,0.462,0.461,0.46,0.459,0.458,0.458,0.458,0.457,0.457,0.456,0.456,0.454,0.453,0.453,0.453,0.452,0.452,0.452,0.452,0.451,0.451,0.45,0.449,0.448,0.447,0.447,0.447,0.447,0.447,0.446,0.446,0.446,0.445,0.445,0.444,0.444,0.443,0.443,0.442,0.441,0.441,0.441,0.44,0.44,0.439,0.439,0.438,0.438,0.437,0.437,0.436,0.436,0.436,0.436,0.435,0.435,0.435,0.434,0.433,0.433,0.433,0.433,0.435,0.433,0.433,0,0.431,0.431,0.431,0.43,0.43,0.43,0.429,0.429,0.428,0.427,0.427,0.427,0.426,0.426,0,0,0.425,0.425,0.425,0.425,0.424,0.423,0.422,0.421,0,0,0,0.42,0.42,0.418,0.418,0.417,0.417,0.416,0.416,0.416,0.416,0.415,0.415,0.414,0.413,0.413,0.412,0.412,0.411,0.411,0.411,0.411,0.411,0.411,0.41,0.41,0.41,0.409,0.409,0.409,0.408,0.408,0.408,0.407,0.407,0.407,0.406,0.406,0.406,0.405,0.405,0.404,0.404,0.403,0.403,0.402,0.402,0.402,0.402,0.402,0.401,0.4,0.399,0.399,0.398,0.398,0.398,0.398,0.397,0.396,0.396,0.395,0.394,0.394,0.393,0.393,0.393,0.393,0.392,0.391,0.391,0.39,0.39,0.39,0.389,0.389,0.389,0.389,0.389,0.389,0.389,0.388,0.388,0.388,0.388,0.387,0.387,0.386,0.385,0.385,0.385,0.385,0.384,0.383,0.383,0.382,0.382,0.381,0.381,0.381,0.381,0.381,0.38,0.38,0.379,0.378,0.378,0.377,0.377,0.377,0.377,0.376,0.376,0.376,0.376,0.375,0.374,0.374,0.374,0.373,0.373,0.373,0.373,0,0,0.371,0.37,0.37,0.37,0.369,0.369,0.369,0.369,0.369,0.369,0.369,0.368,0.368,0.368,0.367,0.367,0.366,0.366,0.366,0.366,0.366,0.365,0.365,0.365,0.364,0.364,0.364,0.363,0.363,0.362,0.362,0.362,0.361,0.361,0,0,0,0.36,0.36,0.36,0.359,0.36,0.359,0.36,0.359,0.359,0.359,0.359,0.359,0.359,0.358,0.358,0.358,0.358,0.359,0.359,0.359,0.359,0.358,0.358,0.357,0.356,0,0,0,0,0.352,0.352,0.352,0.351,0.351,0.351,0.351,0.351,0.35,0.349,0.348,0.348,0.348,0.347,0.347,0.346,0.346,0.346,0.345,0.345,0.345,0.345,0.344,0.344,0.343,0.343,0.343,0.342,0.342,0.342,0,0,0,0.341,0.34,0.339,0.339,0.339,0.339,0.338,0.338,0.338,0.338,0.338,0.338,0.338,0.337,0.337,0.337,0.337,0.336,0.336,0.336,0.336,0.336,0.336,0.336,0,0,0,0,0,0,0,0,0,0,0,0,0,0,0,0,0,0,0,0,0,0,0,0,0,0,0,0,0,0,0,0,0,0,0,0,0,0,0,0,0,0,0,0,0,0,0,0,0,0,0,0,0,0,0,0,0,0,0,0,0,0,0,0,0,0,0,0,0,0,0,0,0,0,0,0,0
0,0,0,0,0,0,0,0,0,0,0,0,0,0,0,0,0,0,0,0,0,0,0,0,0,0,0.586,0.586,0.585,0.584,0.583,0.582,0.582,0.581,0.581,0.58,0.578,0.577,0.575,0.575,0.574,0.574,0.573,0.573,0.573,0.572,0.572,0.572,0.571,0.571,0.57,0.57,0.569,0.568,0.568,0.566,0.565,0.565,0.564,0.563,0.562,0.561,0.559,0.558,0.557,0.556,0.556,0.555,0.555,0.554,0.553,0.552,0.551,0.55,0.549,0.548,0.547,0.547,0.546,0.546,0.543,0.541,0.54,0.54,0.539,0.539,0.538,0.538,0.537,0.537,0.536,0.535,0.534,0.534,0.533,0.533,0.533,0.532,0.532,0.532,0.531,0.531,0.531,0.53,0.527,0.526,0.525,0.524,0.523,0.522,0.522,0.52,0.519,0.519,0.518,0.517,0.517,0.517,0.516,0.516,0.516,0.516,0.516,0.515,0.515,0.514,0.514,0.513,0.513,0.511,0.509,0.509,0.509,0.509,0.508,0.507,0.506,0.505,0.504,0.504,0.503,0.502,0.502,0.502,0.502,0.502,0.501,0.501,0.501,0.5,0.5,0.5,0.499,0.497,0.497,0.496,0.495,0.495,0.494,0.493,0.491,0.491,0.49,0.489,0.489,0.489,0.488,0.488,0.487,0.487,0.487,0.487,0.487,0.487,0.487,0.487,0.486,0.485,0.485,0.484,0.483,0.482,0.482,0.482,0.481,0.48,0.479,0.478,0.477,0.476,0.476,0.476,0.475,0.475,0.474,0.474,0.473,0.472,0.471,0.471,0.47,0.47,0.47,0.47,0.469,0.469,0.469,0.468,0.468,0.467,0.466,0.464,0.464,0.464,0.463,0.463,0.463,0.463,0.463,0.462,0.461,0.461,0.46,0.459,0.458,0.458,0.458,0,0.456,0.456,0,0.454,0.453,0.453,0.452,0.452,0.452,0.452,0.452,0.451,0.451,0.45,0.448,0.448,0.447,0.447,0.446,0.446,0.446,0.446,0.446,0.446,0.445,0.444,0.443,0.443,0.442,0.442,0.442,0.441,0.441,0.441,0.44,0.44,0.439,0.438,0.437,0.437,0.437,0.436,0.436,0.436,0.436,0.436,0.435,0.435,0.435,0.433,0.433,0.433,0.432,0.432,0.431,0.431,0.431,0.43,0.43,0.43,0.429,0.43,0.43,0.43,0.429,0.428,0.427,0.427,0.427,0.426,0.426,0.425,0.425,0.425,0.425,0,0,0.424,0.424,0.424,0.423,0.422,0.421,0.421,0.42,0.42,0.418,0.417,0.417,0.417,0.416,0.416,0.416,0.415,0.415,0.415,0.414,0.414,0.413,0.412,0.412,0.411,0.411,0.411,0.411,0.41,0.41,0.41,0.41,0.409,0.409,0.409,0.408,0.408,0.408,0.407,0.407,0.407,0.407,0.406,0.406,0.406,0.406,0.405,0.404,0.404,0.403,0.403,0.403,0.402,0.402,0.402,0.402,0.402,0.401,0.401,0.4,0.399,0.398,0.398,0.397,0.395,0.395,0.394,0.394,0.394,0.394,0.394,0.393,0.393,0.393,0.392,0.391,0.391,0.39,0.39,0.389,0,0,0,0.389,0.389,0.389,0.388,0.388,0.388,0.388,0.387,0.387,0.386,0.386,0.385,0.385,0.385,0.385,0.385,0.384,0.384,0.383,0.383,0.382,0.382,0.381,0.381,0.381,0.38,0.38,0.379,0.379,0.378,0.378,0.377,0.377,0.377,0.377,0.376,0.376,0.375,0.375,0.375,0.374,0.374,0.374,0.373,0.373,0.373,0.373,0.373,0.372,0.371,0.37,0.37,0.369,0.369,0.369,0.369,0.369,0.368,0.368,0.368,0.368,0.368,0.367,0.367,0.366,0.366,0.366,0.366,0.366,0.365,0.365,0.365,0.365,0.364,0.364,0.364,0.363,0.363,0.363,0.362,0.362,0.362,0.361,0.36,0.36,0.359,0.359,0.359,0.359,0.359,0.359,0.359,0.359,0.359,0.359,0.359,0.358,0,0,0,0.358,0.358,0.358,0.358,0.358,0.358,0.358,0.358,0.358,0.358,0.357,0.356,0.355,0,0,0,0,0.351,0.351,0.351,0.351,0.351,0.35,0.35,0.35,0.35,0.349,0.348,0.348,0.348,0.347,0.346,0.346,0.345,0.345,0.345,0.345,0.345,0.344,0.344,0.342,0.342,0.342,0.342,0.342,0.342,0.341,0.341,0.341,0.34,0.339,0.339,0.339,0.338,0.338,0.338,0.338,0.338,0.337,0.337,0.337,0.337,0.336,0.336,0.336,0.336,0.336,0.336,0.336,0.336,0.336,0.336,0.336,0.336,0,0,0,0,0,0,0,0,0,0,0,0,0,0,0,0,0,0,0,0,0,0,0,0,0,0,0,0,0,0,0,0,0,0,0,0,0,0,0,0,0,0,0,0,0,0,0,0,0,0,0,0,0,0,0,0,0,0,0,0,0,0,0,0,0,0,0,0,0,0,0,0,0,0,0,0,0,0
0,0,0,0,0,0,0,0,0,0,0,0,0,0,0,0,0,0,0,0,0,0,0,0,0,0,0.584,0.583,0.582,0.582,0.581,0.58,0.58,0.578,0.577,0.575,0.575,0.574,0.573,0.573,0.573,0.572,0.571,0.571,0.57,0.57,0.569,0.569,0.568,0.567,0.566,0.566,0.565,0.565,0.565,0.564,0.564,0.562,0.561,0.56,0.559,0.558,0.557,0.556,0.555,0.555,0.555,0.554,0.551,0.55,0.549,0.548,0.548,0.547,0.547,0.546,0.544,0.542,0.541,0.54,0.539,0.539,0.538,0.538,0.537,0.536,0.535,0.534,0.533,0.533,0.533,0.532,0.532,0.532,0.531,0.531,0.531,0.531,0.531,0.53,0.53,0.529,0.528,0.526,0.524,0.524,0.523,0.522,0.521,0.519,0.518,0.517,0.517,0.516,0.516,0.516,0.516,0.516,0.515,0.515,0.514,0.514,0.513,0.512,0.511,0.511,0.51,0.509,0.509,0.509,0.508,0.508,0.507,0.506,0.505,0.504,0.503,0.503,0.502,0.502,0.502,0.501,0.501,0.501,0.5,0.5,0.5,0.499,0.499,0.497,0.497,0.497,0.496,0.495,0.495,0.494,0.494,0.493,0.491,0.49,0.489,0.489,0.488,0.488,0.488,0.487,0.486,0.486,0.485,0.485,0.485,0.484,0.485,0.484,0.484,0.483,0.483,0.482,0.482,0.482,0.481,0.481,0.479,0.478,0.477,0.477,0.476,0.476,0.475,0.475,0.475,0.474,0.473,0.471,0.471,0.47,0.47,0.47,0.469,0.469,0.469,0.469,0.469,0.468,0.468,0.467,0.467,0.465,0.464,0.464,0.463,0.463,0.463,0.462,0.462,0.461,0.461,0,0.46,0,0,0.458,0.458,0.457,0.456,0.456,0.455,0.454,0.453,0.452,0.452,0.452,0.452,0.452,0.451,0.451,0.45,0.45,0.45,0.448,0.447,0.447,0.447,0.446,0.446,0.446,0.446,0.445,0.444,0.444,0.444,0.444,0.443,0.442,0.441,0.441,0.441,0.441,0.44,0.44,0.439,0.439,0.438,0.437,0.437,0.437,0.436,0.436,0.436,0.436,0.436,0.435,0.435,0.433,0.433,0.432,0.431,0.431,0.431,0.431,0.431,0.43,0.43,0.43,0.429,0.429,0.428,0.427,0.426,0.426,0.425,0.425,0.425,0.426,0.426,0.426,0.425,0.425,0.425,0.425,0.424,0.424,0.423,0,0.423,0.422,0.422,0.422,0.421,0.421,0.42,0.42,0.419,0.417,0.416,0.416,0.416,0.416,0.415,0.415,0.415,0.414,0.413,0.412,0.412,0.411,0.411,0.411,0.41,0.41,0.41,0.409,0.409,0.409,0.409,0.408,0.408,0.408,0.407,0.407,0.407,0.407,0.407,0.406,0.406,0.406,0.406,0.405,0.405,0.404,0.404,0.403,0.402,0.402,0.402,0.402,0.402,0.402,0.401,0.401,0.4,0.4,0.399,0,0.397,0.396,0.396,0.395,0.394,0.394,0.394,0.394,0.393,0.393,0.393,0.392,0.391,0.391,0.39,0.39,0.389,0.389,0.389,0.389,0,0,0,0,0.387,0.387,0.387,0.386,0.386,0.386,0.385,0.385,0.385,0.385,0.385,0.385,0.384,0.384,0.383,0.383,0.382,0.382,0.382,0.381,0.381,0.381,0.38,0.38,0.379,0.378,0.378,0.377,0.377,0.377,0.377,0.376,0.376,0.376,0.376,0.375,0.374,0.374,0.374,0.373,0.373,0.373,0.373,0.373,0.373,0.372,0.371,0.371,0.37,0.37,0.369,0.369,0.369,0.368,0.368,0.368,0.367,0.367,0.367,0.366,0.366,0.366,0.366,0.366,0.365,0.365,0.365,0.365,0.365,0.364,0.364,0.364,0.364,0.363,0.363,0.363,0.362,0.362,0.362,0.361,0.361,0.36,0.359,0.359,0.359,0.359,0.358,0.358,0.358,0.358,0.358,0.358,0.358,0.358,0.358,0.358,0,0,0,0,0.356,0.356,0.356,0.355,0.355,0.356,0,0.356,0,0,0,0,0.352,0.352,0.351,0.351,0.35,0.35,0.35,0.35,0.35,0.35,0.349,0.349,0.349,0.348,0.348,0.348,0.346,0.345,0.345,0.345,0.345,0.345,0.345,0.344,0.344,0.343,0.342,0.342,0.342,0.342,0.342,0.342,0.341,0.341,0.341,0.34,0.339,0.339,0.338,0.338,0.338,0.338,0.338,0.337,0.337,0.336,0.336,0.336,0.336,0.335,0.335,0.335,0.335,0.335,0.335,0.335,0.336,0.335,0.335,0.335,0.335,0.335,0.335,0,0,0,0,0,0,0,0,0,0,0,0,0,0,0,0,0,0,0,0,0,0,0,0,0,0,0,0,0,0,0,0,0,0,0,0,0,0,0,0,0,0,0,0,0,0,0,0,0,0,0,0,0,0,0,0,0,0,0,0,0,0,0,0,0,0,0,0,0,0,0,0,0,0,0,0,0
0,0,0,0,0,0,0,0,0,0,0,0,0,0,0,0,0,0,0,0,0,0,0,0,0,0,0.582,0.582,0,0.58,0.579,0.577,0.576,0.575,0.574,0.573,0.573,0.572,0.571,0.571,0.57,0.57,0.568,0.567,0.567,0.566,0.566,0.565,0.565,0.565,0.564,0.564,0.564,0.564,0.562,0.561,0.56,0.559,0.558,0.557,0.556,0.556,0.555,0.555,0.554,0.552,0.551,0.549,0.549,0.548,0.547,0.547,0.546,0.545,0.542,0.541,0.54,0.539,0.539,0.538,0.537,0.536,0.535,0.534,0.532,0.532,0.532,0.531,0.531,0.531,0.531,0.531,0.531,0.53,0.53,0.529,0.529,0.529,0.528,0.527,0.525,0.525,0.524,0.523,0.523,0.522,0.52,0.519,0.517,0.516,0.516,0.516,0.515,0.515,0.515,0.514,0.514,0.513,0.513,0.512,0.511,0.51,0.51,0.509,0.509,0.509,0.509,0.508,0.508,0.507,0.506,0.505,0.504,0.503,0.503,0.502,0.502,0.501,0.501,0.501,0.5,0.499,0.499,0.499,0.498,0.497,0.497,0.496,0.496,0.495,0.495,0.495,0.494,0.493,0.492,0.491,0.49,0.489,0.489,0.488,0.488,0.487,0.486,0.485,0.485,0.484,0.484,0.483,0.483,0.482,0.482,0.482,0.482,0.482,0.482,0.482,0.481,0.481,0.479,0.478,0.477,0.476,0.476,0.476,0.476,0.475,0.475,0.474,0.474,0.473,0.471,0.47,0.47,0,0.469,0.469,0.469,0.468,0.468,0.467,0.467,0.467,0.466,0.466,0.465,0.465,0.464,0.463,0.463,0.462,0.461,0.461,0.46,0.459,0.459,0.459,0.458,0.458,0.458,0,0,0.456,0.455,0.454,0.453,0.453,0.452,0.452,0.452,0.451,0.451,0.451,0.451,0.45,0.449,0.448,0.447,0.447,0.447,0.447,0.446,0.446,0.445,0.445,0.445,0.444,0.444,0.443,0.443,0.442,0.442,0.442,0.441,0.441,0.44,0.44,0.439,0.439,0.438,0.437,0,0,0,0.436,0.436,0.436,0.436,0.436,0.435,0.435,0.433,0.432,0.432,0.432,0.431,0.431,0.43,0.43,0.43,0.43,0.43,0.429,0.428,0.427,0.427,0.426,0.425,0.425,0.425,0.425,0.425,0.424,0.424,0.424,0.423,0.423,0.422,0.424,0.423,0.423,0.422,0.422,0.421,0.421,0.421,0.421,0.421,0.421,0.42,0.42,0.417,0.417,0.416,0.416,0.415,0.415,0.415,0.414,0.414,0.413,0.413,0.412,0.411,0.411,0.41,0.41,0.41,0.409,0.408,0.408,0.408,0.407,0.407,0.407,0.407,0.407,0.407,0.406,0.406,0.406,0.406,0.406,0.406,0.405,0.405,0.405,0.404,0.404,0.403,0.403,0.403,0.402,0.402,0.402,0.402,0.402,0.401,0.401,0.4,0.4,0.397,0.397,0.396,0.395,0.394,0.394,0.394,0.393,0.393,0.393,0.393,0.393,0.392,0.392,0.391,0.39,0.39,0.389,0.389,0.389,0.389,0.389,0.388,0.388,0.387,0.386,0.386,0.386,0.385,0.385,0.385,0.385,0.385,0.385,0.385,0.384,0.384,0.384,0.383,0.383,0.382,0.382,0.381,0.381,0.381,0.381,0.381,0.381,0.38,0.379,0.378,0.378,0.378,0.377,0.377,0.377,0.376,0.376,0.376,0.375,0.374,0.374,0.373,0.373,0.373,0.373,0.373,0.373,0.372,0.372,0.372,0.372,0.371,0.37,0.37,0.369,0.369,0.369,0.369,0.368,0.367,0.367,0.367,0.366,0.366,0.366,0.366,0.366,0.366,0.365,0.365,0.365,0.364,0.364,0.364,0.363,0.363,0.363,0.363,0.362,0.362,0.362,0.362,0.362,0.361,0.361,0.36,0.36,0.359,0.359,0.359,0.358,0.358,0.358,0.358,0.358,0.358,0.358,0.358,0.358,0.357,0.357,0.357,0.356,0.355,0,0,0,0.355,0.355,0.354,0.354,0.355,0.355,0.355,0.354,0,0,0,0,0,0.35,0.349,0.348,0.348,0.349,0.348,0.348,0.348,0.348,0.348,0.348,0.348,0,0,0,0,0.345,0.344,0.344,0.344,0,0,0.342,0,0.342,0.342,0.341,0.341,0.341,0.341,0.341,0.34,0.34,0.339,0.339,0.338,0.338,0.337,0.337,0.337,0.337,0.336,0.336,0.336,0.335,0.335,0.335,0.335,0.335,0.335,0.335,0.335,0.335,0.335,0.335,0.335,0.335,0.335,0.335,0.335,0.335,0,0,0,0,0,0,0,0,0,0,0,0,0,0,0,0,0,0,0,0,0,0,0,0,0,0,0,0,0,0,0,0,0,0,0,0,0,0,0,0,0,0,0,0,0,0,0,0,0,0,0,0,0,0,0,0,0,0,0,0,0,0,0,0,0,0,0,0,0,0,0,0,0,0,0,0,0,0
0,0,0,0,0,0,0,0,0,0,0,0,0,0,0,0,0,0,0,0,0,0,0,0,0,0.582,0.581,0,0,0.578,0.576,0.574,0.574,0.573,0.573,0.572,0.57,0.569,0.567,0.567,0.566,0.566,0.565,0.565,0.564,0.564,0.564,0.564,0.564,0.563,0.563,0.563,0.561,0.56,0.559,0.558,0.557,0.556,0.556,0.555,0.555,0.555,0.554,0.553,0.551,0.549,0.548,0.547,0.547,0.547,0.546,0.544,0.541,0.54,0.539,0.539,0.538,0.536,0.535,0.534,0.533,0.532,0.531,0.531,0.531,0.53,0.53,0.53,0.529,0.529,0.529,0.528,0.528,0.527,0.527,0.526,0.526,0.525,0.524,0.524,0.523,0.523,0.522,0.521,0.519,0.518,0.517,0.516,0.515,0.515,0.514,0.514,0.513,0.513,0.512,0.511,0.511,0.51,0.51,0.509,0.509,0.509,0.508,0.508,0.507,0.507,0.506,0.505,0.504,0.504,0.503,0.502,0.502,0.502,0.501,0.501,0.5,0.5,0.499,0.498,0.497,0.497,0.496,0.496,0.496,0.496,0.495,0.495,0.495,0.494,0.493,0.492,0,0.49,0.489,0.489,0.488,0.488,0.487,0.485,0.484,0.484,0.483,0.483,0.482,0.482,0.482,0.482,0.482,0.481,0.481,0.481,0.481,0.48,0.48,0,0,0.477,0.476,0.476,0.476,0.475,0.475,0.474,0.474,0.473,0.472,0.471,0.47,0.47,0.469,0.469,0.468,0.468,0.467,0.466,0.466,0.465,0.465,0.464,0.464,0.464,0.464,0.464,0.463,0.463,0.463,0.462,0.461,0.46,0.458,0.458,0.458,0.458,0.457,0.457,0.457,0.457,0.457,0.455,0.454,0.453,0.453,0.452,0.452,0.452,0.451,0.45,0.449,0,0,0.448,0.448,0.447,0.447,0.447,0.446,0.446,0.446,0.445,0.445,0.444,0.443,0.443,0.443,0.442,0.442,0.441,0.441,0.441,0.44,0,0,0,0.437,0.437,0.436,0.436,0.436,0.436,0.436,0,0.435,0.435,0.435,0.434,0.434,0.434,0.432,0.432,0.431,0.431,0.431,0.43,0.43,0.43,0.429,0,0,0.428,0.428,0.427,0.427,0.426,0.425,0.425,0.425,0.424,0.424,0.423,0.423,0.422,0.422,0.422,0.422,0.421,0.421,0.421,0.421,0.421,0.42,0.42,0.42,0.42,0.42,0.42,0.42,0.419,0.419,0.418,0.416,0.416,0.415,0.415,0.415,0.414,0.413,0.412,0.412,0.412,0.411,0.411,0.41,0.409,0.409,0.408,0.408,0.407,0.407,0.407,0.407,0.406,0.406,0.406,0.406,0.406,0.406,0.406,0.405,0.405,0.405,0.404,0.404,0.404,0.403,0.403,0.402,0.402,0.402,0.402,0.402,0.402,0.401,0.4,0.399,0.399,0.398,0,0,0.396,0.395,0.394,0.394,0.393,0.393,0.393,0.393,0.392,0.392,0.392,0.392,0.391,0.39,0.39,0.389,0.389,0.389,0.389,0.389,0.388,0.388,0.388,0.387,0.386,0.386,0.385,0.385,0.385,0.385,0.385,0.384,0.384,0.384,0.384,0.383,0.383,0.382,0.382,0.382,0.381,0.381,0.381,0.381,0.38,0.38,0.379,0.379,0.378,0.378,0.378,0.377,0.377,0.377,0.376,0.376,0.375,0.374,0.374,0.373,0.373,0.373,0.373,0.373,0.373,0.372,0.372,0.372,0.372,0.371,0.371,0.37,0.37,0.37,0.369,0.369,0.369,0.369,0.368,0.367,0.367,0.366,0.366,0.366,0.366,0.366,0.366,0.366,0.365,0.365,0.365,0.364,0.364,0.363,0.363,0.362,0.362,0.362,0.362,0.362,0.362,0.362,0.361,0.361,0.36,0.36,0.359,0.359,0.359,0.358,0.358,0.358,0.358,0.358,0.357,0.357,0.357,0.357,0.357,0,0,0,0,0.355,0.355,0.354,0.354,0.354,0.354,0.353,0.353,0.353,0,0.354,0.354,0.353,0,0,0,0,0,0.348,0.348,0.348,0.348,0.348,0.348,0.348,0.348,0.348,0.347,0.347,0.346,0.346,0,0,0,0,0.343,0.342,0.342,0.342,0,0,0,0,0,0.341,0.341,0.34,0.34,0.34,0.34,0,0,0.338,0.338,0.337,0.337,0.336,0.336,0.336,0.336,0.335,0.335,0.335,0.335,0.335,0.334,0.335,0.334,0.334,0.334,0.334,0.334,0.334,0.334,0,0,0,0.334,0.334,0.334,0,0,0,0,0,0,0,0,0,0,0,0,0,0,0,0,0,0,0,0,0,0,0,0,0,0,0,0,0,0,0,0,0,0,0,0,0,0,0,0,0,0,0,0,0,0,0,0,0,0,0,0,0,0,0,0,0,0,0,0,0,0,0,0,0,0,0,0,0,0,0,0,0,0,0,0,0,0
0,0,0,0,0,0,0,0,0,0,0,0,0,0,0,0,0,0,0,0,0,0,0,0,0,0,0.579,0,0,0.575,0.574,0.573,0.572,0.571,0.57,0.567,0.566,0.566,0.565,0.565,0.564,0.564,0.563,0.563,0.563,0.562,0.562,0.562,0.561,0.56,0.559,0.558,0.558,0.557,0.556,0.556,0.555,0.555,0.555,0.554,0.554,0.553,0.55,0.549,0.548,0.547,0.547,0.546,0.545,0.543,0.54,0.539,0.539,0.538,0.537,0.535,0.534,0.533,0.532,0.531,0.531,0.53,0.529,0.528,0.528,0.528,0.527,0.527,0.526,0.526,0.526,0.525,0.525,0.525,0.524,0.524,0.523,0.523,0.522,0.522,0.521,0.52,0.519,0.517,0.517,0.516,0.515,0.514,0.513,0.512,0.511,0.511,0.51,0.51,0.509,0.509,0.509,0.509,0.508,0.507,0.507,0.506,0.505,0.505,0.504,0.503,0.503,0.502,0.502,0.502,0.502,0.501,0.5,0.5,0.499,0.499,0.498,0.497,0.496,0.496,0.496,0.495,0.495,0.495,0.495,0.494,0.493,0.492,0.491,0.491,0.49,0.489,0.489,0.488,0.488,0.487,0.485,0.484,0.483,0.483,0.482,0.482,0.482,0.482,0.481,0.481,0.481,0.48,0.48,0.479,0.479,0.478,0.477,0.477,0,0,0,0.475,0.475,0.475,0.474,0.473,0.472,0.471,0.47,0.47,0.47,0.469,0.469,0.468,0.467,0.466,0.465,0.465,0.464,0.464,0.464,0.463,0.463,0.463,0.463,0.463,0.463,0.463,0.462,0.461,0.46,0.459,0.458,0.458,0.457,0.457,0.456,0.455,0.455,0.455,0.454,0.453,0.453,0.452,0.452,0.452,0.451,0.451,0.45,0.449,0.448,0.448,0,0,0.447,0.446,0.446,0.446,0.446,0.446,0.445,0.445,0.444,0.443,0.442,0.442,0.441,0.441,0.441,0.441,0.44,0.44,0.439,0.439,0.438,0.437,0.436,0,0.436,0.436,0.435,0.435,0.435,0.435,0.434,0.434,0.433,0.432,0.432,0.432,0.432,0.431,0.431,0.431,0.43,0.43,0.43,0.429,0.428,0.427,0.427,0.427,0,0.426,0.426,0.425,0.425,0.425,0.424,0.423,0.422,0.422,0.421,0.421,0.421,0.421,0.421,0.421,0.421,0.42,0.42,0.42,0.42,0.42,0.42,0.419,0.418,0.417,0.416,0.416,0.416,0.417,0,0,0,0.414,0.414,0.413,0.412,0.412,0.412,0.411,0.411,0.41,0.41,0.409,0.408,0.407,0.407,0.407,0.407,0.406,0.406,0.406,0.406,0.406,0.405,0.405,0.405,0.404,0.404,0.404,0.404,0.403,0.403,0.403,0.402,0.402,0.402,0.402,0.4,0.399,0.399,0.399,0.398,0.398,0.398,0.398,0.397,0.397,0.396,0.395,0,0.394,0.393,0.393,0.392,0.392,0.391,0.391,0.39,0.39,0.39,0.39,0.39,0.389,0.389,0.389,0.389,0.388,0.388,0.387,0.387,0.387,0.387,0.386,0.386,0.385,0.385,0.384,0.384,0.384,0.383,0.383,0.383,0.383,0.382,0.382,0.382,0.381,0.381,0.381,0.381,0.381,0.38,0.379,0.378,0.378,0.378,0.377,0.377,0.377,0.377,0.377,0.376,0.376,0.376,0.374,0.374,0.373,0.373,0.373,0.373,0.373,0.372,0.372,0.371,0.371,0.371,0.371,0.371,0.37,0.37,0.369,0.369,0.369,0.369,0.369,0.369,0.368,0.368,0.367,0.366,0.366,0.366,0.366,0.366,0.365,0.365,0.365,0.365,0.365,0.364,0.364,0.363,0.363,0.362,0.362,0.362,0.361,0.361,0.361,0.361,0.36,0.36,0.359,0.359,0.359,0.359,0.358,0.358,0.358,0.358,0.357,0.357,0.356,0.356,0.356,0.356,0.356,0.356,0.356,0,0,0,0,0.354,0.354,0.353,0.352,0.352,0.352,0.352,0.352,0.352,0,0,0.352,0.351,0,0,0,0,0.348,0.347,0.347,0.346,0.347,0.347,0.347,0.347,0.347,0.346,0.345,0,0.345,0.344,0,0,0,0,0.341,0.341,0.341,0.341,0.341,0.34,0.34,0.34,0.339,0.339,0.339,0.339,0.339,0.339,0.338,0.338,0,0.337,0.337,0.336,0.336,0.336,0.335,0.335,0.335,0.335,0.334,0.334,0.333,0.333,0.333,0.333,0.333,0.333,0.333,0.333,0.333,0.333,0,0,0,0,0,0.332,0.332,0,0,0,0,0,0,0,0,0,0,0,0,0,0,0,0,0,0,0,0,0,0,0,0,0,0,0,0,0,0,0,0,0,0,0,0,0,0,0,0,0,0,0,0,0,0,0,0,0,0,0,0,0,0,0,0,0,0,0,0,0,0,0,0,0,0,0,0,0,0,0,0,0,0,0,0,0,0
0,0,0,0,0,0,0,0,0,0,0,0,0,0,0,0,0,0,0,0,0,0,0,0,0,0,0.575,0.574,0.573,0.573,0.572,0.571,0.571,0.568,0.566,0.565,0.565,0.564,0.564,0.563,0.562,0.562,0.561,0.559,0.558,0.558,0.558,0.557,0.557,0.556,0.556,0.555,0.555,0.555,0.555,0.554,0.554,0.553,0.552,0.552,0.55,0.549,0.548,0.547,0.547,0.546,0.544,0.542,0.54,0.539,0.538,0.537,0.536,0.534,0.533,0.532,0.531,0.53,0.529,0.528,0.527,0.527,0.526,0.526,0.525,0.525,0.525,0.524,0.524,0.524,0.524,0.524,0.523,0.523,0.522,0.522,0.521,0.52,0.519,0,0.517,0.517,0.516,0.516,0.514,0.514,0.513,0.511,0.511,0.51,0.509,0.509,0.509,0.508,0.508,0.508,0.507,0.506,0.505,0.504,0.504,0.504,0.503,0.502,0.502,0.502,0.501,0.501,0.501,0.5,0.499,0.498,0.497,0.497,0.496,0.496,0.495,0.495,0.495,0.495,0.494,0.492,0.492,0.491,0.491,0.49,0.49,0.489,0.489,0.488,0.488,0.487,0.487,0.486,0.483,0.483,0.482,0.482,0.482,0.481,0.481,0.481,0.48,0.48,0.48,0.479,0.479,0.478,0.477,0.477,0.476,0.476,0.476,0.475,0.475,0.475,0.474,0.473,0.472,0.472,0.471,0.471,0.47,0.469,0.469,0.468,0.468,0.467,0.466,0.465,0.464,0.464,0.463,0.463,0.462,0.462,0.462,0.461,0.461,0.461,0.461,0.461,0.46,0.46,0.459,0.459,0.458,0.458,0.457,0.456,0.454,0.453,0.453,0.453,0.453,0.452,0.452,0.452,0.451,0.451,0.45,0.449,0.448,0.448,0.447,0.447,0.447,0.446,0.446,0.446,0.446,0.445,0.445,0.445,0.444,0.443,0.443,0.442,0.442,0.441,0.441,0.44,0.44,0.44,0.44,0.439,0.438,0.437,0.436,0.436,0.436,0.436,0.435,0.435,0.434,0.434,0.433,0.433,0.432,0.432,0.432,0.431,0.431,0.431,0.431,0.431,0.431,0,0.43,0.429,0.429,0.428,0.427,0.427,0.426,0.426,0.425,0.425,0.425,0.425,0.424,0.424,0.423,0.422,0.422,0.421,0.421,0.421,0.42,0.42,0.42,0.42,0.42,0.42,0.42,0.419,0.419,0.419,0.418,0.418,0.418,0.417,0.416,0.416,0.415,0.415,0.414,0.413,0.412,0.411,0.411,0.411,0.411,0.41,0.41,0.409,0.408,0.408,0.407,0.408,0.407,0.407,0.407,0.406,0.406,0.406,0.406,0.405,0.405,0.405,0.404,0.404,0.403,0.403,0.403,0.402,0.402,0.402,0.402,0.401,0.401,0.401,0.4,0.399,0.399,0.398,0.398,0.398,0.398,0.397,0.397,0.397,0.397,0.396,0.395,0.394,0.394,0.393,0,0.392,0.391,0.391,0.39,0.39,0.389,0.389,0.389,0.389,0.389,0.389,0.389,0.388,0.388,0.387,0.387,0.386,0.386,0.386,0.386,0.386,0.385,0.385,0.385,0.384,0.384,0.383,0.383,0.382,0.382,0.381,0.381,0.381,0.381,0.381,0.381,0.381,0.38,0.379,0.379,0.378,0.378,0.377,0.377,0.377,0.377,0.377,0.377,0.376,0.376,0.376,0.375,0.374,0.374,0.373,0.373,0.373,0.373,0.372,0.372,0.371,0.371,0.37,0.37,0.37,0.37,0.37,0.369,0.369,0.369,0.369,0.369,0.369,0.368,0.368,0.367,0.367,0.366,0.366,0.366,0.366,0.365,0.365,0.364,0.364,0.364,0.363,0.363,0.363,0,0.362,0.362,0.362,0.36,0.36,0.359,0.359,0.359,0.359,0,0,0.359,0.358,0.358,0.358,0.358,0.357,0.356,0.356,0.356,0.356,0.356,0.355,0.355,0.355,0.355,0.355,0.355,0.355,0,0,0,0,0.352,0.352,0.352,0.352,0.352,0.351,0.351,0.351,0.35,0.35,0.35,0.348,0.347,0.346,0.345,0.345,0.345,0.345,0.345,0.345,0.345,0.345,0.345,0.345,0.345,0.345,0,0.345,0,0.343,0.342,0.341,0.341,0.34,0.34,0.34,0.34,0.34,0.34,0.339,0.339,0.339,0.339,0.338,0.338,0.338,0.338,0.338,0.338,0.337,0.337,0,0.336,0.336,0.335,0.335,0.335,0.335,0.334,0.334,0.333,0.333,0.333,0.333,0.332,0.332,0.332,0.332,0.332,0.332,0.332,0.332,0.332,0.332,0,0,0,0,0.331,0.331,0,0,0,0,0,0,0,0,0,0,0,0,0,0,0,0,0,0,0,0,0,0,0,0,0,0,0,0,0,0,0,0,0,0,0,0,0,0,0,0,0,0,0,0,0,0,0,0,0,0,0,0,0,0,0,0,0,0,0,0,0,0,0,0,0,0,0,0,0,0,0,0,0,0,0,0,0,0
0,0,0,0,0,0,0,0,0,0,0,0,0,0,0,0,0,0,0,0,0,0,0,0,0,0,0,0.573,0.572,0.571,0.569,0.568,0.567,0.566,0.565,0.564,0.564,0.563,0.562,0.561,0.559,0.557,0.556,0.556,0.556,0.555,0.555,0.555,0.555,0.555,0.554,0.554,0.553,0.552,0.551,0.55,0.549,0.548,0.548,0.548,0.547,0.547,0.546,0.544,0.542,0.541,0.539,0.538,0.538,0.536,0.534,0.533,0.532,0.531,0.531,0.529,0.528,0.527,0.526,0.525,0.525,0.524,0.524,0.524,0.524,0.524,0.523,0.523,0.523,0.523,0.522,0.522,0.521,0.521,0.519,0.519,0.517,0.517,0.516,0.516,0.516,0.514,0.513,0.512,0.511,0.511,0.51,0.509,0.509,0.509,0.508,0.508,0.507,0.506,0.505,0.504,0.504,0.503,0.502,0.502,0.502,0.502,0.501,0.501,0.5,0.499,0.498,0.497,0.497,0.497,0.496,0.496,0.495,0.495,0.495,0.494,0.494,0.493,0.491,0.491,0.49,0.489,0.489,0.489,0.489,0,0.488,0.488,0.487,0.486,0.485,0.483,0.483,0.482,0.482,0.481,0.481,0.481,0.48,0.48,0.479,0.479,0.478,0.478,0.477,0.477,0.477,0.476,0.476,0.476,0.475,0.475,0.474,0.474,0.473,0.472,0.471,0.47,0.47,0.469,0.469,0.469,0.468,0.468,0.467,0.466,0.465,0.464,0.464,0.464,0.463,0.463,0.461,0.461,0.46,0.46,0.459,0.459,0.459,0.458,0.458,0.458,0.458,0.458,0.458,0.457,0.457,0.456,0.454,0.453,0.452,0.452,0.452,0.452,0.452,0.451,0.451,0.45,0.449,0.448,0.447,0.447,0.446,0.446,0.446,0.446,0.445,0.445,0.444,0.444,0.443,0.443,0.443,0.442,0.442,0,0.441,0.441,0.441,0.441,0.44,0.439,0.439,0.438,0.437,0,0,0,0.435,0.435,0.434,0.434,0.432,0.431,0.431,0.431,0.431,0.431,0.431,0.431,0.43,0.43,0.43,0.43,0.43,0.43,0.429,0.428,0,0,0,0.426,0.426,0.426,0.425,0.425,0.425,0.424,0.424,0.423,0.422,0.422,0,0,0.421,0.42,0.42,0.42,0.419,0.419,0.419,0.418,0.418,0.418,0.417,0.417,0.417,0.417,0.416,0.417,0.416,0.416,0.415,0.415,0.414,0.413,0.412,0.411,0.411,0.41,0.41,0.409,0.409,0.408,0.408,0.407,0.407,0.406,0.406,0.406,0.405,0.405,0.404,0.403,0.403,0.403,0.402,0.402,0.402,0.402,0.402,0.402,0.402,0.401,0.401,0.401,0.401,0.4,0.4,0.399,0.399,0.399,0.398,0.398,0.398,0.397,0.397,0.397,0.396,0.396,0.395,0.395,0.394,0.394,0.393,0.393,0.392,0.39,0.389,0.389,0.389,0.389,0.389,0.389,0.389,0.389,0.388,0.388,0.388,0.388,0.387,0.386,0.386,0.385,0.385,0.385,0.385,0.385,0.385,0.385,0.384,0.384,0.383,0.383,0.382,0.382,0.381,0.381,0.381,0.381,0.381,0.38,0.38,0.38,0.379,0.379,0.378,0.378,0.377,0.377,0.377,0.376,0.376,0.376,0.375,0.375,0.375,0.375,0.374,0.373,0.373,0.373,0.373,0.373,0.372,0.372,0.371,0.37,0.37,0.37,0.37,0.369,0.369,0.369,0.369,0.369,0.369,0.369,0.368,0.368,0.367,0.367,0.367,0.366,0.366,0.366,0.366,0.366,0.365,0.365,0.364,0.364,0.363,0.363,0.362,0.362,0.362,0.362,0,0,0,0.359,0.359,0.359,0.358,0.358,0.358,0.358,0.358,0.358,0.358,0.358,0.357,0.357,0.356,0.355,0.355,0.355,0.355,0.355,0.355,0.355,0.355,0.355,0.355,0.355,0.354,0.354,0.353,0,0.352,0.351,0.351,0.351,0.351,0.351,0.35,0.35,0,0,0.348,0.348,0.347,0.346,0,0,0,0.345,0.344,0.344,0.344,0.344,0.344,0.344,0,0.344,0.344,0.344,0.343,0.342,0.342,0.34,0.34,0.339,0.339,0.339,0.339,0.339,0.339,0.339,0.338,0.338,0.338,0.338,0.337,0.337,0.337,0.337,0.337,0.337,0.336,0.336,0,0,0.335,0.335,0.335,0.334,0.334,0.333,0.333,0.333,0.333,0.332,0.332,0.332,0.332,0.332,0.331,0.331,0.331,0.33,0.33,0.33,0.33,0.33,0,0,0.329,0,0.329,0.329,0,0,0,0,0,0,0,0,0,0,0,0,0,0,0,0,0,0,0,0,0,0,0,0,0,0,0,0,0,0,0,0,0,0,0,0,0,0,0,0,0,0,0,0,0,0,0,0,0,0,0,0,0,0,0,0,0,0,0,0,0,0,0,0,0,0,0,0,0,0,0,0,0,0,0,0,0,0
0,0,0,0,0,0,0,0,0,0,0,0,0,0,0,0,0,0,0,0,0,0,0,0,0,0,0,0,0.571,0.57,0.566,0.566,0.565,0.564,0.564,0.563,0.561,0.56,0.557,0.556,0.556,0.555,0.555,0.555,0.555,0.554,0.554,0.553,0.553,0.553,0.551,0.551,0.55,0.548,0.548,0.548,0.547,0.547,0.546,0,0,0,0,0,0.538,0.537,0.535,0.535,0.533,0.532,0.532,0.531,0.531,0.528,0.527,0.526,0.525,0.525,0.524,0.524,0.523,0.523,0.523,0.523,0.523,0.523,0.523,0.522,0.522,0.521,0.52,0.52,0.519,0.518,0.517,0.516,0.516,0.515,0.514,0.513,0.511,0.51,0.51,0.509,0.509,0.509,0.509,0.508,0.508,0.507,0.505,0.504,0.503,0.503,0.502,0.502,0.502,0.502,0.501,0.501,0.5,0.499,0.497,0.497,0.496,0.496,0.495,0.495,0.495,0.495,0.495,0.494,0.494,0.493,0.492,0.49,0.49,0.489,0.489,0.488,0.488,0.488,0.488,0.487,0.487,0,0,0.485,0.483,0.482,0.482,0.482,0.481,0.481,0.48,0.479,0.479,0.478,0.478,0.478,0.477,0.477,0.476,0.476,0.476,0.476,0.475,0.475,0.475,0.474,0.473,0.473,0.472,0.471,0.47,0.47,0.469,0.468,0.468,0.467,0.467,0.466,0.465,0.465,0.464,0.464,0.463,0.463,0.463,0.461,0.46,0.46,0.459,0.458,0.458,0.458,0.458,0.458,0.458,0.457,0.457,0.457,0.457,0.457,0,0.454,0.453,0.452,0.452,0.452,0.451,0.451,0.45,0.449,0.449,0.448,0.448,0.447,0.446,0.446,0.446,0.446,0.446,0.445,0.444,0.444,0.443,0.443,0.442,0.442,0.442,0.441,0.441,0.441,0.441,0.441,0.44,0.44,0.439,0.438,0.437,0.436,0.436,0.436,0.436,0,0.435,0.434,0.432,0.432,0.431,0.431,0.431,0.431,0.43,0.43,0.43,0.43,0.43,0.43,0.43,0.429,0.429,0.428,0.427,0.427,0.426,0.426,0,0.426,0.425,0.425,0.425,0.425,0.424,0.424,0.424,0.423,0.422,0.421,0.421,0.421,0,0.42,0.419,0.418,0.417,0.417,0.417,0.416,0.416,0.416,0,0.416,0.416,0.416,0.416,0.415,0.415,0.415,0.415,0.414,0.413,0.412,0.411,0.411,0.41,0.41,0.409,0.409,0.408,0.408,0.407,0.407,0.407,0.407,0.406,0.406,0.405,0.405,0.404,0.403,0.403,0.402,0.402,0.402,0.402,0.402,0.401,0.401,0.401,0.4,0.4,0.4,0.399,0.399,0.399,0.399,0.398,0.398,0.398,0.398,0.397,0.397,0.396,0.396,0.395,0.395,0.394,0.394,0.394,0,0.393,0.393,0.392,0.39,0.39,0.389,0.389,0.389,0.388,0.388,0.388,0.388,0.387,0.387,0.386,0.386,0.386,0.386,0.385,0.385,0.385,0.384,0.384,0.384,0.384,0.384,0.383,0.383,0.382,0.382,0.381,0.381,0.381,0.381,0.381,0.38,0.38,0.379,0.378,0.378,0.378,0.377,0.377,0.377,0,0,0,0.376,0.375,0.374,0.374,0.374,0.374,0.373,0.373,0.373,0.373,0.373,0.373,0.373,0.372,0.371,0.371,0,0,0.369,0.369,0.369,0.369,0.368,0.368,0.368,0.368,0.367,0.367,0.367,0.366,0.366,0.366,0.366,0.366,0.366,0.365,0.365,0.365,0.364,0.364,0.363,0.363,0.362,0.362,0.362,0.362,0.361,0.361,0.36,0.36,0,0,0.358,0.358,0.358,0.358,0.357,0.357,0.357,0.357,0.356,0.355,0.355,0.355,0.355,0.355,0.355,0.354,0.354,0.355,0.354,0.354,0.354,0.354,0.353,0.353,0.353,0.352,0.351,0.351,0.351,0.351,0.35,0.35,0.349,0.349,0.349,0.348,0.348,0,0,0,0,0,0,0,0,0,0.344,0.343,0.343,0,0.343,0.343,0.343,0.342,0.342,0.342,0.342,0,0,0.34,0.339,0.339,0.339,0.339,0.338,0.338,0.338,0.338,0.338,0.338,0.337,0.337,0.336,0.336,0.336,0.336,0.336,0.336,0.335,0.335,0.335,0.335,0.335,0.333,0.333,0.333,0.333,0.333,0.332,0.332,0.332,0.332,0.332,0.332,0.331,0.331,0.33,0.33,0,0,0,0.329,0.329,0.329,0.329,0.329,0.328,0.328,0.328,0.328,0,0,0,0,0,0,0,0,0,0,0,0,0,0,0,0,0,0,0,0,0,0,0,0,0,0,0,0,0,0,0,0,0,0,0,0,0,0,0,0,0,0,0,0,0,0,0,0,0,0,0,0,0,0,0,0,0,0,0,0,0,0,0,0,0,0,0,0,0,0,0,0,0,0,0,0,0,0,0
0,0,0,0,0,0,0,0,0,0,0,0,0,0,0,0,0,0,0,0,0,0,0,0,0,0,0,0,0,0.566,0.565,0.564,0.564,0.563,0.561,0.559,0.556,0.556,0.556,0.555,0.555,0.554,0.554,0.554,0.553,0.553,0.553,0.551,0.551,0.55,0.549,0.548,0.547,0.547,0.547,0.546,0.545,0.544,0.543,0.541,0.54,0.539,0.538,0.536,0.534,0.533,0.532,0.531,0.531,0.531,0.528,0.527,0.526,0.525,0.525,0.524,0.524,0.523,0.523,0.523,0.523,0.523,0.523,0.522,0.522,0.522,0.521,0.521,0.52,0.519,0.518,0.517,0.517,0.516,0.516,0.515,0.512,0.511,0.51,0.509,0.509,0.509,0.509,0.508,0.508,0.507,0.507,0.506,0.504,0.503,0.503,0.502,0.502,0.502,0.501,0.501,0.5,0.499,0.499,0.498,0.496,0.496,0.495,0.495,0.495,0.495,0.494,0.494,0.493,0.493,0.492,0.491,0.491,0.489,0.489,0.488,0.488,0.488,0.487,0.486,0.486,0.485,0.485,0.484,0.483,0.482,0.482,0.482,0.482,0.481,0.481,0.48,0.48,0.479,0.478,0.477,0.477,0.476,0.476,0.476,0.476,0.475,0.475,0.474,0.474,0.473,0.473,0.472,0.471,0.471,0.47,0.47,0.47,0.47,0.469,0.468,0.467,0.466,0.465,0.465,0.464,0.464,0.463,0.463,0.463,0.462,0.461,0.46,0.46,0.459,0.458,0.458,0.458,0.457,0.457,0.457,0.457,0.456,0.456,0.456,0.455,0.455,0.454,0.453,0.453,0.452,0.452,0.451,0.451,0.45,0.449,0.448,0.447,0,0.446,0.446,0.446,0.445,0.445,0.444,0.444,0.443,0.443,0.442,0.442,0.442,0.442,0.442,0.441,0.441,0.441,0.441,0.441,0.44,0.439,0.438,0.437,0.437,0.436,0.436,0.436,0.435,0.435,0.435,0.434,0.434,0.433,0.431,0.431,0.431,0.431,0.43,0.43,0.43,0.429,0.429,0.429,0.429,0.429,0.428,0.428,0.427,0.427,0.426,0.426,0.426,0.425,0.425,0.425,0.424,0.424,0.424,0.423,0.423,0.423,0.423,0.423,0.422,0.422,0.421,0.421,0.42,0.419,0.417,0.416,0.416,0.416,0.416,0.416,0.416,0.416,0.416,0.415,0.415,0.415,0.415,0.414,0.414,0.414,0.413,0.412,0.412,0.411,0.41,0.41,0.409,0.408,0.407,0.407,0.407,0.407,0.407,0.406,0.406,0.406,0.406,0.405,0.405,0.404,0.403,0.403,0.402,0.402,0.402,0.402,0.401,0.401,0.4,0.4,0.4,0.399,0.399,0.399,0.398,0.398,0.398,0.398,0.397,0.397,0.397,0.397,0.396,0.395,0.395,0.394,0.394,0.394,0.393,0.393,0.393,0.393,0.392,0.392,0.39,0.39,0.389,0.389,0.389,0.388,0.388,0.387,0.386,0.386,0.386,0.386,0.385,0.385,0.385,0.385,0.384,0.384,0.384,0.383,0.383,0.383,0.382,0.382,0.382,0.382,0.381,0.381,0.381,0.381,0.38,0.38,0.379,0.378,0.378,0.377,0.377,0.377,0.377,0.377,0.377,0.376,0.376,0.376,0,0.374,0.373,0.373,0.373,0.373,0.373,0.373,0.373,0.372,0.372,0.372,0.371,0.371,0.371,0.37,0.37,0.369,0,0,0.369,0.368,0.368,0.367,0.367,0.367,0.367,0.366,0.366,0.366,0.366,0.366,0.365,0.365,0.365,0.365,0.364,0.364,0.363,0.363,0.362,0.362,0.362,0.362,0.362,0.361,0.36,0.359,0.359,0.359,0,0,0,0.357,0.357,0.356,0.356,0.356,0.356,0.355,0.355,0.355,0.355,0.355,0.354,0.354,0.354,0.353,0.353,0.353,0.353,0.353,0.352,0.352,0,0,0.351,0.351,0.351,0.35,0.35,0.35,0.35,0,0.349,0.349,0.348,0.348,0.348,0.347,0,0,0,0,0,0,0,0,0,0.343,0.343,0.343,0,0,0,0.342,0.342,0.342,0.341,0.341,0,0,0,0.339,0.338,0.338,0.338,0.338,0.338,0.338,0.338,0.337,0.337,0.337,0.336,0.336,0.336,0.336,0.335,0.335,0.335,0.335,0.335,0.335,0.334,0.333,0.333,0.333,0.332,0.332,0.332,0,0.332,0.331,0.331,0.331,0.33,0.33,0.33,0.329,0.329,0.329,0.329,0.329,0,0.328,0.327,0.327,0.327,0.327,0.327,0.327,0,0.328,0,0,0,0,0,0,0,0,0,0,0,0,0,0,0,0,0,0,0,0,0,0,0,0,0,0,0,0,0,0,0,0,0,0,0,0,0,0,0,0,0,0,0,0,0,0,0,0,0,0,0,0,0,0,0,0,0,0,0,0,0,0,0,0,0,0,0,0,0,0,0,0,0,0,0,0,0,0,0
0,0,0,0,0,0,0,0,0,0,0,0,0,0,0,0,0,0,0,0,0,0,0,0,0,0,0,0,0.566,0.565,0.564,0.563,0.561,0.559,0.556,0.555,0.555,0.554,0.554,0.553,0.553,0.553,0.551,0.551,0.551,0.551,0.55,0.549,0.549,0.547,0.547,0.547,0.546,0.544,0.544,0.543,0.541,0.54,0.539,0.539,0.536,0.535,0.533,0.532,0.531,0.531,0.53,0.529,0.527,0.526,0.525,0.524,0.524,0.523,0.523,0.523,0.523,0.522,0.522,0.522,0.522,0.521,0.521,0.52,0.52,0.519,0.519,0.518,0.517,0.517,0.516,0.516,0.516,0.515,0.511,0.51,0.509,0.509,0.509,0.508,0.508,0.507,0.507,0.506,0.506,0.505,0.503,0.502,0.502,0.502,0.501,0.501,0.5,0.499,0.499,0.498,0.496,0.496,0.495,0.495,0.495,0.495,0.494,0.493,0.493,0.492,0.491,0.491,0.49,0.49,0.489,0.489,0.488,0.488,0.487,0.486,0.485,0.485,0.484,0.483,0.483,0.482,0.482,0.482,0.481,0.481,0.481,0.48,0.48,0.479,0.478,0.477,0.477,0.476,0.476,0.476,0.475,0.475,0.475,0.474,0.474,0.473,0.472,0.471,0.471,0.47,0.47,0.47,0.469,0.469,0.469,0.468,0.468,0.467,0.466,0.465,0.464,0.464,0.463,0.463,0.463,0.462,0.461,0.46,0.459,0.459,0.458,0.458,0.458,0.458,0.457,0.457,0.457,0.456,0.456,0.455,0.455,0.454,0.453,0.453,0.452,0.452,0.452,0.452,0.452,0.451,0.449,0.448,0.448,0.447,0.446,0.446,0.445,0.445,0.444,0.443,0.443,0.442,0.442,0.442,0.441,0.441,0.441,0.441,0.441,0.441,0.441,0.441,0.441,0.44,0.44,0.439,0.438,0.437,0.436,0.436,0.436,0.436,0.435,0.435,0.434,0.433,0.433,0.431,0.431,0.431,0.43,0.43,0.429,0.429,0.429,0.429,0.429,0.428,0.427,0.427,0.427,0.427,0.426,0.426,0.426,0,0,0,0.424,0.424,0.423,0.423,0.422,0.422,0.422,0.422,0.422,0.422,0.422,0.422,0.421,0.421,0.421,0.42,0.42,0.417,0.416,0.416,0.415,0.415,0.415,0.415,0.415,0.414,0.414,0.413,0.413,0.413,0.413,0.412,0.412,0.411,0.411,0.411,0.41,0,0,0,0.407,0.407,0.407,0.406,0.406,0.406,0.406,0,0,0,0.403,0.403,0.403,0.403,0.402,0.402,0.402,0.402,0.402,0.401,0.4,0.4,0.399,0.399,0.398,0.398,0.398,0.398,0.398,0.397,0.397,0.397,0.396,0.396,0.396,0.395,0.394,0.394,0.394,0.393,0.393,0.393,0.393,0.393,0.392,0.392,0.391,0.39,0.389,0.389,0.389,0.389,0.388,0.388,0.387,0.386,0.386,0.385,0.385,0.385,0.385,0.385,0.384,0.384,0.383,0.383,0.383,0.382,0.382,0.381,0.381,0.381,0.381,0.381,0.381,0.38,0.38,0.379,0.378,0.378,0.377,0.377,0.377,0.377,0.377,0.376,0.376,0.376,0.375,0.375,0.374,0.374,0.374,0.373,0.373,0.373,0.372,0.372,0.372,0.372,0.371,0.371,0.37,0.37,0.37,0.37,0.37,0.369,0.369,0.369,0.368,0,0.367,0.367,0.366,0.366,0.366,0.366,0.366,0.366,0.366,0.365,0.365,0.365,0.364,0.364,0.363,0.363,0.363,0.363,0.363,0.362,0.362,0.362,0.362,0.361,0.361,0.36,0.359,0.359,0.358,0.358,0.358,0.357,0.356,0.356,0.355,0.355,0.355,0.355,0.355,0.355,0.355,0.354,0.354,0.353,0.353,0.353,0.353,0.353,0.352,0.352,0.352,0.352,0.351,0.351,0,0,0,0,0.349,0.349,0.348,0.348,0.348,0.348,0.348,0.348,0.348,0.347,0.347,0.346,0.345,0.345,0,0,0.343,0.343,0.343,0.343,0.343,0.342,0.342,0.342,0.342,0.342,0.342,0.342,0.341,0.341,0.341,0.34,0.34,0,0,0.338,0.338,0.338,0.338,0.338,0.338,0.337,0.337,0.337,0.336,0.336,0.336,0.335,0.335,0.335,0.335,0.335,0.335,0.334,0.334,0.333,0.333,0.333,0.332,0.332,0.332,0.332,0.331,0.331,0.331,0.331,0.33,0.33,0.33,0.329,0.329,0.329,0.329,0.328,0.328,0.327,0.327,0.326,0.326,0.326,0.326,0,0.327,0.327,0.327,0.327,0,0,0,0,0,0,0,0,0,0,0,0,0,0,0,0,0,0,0,0,0,0,0,0,0,0,0,0,0,0,0,0,0,0,0,0,0,0,0,0,0,0,0,0,0,0,0,0,0,0,0,0,0,0,0,0,0,0,0,0,0,0,0,0,0,0,0,0,0,0,0,0,0,0,0,0,0,0,0,0
0,0,0,0,0,0,0,0,0,0,0,0,0,0,0,0,0,0,0,0,0,0,0,0,0,0,0,0,0,0.562,0.56,0.559,0.557,0.555,0.554,0.553,0.551,0.55,0.55,0.549,0.549,0.549,0.549,0.549,0.549,0.549,0.549,0.548,0.547,0.546,0.545,0.543,0.542,0.541,0.54,0.539,0.539,0.538,0.535,0.534,0.533,0.531,0.531,0.53,0.529,0.526,0.525,0.525,0.524,0.523,0.523,0.522,0.522,0.522,0.521,0.521,0.52,0.52,0.519,0.519,0.519,0.519,0.518,0.518,0.518,0.518,0.517,0.517,0.516,0.516,0.515,0.514,0.511,0.51,0.509,0.509,0.508,0.508,0.507,0.506,0.505,0.505,0.504,0.503,0.502,0.502,0.502,0.501,0.501,0.5,0.499,0.497,0.497,0.496,0.495,0.495,0.495,0.495,0.494,0.494,0.493,0.492,0.491,0.49,0.49,0.489,0.489,0.488,0.488,0.488,0.487,0.487,0.486,0.485,0.484,0.483,0.483,0.482,0.482,0.481,0.481,0.48,0.48,0.479,0.478,0.478,0.478,0.477,0.477,0.476,0.476,0.476,0.476,0.475,0.474,0.474,0.474,0.473,0.473,0.472,0.472,0.471,0.47,0.47,0.469,0.469,0.468,0.467,0.466,0.466,0.465,0.465,0.464,0.464,0.464,0,0,0.462,0.461,0.46,0.459,0.458,0.458,0.458,0.458,0.457,0.457,0.457,0.457,0.457,0.456,0.455,0.455,0.454,0.453,0.453,0.453,0.452,0.452,0.452,0.452,0.451,0.451,0.45,0.449,0.448,0.447,0.447,0.446,0.445,0.444,0.443,0.443,0.442,0.442,0.441,0.441,0.441,0.441,0.441,0.441,0.441,0.441,0.44,0.44,0.44,0.44,0.44,0.438,0.438,0.437,0.436,0.436,0.436,0.435,0.435,0.434,0.433,0.433,0.432,0.431,0.431,0.431,0.43,0.43,0.43,0.429,0.428,0.427,0.427,0.426,0.427,0.426,0.426,0.426,0.426,0.426,0.425,0.425,0.425,0.424,0.424,0.423,0.422,0.421,0.421,0.421,0.421,0.421,0.421,0.421,0.421,0.421,0.421,0.421,0.421,0.421,0.42,0.42,0.417,0.416,0.416,0.415,0.415,0.414,0.413,0.413,0.413,0.412,0.412,0.411,0.411,0.411,0.411,0.411,0.411,0.411,0.41,0.41,0.409,0.408,0,0,0.406,0.406,0.406,0.405,0.405,0.404,0.404,0.404,0,0,0.402,0.402,0.402,0.402,0.402,0.401,0.401,0.4,0.4,0.399,0.399,0.398,0.398,0.398,0.398,0.397,0.397,0.397,0.397,0.396,0.396,0.395,0.395,0.394,0.394,0.394,0.394,0.393,0.393,0.393,0.393,0.392,0.391,0.391,0.39,0.39,0.39,0.389,0.389,0.389,0.388,0.388,0.387,0.386,0.386,0.386,0.385,0.385,0.385,0.385,0.384,0.383,0.383,0.382,0.382,0.382,0.382,0.381,0.381,0.381,0.381,0.381,0.38,0.38,0.38,0.378,0.378,0.377,0.377,0.377,0.377,0.377,0.376,0.376,0.376,0.375,0.375,0.374,0.374,0.373,0.373,0.373,0.373,0.373,0.372,0.372,0.371,0.37,0.37,0.37,0.37,0.37,0.37,0.369,0.369,0.369,0.369,0.369,0.369,0.367,0.367,0,0,0.366,0.366,0.366,0.365,0.365,0.365,0.365,0.365,0.364,0.364,0.363,0.363,0.363,0.362,0.362,0.362,0.362,0.362,0.362,0.362,0.361,0.361,0.36,0.359,0.359,0.358,0.358,0.358,0.357,0.357,0.356,0.355,0.355,0.355,0.355,0.354,0.354,0.354,0.354,0.354,0.354,0.353,0.352,0.352,0.352,0.352,0.352,0.352,0.352,0.351,0.351,0.351,0.35,0,0,0,0,0,0.348,0.348,0.347,0.348,0.348,0.348,0.347,0,0.346,0.346,0.345,0.345,0.344,0.344,0.342,0.342,0.342,0.342,0.342,0.342,0.342,0.342,0.342,0.342,0.342,0.342,0.341,0.341,0.341,0.34,0.339,0.339,0.339,0.338,0.338,0.338,0.337,0.337,0.337,0.337,0.336,0.336,0.336,0.336,0.336,0.335,0.335,0.335,0.335,0.335,0.334,0.334,0.334,0.333,0.332,0.332,0.332,0.332,0.332,0.331,0.331,0.331,0.33,0.33,0.33,0.329,0.329,0.329,0.329,0.329,0,0,0.327,0.327,0.327,0.326,0.326,0.326,0.326,0.326,0.326,0.326,0.326,0.326,0.326,0.327,0,0,0,0,0,0,0,0,0,0,0,0,0,0,0,0,0,0,0,0,0,0,0,0,0,0,0,0,0,0,0,0,0,0,0,0,0,0,0,0,0,0,0,0,0,0,0,0,0,0,0,0,0,0,0,0,0,0,0,0,0,0,0,0,0,0,0,0,0,0,0,0,0,0,0,0,0,0,0,0
0,0,0,0,0,0,0,0,0,0,0,0,0,0,0,0,0,0,0,0,0,0,0,0,0,0,0,0,0,0,0.555,0.555,0.554,0.551,0.549,0.548,0.548,0.547,0.547,0.547,0.547,0.547,0.547,0.546,0.546,0,0,0,0,0,0.54,0,0,0.539,0.538,0.535,0.534,0,0.531,0.531,0.53,0.529,0.527,0.525,0.524,0.524,0.523,0.522,0.522,0.521,0.52,0.519,0.519,0.518,0.518,0.518,0.517,0.517,0.517,0.517,0.517,0.517,0.517,0.517,0.517,0.516,0.516,0.516,0.515,0.514,0.513,0.51,0.509,0.509,0.508,0.507,0.505,0.505,0.504,0.502,0.502,0.502,0.502,0.502,0.501,0.5,0.5,0.498,0.497,0.497,0.496,0.496,0.495,0.495,0.494,0.493,0.493,0.492,0.491,0.49,0.49,0.489,0.489,0.488,0.488,0.488,0.487,0.487,0.486,0.485,0.485,0.485,0.483,0.483,0.482,0.482,0.482,0.48,0.479,0.479,0.478,0.477,0.477,0.476,0.476,0.476,0.476,0.476,0.475,0.475,0.475,0.475,0.473,0.473,0.472,0.471,0.471,0.471,0.47,0.47,0.47,0.469,0.469,0.468,0.466,0.465,0.465,0.464,0.464,0.464,0.463,0.463,0.463,0.463,0.462,0.461,0.459,0.458,0.458,0.458,0.457,0.457,0.457,0.457,0.457,0.456,0.456,0.455,0.455,0.454,0.454,0.453,0.452,0.452,0.452,0.452,0.452,0.452,0.452,0.451,0.451,0.45,0.449,0.448,0.448,0.447,0.446,0.446,0.444,0.443,0.442,0.442,0.441,0.441,0.441,0.44,0.44,0.44,0.44,0.439,0.439,0.439,0.438,0.438,0.438,0.437,0.437,0.436,0.436,0.436,0.436,0.435,0.435,0.434,0.433,0.432,0.431,0.431,0.431,0.431,0.43,0.43,0.43,0.429,0.429,0.428,0.427,0.426,0.426,0.426,0.426,0.425,0.425,0.425,0,0.425,0.424,0.424,0.423,0.423,0.422,0.421,0.421,0.421,0.42,0.42,0.42,0.42,0.42,0.42,0.42,0.42,0.42,0.42,0.419,0.419,0.419,0.418,0.416,0.416,0.415,0.414,0.414,0.412,0.412,0.412,0.411,0.411,0.411,0,0.41,0.41,0.41,0.409,0.409,0.409,0.408,0.408,0.407,0.407,0.406,0,0.405,0.404,0.403,0.403,0.403,0.402,0.402,0.402,0,0,0,0.401,0.4,0.4,0.4,0.4,0.399,0.399,0,0,0,0.398,0.397,0.397,0.397,0.396,0.396,0.396,0.395,0.394,0.394,0.394,0.394,0.394,0.393,0.393,0.393,0.393,0.392,0.392,0.391,0.391,0.39,0.389,0.389,0.389,0.389,0.389,0.388,0.388,0.387,0.386,0.386,0.385,0.385,0.385,0.385,0.384,0.384,0.383,0.383,0.382,0.382,0.381,0.381,0.381,0.381,0.381,0.38,0.38,0.379,0.379,0.378,0,0,0.377,0.377,0.377,0.377,0.377,0.376,0.376,0.376,0.375,0.375,0.374,0.374,0.373,0.373,0.373,0.373,0.372,0.372,0.371,0.371,0.37,0.37,0.37,0.369,0.369,0.369,0.369,0.369,0.369,0.369,0.368,0.368,0.367,0.367,0.366,0.366,0.366,0.366,0.365,0.365,0.365,0.364,0.364,0.364,0.364,0,0.363,0.363,0.362,0.362,0.362,0.362,0.362,0.361,0.361,0.361,0.361,0.361,0.36,0.36,0.359,0.358,0.358,0.358,0.357,0.357,0.356,0.356,0.355,0.355,0.355,0.354,0.354,0.354,0.353,0.353,0.353,0.353,0.352,0.352,0.352,0.352,0.351,0.351,0.351,0.351,0.351,0.351,0.35,0.35,0.349,0.348,0.348,0.348,0,0.346,0.346,0.346,0.346,0.346,0.346,0.346,0.346,0,0,0,0,0.344,0.344,0.342,0.342,0.342,0.341,0.341,0.341,0.341,0.342,0.342,0.342,0.342,0.342,0.341,0.341,0.341,0.341,0.34,0.339,0.339,0.339,0.338,0.338,0.338,0.337,0.336,0.336,0.336,0.336,0.336,0.335,0.335,0.335,0.335,0.335,0.335,0.335,0.334,0.334,0.333,0.333,0.332,0.332,0.332,0.332,0.332,0.331,0.331,0.33,0.33,0.329,0.329,0.329,0.329,0.329,0.329,0.328,0.328,0.327,0,0,0.326,0.326,0.326,0.325,0.325,0.325,0.324,0.324,0.324,0.325,0.326,0,0,0,0,0,0,0,0,0,0,0,0,0,0,0,0,0,0,0,0,0,0,0,0,0,0,0,0,0,0,0,0,0,0,0,0,0,0,0,0,0,0,0,0,0,0,0,0,0,0,0,0,0,0,0,0,0,0,0,0,0,0,0,0,0,0,0,0,0,0,0,0,0,0,0,0,0,0,0,0,0,0,0
0,0,0,0,0,0,0,0,0,0,0,0,0,0,0,0,0,0,0,0,0,0,0,0,0,0,0,0,0,0,0,0,0.55,0.548,0.547,0.546,0.546,0.545,0.544,0.543,0.543,0,0,0,0,0,0,0,0,0,0,0.536,0.534,0.533,0.532,0.531,0.531,0.531,0.53,0.529,0.527,0.525,0.524,0.523,0.522,0.521,0.521,0.519,0.518,0.517,0.517,0.516,0.516,0.516,0.516,0.516,0.516,0.516,0.516,0.516,0.516,0.516,0.516,0.516,0.516,0.515,0.515,0.514,0.514,0.512,0.509,0.509,0.508,0.506,0.505,0.504,0.503,0.502,0.502,0.501,0.501,0.5,0.5,0.499,0.498,0.497,0.497,0.496,0.495,0.495,0.494,0.494,0.493,0.492,0.491,0.49,0.49,0.489,0.489,0.488,0.488,0.488,0.487,0.486,0.486,0.485,0.485,0.484,0.483,0.483,0.483,0.482,0.482,0.481,0.481,0.479,0.478,0.478,0.477,0.476,0.476,0.476,0.476,0.475,0.475,0.475,0.475,0.474,0.473,0.473,0.472,0.472,0.471,0.471,0.47,0.47,0.47,0.469,0.469,0.469,0.468,0.466,0.465,0.464,0.464,0.463,0.463,0.463,0.463,0.462,0.462,0.461,0,0.46,0.458,0.458,0.457,0.457,0.456,0.456,0.455,0.455,0.455,0.455,0.454,0.453,0.453,0.453,0.452,0.452,0.452,0.452,0.452,0.452,0.452,0.451,0.451,0.451,0.45,0.45,0.449,0.448,0.447,0.447,0.447,0.445,0.444,0.443,0.442,0.441,0.441,0.441,0.44,0.44,0.439,0.438,0.437,0.437,0.437,0.436,0.436,0.436,0.436,0.436,0.436,0.436,0.436,0.435,0.435,0.435,0.434,0.433,0.432,0.431,0.431,0.431,0.43,0.43,0.429,0.429,0.428,0.428,0.427,0.427,0.426,0.426,0.426,0.425,0.425,0.425,0.424,0.424,0.423,0.423,0.423,0.422,0.422,0.421,0.421,0.421,0.421,0.42,0.42,0.419,0.419,0.418,0.418,0.418,0.418,0.418,0.418,0.417,0.417,0.417,0.417,0.417,0,0,0,0,0,0,0.412,0.411,0.411,0.411,0.411,0.41,0.41,0,0.408,0.408,0.407,0.407,0,0,0.407,0.406,0.406,0.405,0.404,0.404,0.403,0.402,0.402,0.402,0.402,0.401,0.401,0.401,0.4,0.4,0.4,0.399,0.398,0.398,0.398,0.398,0.398,0,0,0,0.396,0.396,0.395,0.395,0.395,0.394,0.394,0.394,0.394,0.394,0.393,0.393,0.393,0.393,0.393,0.392,0.392,0.392,0.391,0.39,0.389,0.389,0.389,0.388,0.388,0.388,0.387,0.387,0.386,0.386,0.385,0.385,0.385,0.385,0.384,0.384,0.383,0.382,0,0,0.381,0.381,0.381,0.381,0.38,0.38,0.379,0.379,0.378,0.377,0.377,0.377,0.377,0,0.377,0.376,0.376,0.376,0.375,0.375,0.375,0.374,0.374,0.374,0.373,0.373,0.373,0.373,0.372,0.372,0.372,0.371,0.37,0.37,0.37,0.37,0.369,0.369,0.369,0.369,0.368,0.368,0.368,0.367,0.367,0.367,0.366,0.366,0.366,0.366,0.365,0.365,0.365,0.364,0.364,0.363,0.362,0,0.363,0,0.362,0.362,0.362,0.362,0.361,0.361,0.361,0.36,0.36,0.359,0.359,0.359,0.359,0.359,0,0.357,0.357,0.356,0.356,0.356,0.356,0.355,0.355,0.355,0.355,0.354,0.353,0.353,0.352,0.352,0.352,0,0.352,0.352,0.351,0.351,0.351,0.35,0.35,0.35,0.35,0.35,0.349,0.349,0.348,0.348,0.347,0.346,0.345,0.345,0.345,0.345,0.345,0.345,0.345,0.345,0.345,0.345,0,0,0,0,0.342,0.342,0.341,0.341,0.341,0.341,0.341,0.341,0.341,0.341,0.341,0.341,0.341,0.341,0.341,0.341,0.341,0.341,0.34,0.339,0.338,0.338,0.338,0.337,0.337,0.336,0.336,0.335,0.335,0.335,0.335,0.335,0.335,0.335,0.335,0.335,0.334,0.334,0.333,0.333,0.332,0.332,0.332,0.331,0.331,0.33,0.33,0.33,0.33,0.329,0.329,0.329,0.329,0.328,0.328,0.328,0.327,0.327,0.327,0.326,0.326,0.326,0.325,0.325,0.325,0.324,0.324,0.324,0.324,0.324,0.324,0.324,0,0,0,0,0,0,0,0,0,0,0,0,0,0,0,0,0,0,0,0,0,0,0,0,0,0,0,0,0,0,0,0,0,0,0,0,0,0,0,0,0,0,0,0,0,0,0,0,0,0,0,0,0,0,0,0,0,0,0,0,0,0,0,0,0,0,0,0,0,0,0,0,0,0,0,0,0,0,0,0,0,0,0,0
0,0,0,0,0,0,0,0,0,0,0,0,0,0,0,0,0,0,0,0,0,0,0,0,0,0,0,0,0,0,0.548,0.548,0.547,0.546,0.543,0.542,0.541,0.54,0.54,0.54,0.539,0,0,0,0,0,0,0,0,0,0.531,0.531,0.531,0.531,0.53,0.529,0.528,0.526,0.524,0.524,0.523,0.523,0.522,0.521,0.519,0.518,0.517,0.516,0.516,0.516,0.516,0.515,0.515,0.515,0.515,0.514,0.514,0.514,0.514,0.514,0.514,0.514,0.514,0.513,0.513,0.513,0.512,0.511,0.509,0.509,0.508,0.506,0.504,0.503,0.502,0.502,0.501,0.5,0.5,0.499,0.498,0.497,0.496,0.496,0.496,0.495,0.495,0.495,0.493,0.492,0.491,0.491,0.49,0.489,0.489,0.488,0.488,0.487,0.487,0.486,0.485,0.485,0.484,0.483,0.483,0.483,0.482,0.482,0.482,0.482,0.481,0.481,0.478,0.477,0.477,0.476,0.476,0.476,0.475,0.475,0.475,0.475,0.474,0.473,0.472,0.472,0.471,0.471,0.471,0.47,0.47,0.47,0.47,0.469,0.469,0.469,0.468,0.468,0.467,0.465,0.465,0.464,0.463,0.463,0.463,0.462,0.461,0.461,0.461,0.46,0.458,0.458,0.458,0.457,0.457,0.456,0.455,0.454,0.453,0.453,0.453,0.453,0.452,0.452,0.452,0.452,0.452,0.452,0.452,0.451,0.451,0.451,0.451,0.45,0.45,0.45,0.449,0.449,0.448,0.448,0.447,0.447,0.446,0.446,0.445,0.443,0.442,0.442,0.441,0.441,0.44,0.44,0.439,0.437,0.437,0.436,0.436,0.436,0.436,0.436,0.435,0.435,0.435,0.435,0.434,0.434,0.433,0.433,0.432,0.432,0.431,0.431,0.43,0.43,0.429,0.429,0.428,0.428,0.427,0.427,0.426,0.426,0.426,0.425,0.425,0.425,0.424,0.424,0.423,0.423,0.422,0.422,0.421,0.421,0.421,0.421,0.421,0.421,0.42,0.42,0.419,0.419,0.418,0.417,0.417,0.416,0.416,0.416,0.416,0.416,0.416,0.416,0.416,0.416,0.416,0.415,0.415,0.414,0,0,0,0,0.411,0.409,0.409,0.408,0.408,0.407,0,0.407,0.406,0.406,0.406,0.406,0.406,0.406,0,0,0.404,0.403,0.402,0.402,0.402,0.401,0.401,0.401,0.4,0.399,0.399,0.398,0.398,0.398,0.398,0.398,0.397,0.397,0.397,0.397,0.396,0,0,0.394,0.394,0.394,0.394,0.394,0.393,0.393,0.393,0.393,0.393,0.392,0.392,0.392,0.391,0.391,0.391,0.391,0.39,0.389,0.389,0.389,0.388,0.388,0.387,0.386,0.386,0.386,0.385,0.385,0.385,0.385,0.385,0.384,0.384,0.383,0.382,0.382,0.381,0,0.381,0.381,0.38,0.38,0.379,0.379,0.379,0.377,0.377,0.377,0.377,0.377,0.377,0.376,0.376,0.375,0.375,0.375,0.374,0.374,0.374,0.374,0.373,0.373,0.373,0.373,0.372,0.372,0.371,0.371,0.371,0.37,0.37,0.37,0.369,0.369,0.369,0.369,0.369,0.368,0.367,0.367,0.366,0.366,0.366,0.366,0.366,0.366,0.366,0.365,0.365,0.364,0.364,0.364,0.363,0.362,0.362,0.362,0.362,0.362,0.361,0.361,0.361,0.36,0.36,0.36,0.36,0.359,0.359,0.359,0.358,0.358,0.358,0.358,0.358,0,0,0,0.355,0.355,0.355,0.355,0.355,0.355,0.354,0.353,0.353,0.352,0.352,0.352,0.352,0.352,0.351,0.351,0.351,0.351,0.351,0.35,0.349,0.349,0.349,0.348,0.348,0.348,0,0,0,0,0.345,0.345,0.345,0.344,0.344,0.344,0.344,0.344,0.344,0.344,0.344,0.344,0.344,0,0,0,0.341,0.341,0.34,0.341,0.341,0.34,0.34,0.341,0.341,0.341,0.341,0.341,0.341,0.341,0.341,0.341,0.341,0.34,0.339,0.339,0.338,0.338,0.338,0.337,0.336,0.335,0.335,0.335,0.335,0.335,0.335,0.335,0.334,0.334,0.333,0.333,0.333,0.332,0.332,0.332,0.331,0.331,0.33,0.33,0.329,0.329,0.329,0.329,0.328,0.328,0.328,0.328,0.327,0.327,0.327,0.327,0.326,0.326,0.326,0.325,0.325,0.324,0.324,0.324,0.324,0.324,0.323,0.323,0.323,0.323,0.323,0.323,0,0,0,0,0,0,0,0,0,0,0,0,0,0,0,0,0,0,0,0,0,0,0,0,0,0,0,0,0,0,0,0,0,0,0,0,0,0,0,0,0,0,0,0,0,0,0,0,0,0,0,0,0,0,0,0,0,0,0,0,0,0,0,0,0,0,0,0,0,0,0,0,0,0,0,0,0,0,0,0,0,0,0,0
0,0,0,0,0,0,0,0,0,0,0,0,0,0,0,0,0,0,0,0,0,0,0,0,0,0,0,0,0,0,0.546,0.546,0.544,0.541,0.54,0.54,0.539,0.539,0.538,0.538,0.537,0,0,0,0,0,0,0,0,0,0.528,0.528,0.528,0.527,0.526,0.525,0.525,0.524,0.523,0.522,0.521,0.52,0.518,0.517,0.516,0.516,0.516,0.515,0.514,0.514,0.514,0.513,0.513,0.513,0.512,0.511,0.512,0.511,0.511,0.511,0.511,0.511,0.511,0.51,0.51,0.509,0,0.508,0.507,0.505,0.504,0.503,0.502,0.502,0.5,0.499,0.498,0.497,0.496,0.496,0.496,0.495,0.495,0.495,0.494,0.493,0.492,0.491,0.49,0.49,0.489,0.489,0.488,0.487,0.487,0.485,0.485,0.484,0.483,0.483,0.483,0.482,0.482,0.482,0.482,0.482,0.481,0.481,0.48,0.478,0.478,0.477,0.476,0.476,0.475,0.475,0.475,0.474,0.474,0.473,0.473,0.471,0.471,0.471,0.47,0.47,0.47,0.47,0.469,0.469,0.469,0.469,0.468,0.468,0.468,0.467,0.465,0.464,0.464,0.464,0.463,0.463,0.462,0.461,0.46,0.46,0.459,0.458,0.458,0.457,0.457,0.456,0.456,0.455,0.454,0.453,0.452,0.452,0.452,0.452,0.452,0.451,0.451,0.451,0.451,0.451,0.45,0.45,0.45,0.449,0.449,0.449,0.449,0.449,0.448,0.448,0.448,0.447,0.447,0.447,0.446,0.446,0.445,0.444,0.442,0.442,0.441,0.441,0.44,0.44,0.439,0.437,0.436,0.436,0.436,0.436,0.435,0.435,0.435,0.434,0.434,0.433,0.433,0.432,0.432,0.431,0.431,0.431,0.431,0.43,0.429,0.429,0.428,0.427,0.427,0.427,0.426,0.426,0.426,0.426,0.425,0.425,0.425,0.423,0.423,0.422,0.422,0.421,0.421,0.421,0.421,0.421,0.421,0.42,0.42,0.42,0.42,0.419,0.419,0.418,0.418,0.416,0.416,0.416,0.416,0.416,0.415,0.415,0.415,0.415,0.415,0.415,0.414,0.414,0.413,0.413,0.412,0.411,0,0.409,0.408,0.408,0.407,0.407,0.407,0.407,0.406,0.406,0.406,0.405,0.405,0.405,0.404,0.404,0.404,0.404,0.403,0.402,0.402,0.402,0.401,0.401,0.401,0.4,0.399,0.399,0.398,0.398,0.398,0.397,0.397,0.397,0.397,0.396,0.396,0.395,0.395,0.394,0.394,0.393,0.393,0.393,0.393,0.393,0.393,0.393,0.393,0.392,0.392,0.392,0.391,0.391,0.39,0.39,0.389,0.389,0.389,0.389,0.389,0,0,0,0.386,0.386,0.385,0.385,0.385,0.385,0.385,0.385,0.384,0.384,0.383,0.383,0.382,0.382,0.381,0.381,0.381,0.38,0.38,0.379,0.379,0.378,0.378,0.377,0.377,0.377,0.377,0.376,0.376,0.375,0.375,0.375,0.374,0.374,0.373,0.373,0.373,0.373,0.373,0.373,0.372,0.372,0.372,0.371,0.371,0.37,0.37,0.37,0.369,0.369,0.369,0.369,0.369,0.369,0.368,0.367,0.367,0.366,0.366,0.366,0.366,0.366,0.365,0.365,0.365,0.364,0.364,0.364,0.362,0.362,0.362,0.362,0.362,0.362,0.361,0.361,0.36,0.36,0.36,0.359,0.359,0.359,0.359,0.359,0.359,0.358,0.358,0.358,0.357,0.357,0.356,0.356,0.355,0,0,0,0.354,0.354,0.354,0.354,0.353,0,0.352,0.352,0.352,0.352,0.351,0.351,0.351,0.351,0.351,0.35,0.35,0.349,0.349,0.349,0.348,0.348,0.348,0.348,0.348,0,0,0,0,0.345,0.344,0.344,0.344,0.343,0.343,0.343,0.343,0.343,0.343,0.343,0.342,0.342,0.342,0.341,0.341,0.34,0.34,0.339,0.339,0.339,0.339,0.339,0.339,0.339,0.34,0.34,0.34,0.34,0.34,0.34,0.34,0.34,0.339,0.339,0.339,0.338,0.338,0.337,0.337,0.336,0.336,0.335,0.335,0.335,0.334,0.334,0.334,0.333,0.333,0.333,0.332,0.332,0.332,0.331,0.331,0.33,0.33,0.329,0.329,0.329,0.328,0.328,0.328,0.327,0.327,0.327,0.327,0.327,0.327,0.326,0.326,0.326,0.326,0.325,0.324,0.324,0.324,0.324,0.323,0.323,0.323,0.323,0.323,0.323,0.322,0.322,0.321,0.321,0,0,0,0,0,0,0,0,0,0,0,0,0,0,0,0,0,0,0,0,0,0,0,0,0,0,0,0,0,0,0,0,0,0,0,0,0,0,0,0,0,0,0,0,0,0,0,0,0,0,0,0,0,0,0,0,0,0,0,0,0,0,0,0,0,0,0,0,0,0,0,0,0,0,0,0,0,0,0,0,0,0,0,0
0,0,0,0,0,0,0,0,0,0,0,0,0,0,0,0,0,0,0,0,0,0,0,0,0,0,0,0,0,0,0.541,0.54,0.54,0.539,0.539,0.538,0.537,0.536,0.535,0.534,0.531,0,0.529,0.527,0.525,0.524,0.524,0.524,0.524,0.524,0.524,0.524,0.524,0.524,0.523,0.523,0.522,0.521,0.52,0.518,0.517,0.517,0.516,0.516,0.514,0.513,0.513,0.512,0.512,0.511,0.511,0.51,0.51,0.51,0.509,0.509,0.509,0.509,0.509,0.509,0.509,0.509,0.508,0.508,0.508,0.507,0.506,0.504,0.503,0.502,0.502,0.501,0.499,0.498,0.497,0.496,0.496,0.495,0.495,0.495,0.494,0.494,0.493,0.491,0.491,0.49,0.489,0.489,0.488,0.488,0.488,0.487,0.484,0.483,0.483,0.482,0.482,0.482,0.482,0.482,0.481,0.481,0.481,0.481,0.48,0.48,0.479,0.477,0.477,0.476,0.476,0.476,0.475,0.474,0.474,0.473,0.473,0.472,0.471,0.47,0.47,0.47,0.469,0.469,0.469,0.469,0.469,0.468,0.468,0.467,0.467,0.466,0.465,0.465,0.465,0.464,0.463,0.463,0.463,0.462,0.461,0.46,0.459,0.458,0.458,0.457,0.457,0.457,0.456,0.455,0.454,0.453,0.453,0.452,0.452,0.452,0.452,0.451,0.451,0.451,0.45,0.449,0.449,0.448,0.448,0.448,0.448,0.448,0.447,0.447,0.447,0.447,0.447,0.447,0.447,0.447,0.447,0.446,0.446,0.446,0.444,0.443,0.442,0.441,0.441,0.441,0.44,0.439,0.437,0.437,0.436,0.436,0.435,0.435,0.435,0.435,0.434,0.433,0.433,0.432,0.432,0.431,0.431,0.431,0.43,0.43,0.43,0.429,0.429,0.428,0.427,0.426,0.426,0,0.425,0.425,0.425,0.425,0.425,0.425,0.423,0.423,0.422,0.421,0.421,0.421,0.421,0.42,0.42,0.42,0.42,0.42,0.419,0.419,0.418,0.418,0.418,0.417,0.416,0.416,0.416,0.415,0.415,0.415,0.415,0.414,0.414,0.414,0.413,0.413,0.413,0.412,0.412,0.411,0.411,0.411,0.409,0.408,0.407,0.407,0.406,0.406,0.406,0.406,0.406,0.405,0.405,0.404,0.404,0.404,0.403,0.402,0.402,0.402,0.402,0.402,0.402,0.401,0.401,0.4,0.4,0.399,0.399,0.398,0.398,0.398,0.398,0.397,0.397,0.397,0.396,0.396,0.395,0.394,0.394,0.394,0.393,0.393,0.393,0.392,0.392,0.392,0.391,0.391,0.391,0.391,0.391,0.39,0.39,0.389,0.389,0.389,0.389,0.389,0.389,0.388,0.388,0.388,0.387,0.386,0.386,0,0.385,0.385,0.385,0.384,0.384,0.383,0.383,0.383,0.382,0.382,0.382,0.381,0.381,0.381,0.38,0.38,0.379,0.379,0.378,0.377,0.377,0.377,0.377,0.377,0.376,0.376,0.375,0.375,0.374,0.374,0.374,0.373,0.373,0.373,0.373,0.372,0.372,0.372,0.371,0.371,0.37,0.37,0.37,0.37,0.369,0.369,0.369,0.369,0.369,0.368,0.368,0.368,0.367,0.367,0.367,0.366,0.366,0.366,0.366,0.365,0.365,0.365,0.364,0.363,0.363,0.363,0.362,0.362,0.362,0.362,0.362,0.361,0.361,0.36,0.36,0.359,0.359,0.359,0.358,0.358,0.358,0.358,0.358,0.358,0.358,0.358,0.357,0.356,0.356,0.355,0.355,0.355,0.355,0.354,0.353,0.353,0.352,0.352,0.352,0.352,0,0,0,0,0.351,0.351,0.351,0.35,0.35,0.349,0.349,0.349,0.349,0.348,0.348,0.348,0.348,0.348,0.347,0.347,0.346,0.346,0,0,0,0.344,0.343,0.342,0.342,0.342,0.342,0.342,0.342,0.342,0.342,0.341,0.341,0.34,0.34,0.34,0.339,0.339,0.339,0.339,0.339,0.339,0.339,0.339,0.339,0.339,0.339,0.339,0.339,0.339,0.339,0.339,0.339,0.339,0.339,0.338,0.338,0.337,0.337,0.336,0.335,0.335,0.335,0.335,0.334,0.334,0.333,0.333,0.332,0.332,0.332,0.331,0.331,0.33,0.33,0.33,0.329,0.329,0.329,0.329,0.328,0.327,0.327,0.327,0.326,0.326,0.326,0.326,0.326,0.326,0.326,0.326,0.325,0.325,0.324,0.324,0.324,0.323,0.323,0.323,0.323,0.323,0.322,0.322,0.321,0.321,0.321,0.321,0.321,0.32,0.32,0,0,0,0,0,0,0,0,0,0,0,0,0,0,0,0,0,0,0,0,0,0,0,0,0,0,0,0,0,0,0,0,0,0,0,0,0,0,0,0,0,0,0,0,0,0,0,0,0,0,0,0,0,0,0,0,0,0,0,0,0,0,0,0,0,0,0,0,0,0,0,0,0,0,0,0,0,0,0,0,0,0,0
0,0,0,0,0,0,0,0,0,0,0,0,0,0,0,0,0,0,0,0,0,0,0,0,0,0,0,0,0,0,0,0.538,0.538,0.537,0.536,0.535,0.534,0.533,0.531,0.53,0.529,0.527,0.525,0.524,0.523,0.523,0.523,0.523,0.523,0.523,0.523,0.523,0.523,0.522,0.521,0.52,0.519,0.518,0.517,0.516,0.516,0.515,0.514,0.512,0.511,0.511,0.51,0.51,0.509,0.509,0.509,0.509,0.509,0.509,0.508,0.508,0.508,0.508,0.507,0.507,0.506,0.505,0.505,0.504,0.503,0.502,0.502,0.502,0.501,0.499,0.497,0.496,0.496,0.495,0.495,0.495,0.494,0.493,0.493,0.492,0.491,0.49,0.49,0.489,0.489,0.488,0.488,0.487,0.487,0.486,0.485,0.483,0.482,0.482,0.482,0.481,0.481,0.481,0.48,0.48,0.479,0.479,0.478,0.478,0.477,0.477,0.476,0.476,0.475,0.475,0.475,0.474,0.473,0.472,0.471,0.471,0.47,0.47,0.469,0.469,0.469,0.469,0.468,0.468,0.467,0.467,0.466,0.465,0.465,0.465,0.464,0.464,0.464,0.463,0.463,0.463,0.462,0.461,0.46,0.459,0.459,0.458,0.458,0.457,0.457,0.456,0.456,0.454,0.453,0.453,0.452,0.452,0.452,0.451,0.451,0.45,0.449,0.449,0.448,0.448,0.448,0.447,0.447,0.447,0.447,0.447,0.447,0.446,0.446,0.446,0.446,0.446,0.446,0.446,0.446,0.446,0.446,0.445,0.444,0.443,0.442,0.441,0.441,0.441,0.44,0.44,0.438,0.436,0.436,0.436,0.435,0.435,0.434,0.433,0.433,0.432,0.432,0.431,0.431,0.431,0.431,0.43,0.43,0.429,0.429,0.428,0.427,0.427,0.426,0.426,0.425,0.425,0.425,0.425,0.424,0.424,0.423,0.423,0.422,0.421,0.421,0.421,0.421,0.42,0.42,0.42,0.42,0.419,0.419,0.418,0.418,0.418,0.418,0.417,0.416,0.416,0.416,0.415,0.415,0.415,0.414,0.414,0.413,0.413,0.412,0.412,0.412,0.411,0.411,0.411,0.411,0.411,0.411,0.41,0.409,0.408,0.407,0.406,0.406,0.406,0.405,0.405,0.404,0.404,0.404,0.404,0.403,0.402,0.402,0.402,0.402,0.402,0.402,0.402,0.401,0.401,0.4,0.4,0.399,0.398,0.398,0.398,0.398,0.398,0.397,0.397,0.396,0.396,0.395,0.395,0.394,0.394,0.394,0.393,0.393,0,0.392,0.392,0.391,0.391,0.391,0.39,0.39,0.39,0.39,0.389,0.389,0.389,0.389,0.388,0.388,0.388,0.387,0.387,0.387,0.386,0.386,0.386,0.385,0.385,0.385,0,0.383,0.383,0.383,0.382,0.382,0.382,0.381,0.381,0.381,0.381,0.381,0.381,0.38,0.38,0.379,0.378,0.377,0.377,0.377,0.377,0.377,0.376,0.376,0.376,0.375,0.374,0.374,0.374,0.373,0.373,0.373,0.373,0.373,0.372,0.371,0.371,0.37,0.37,0.37,0.369,0.369,0.369,0.369,0.369,0.369,0.369,0.368,0.368,0.367,0.367,0.366,0.366,0.366,0.366,0.366,0.366,0.365,0.365,0.364,0.364,0.364,0.363,0.363,0.362,0.362,0.362,0.362,0.361,0.361,0.361,0.36,0.36,0.36,0.359,0.359,0.358,0.358,0.358,0.358,0.357,0.357,0.357,0.357,0.357,0.356,0.356,0.355,0.355,0.355,0.355,0.354,0.354,0.353,0.352,0.352,0.352,0.351,0.351,0.351,0.351,0,0,0,0,0.35,0.35,0.35,0.349,0.349,0.348,0.348,0.348,0.348,0.347,0.347,0.347,0.347,0.346,0.346,0.345,0.345,0.344,0.344,0.343,0.342,0.342,0.342,0.342,0.342,0.342,0.341,0.341,0.341,0,0,0.34,0.339,0.339,0.339,0.339,0.339,0.338,0.338,0.338,0.338,0.338,0.338,0.338,0.338,0.338,0.338,0.338,0.338,0.338,0.338,0.338,0.338,0.338,0.338,0.338,0.338,0.337,0.336,0.336,0.335,0.335,0.334,0.333,0.333,0.332,0.332,0.331,0.331,0.33,0.33,0.329,0.329,0,0.329,0.329,0.329,0.328,0.327,0.327,0.327,0.326,0.326,0.326,0.326,0.326,0.326,0.325,0.325,0.325,0.325,0.324,0.324,0.324,0.323,0.323,0.323,0.323,0.323,0.323,0.322,0.321,0.321,0.321,0.321,0.32,0.32,0.32,0.32,0.319,0.319,0.319,0,0,0,0,0,0,0,0,0,0,0,0,0,0,0,0,0,0,0,0,0,0,0,0,0,0,0,0,0,0,0,0,0,0,0,0,0,0,0,0,0,0,0,0,0,0,0,0,0,0,0,0,0,0,0,0,0,0,0,0,0,0,0,0,0,0,0,0,0,0,0,0,0,0,0,0,0,0,0,0,0,0
0,0,0,0,0,0,0,0,0,0,0,0,0,0,0,0,0,0,0,0,0,0,0,0,0,0,0,0,0,0,0,0.537,0.535,0.534,0.533,0.532,0.531,0.53,0.529,0.527,0.526,0.525,0.524,0.523,0.523,0.522,0.522,0.522,0.522,0.522,0.521,0.521,0.519,0.519,0.518,0.517,0.516,0.516,0.515,0.514,0.512,0.511,0.51,0.509,0.509,0.509,0.509,0.509,0.508,0.508,0.508,0.508,0.507,0.507,0.505,0.505,0.504,0.504,0.503,0.503,0.502,0.502,0.502,0.501,0,0.5,0.498,0.497,0.496,0.495,0.495,0.495,0.494,0.494,0.493,0.492,0.49,0.49,0.489,0.489,0.489,0.488,0.488,0.488,0.487,0.486,0.485,0.484,0.483,0.482,0.482,0.481,0.481,0.48,0.48,0.479,0.478,0.478,0.477,0.477,0.476,0,0.476,0.476,0.476,0.475,0.475,0.474,0.474,0.473,0.472,0.471,0.471,0.47,0.469,0.469,0.469,0.468,0.468,0.467,0.467,0.466,0.465,0.465,0.465,0.464,0.464,0.463,0.463,0.463,0.463,0.462,0.462,0.462,0.461,0.461,0.46,0.459,0.458,0.458,0.458,0.457,0.456,0.456,0.455,0.454,0.453,0.453,0.452,0.452,0.451,0.451,0.449,0.448,0.448,0.447,0.447,0.447,0.447,0.447,0.446,0.446,0.446,0.446,0.446,0.446,0.446,0.445,0.445,0.445,0.444,0.444,0.444,0.444,0.443,0.443,0.442,0.442,0.441,0.441,0.441,0.44,0.44,0.439,0.438,0.437,0.436,0.436,0.435,0.435,0.434,0.433,0.432,0.431,0.431,0.431,0.431,0.431,0.43,0.43,0.429,0.429,0.428,0.427,0.426,0.426,0.426,0.425,0.425,0.425,0.424,0.424,0.423,0.422,0.422,0.422,0.421,0.421,0,0,0.42,0.42,0.42,0.419,0.418,0.418,0.418,0.417,0.417,0.416,0.416,0.416,0.416,0.416,0.415,0.415,0.415,0.414,0.413,0.413,0,0.412,0.411,0.411,0.411,0.411,0.411,0.411,0.41,0.41,0.409,0.408,0.408,0.407,0.407,0.406,0.406,0.405,0,0.404,0.404,0.403,0.403,0.403,0.402,0.402,0.402,0.402,0.402,0.402,0.401,0.401,0.4,0.4,0.4,0.399,0.399,0.398,0.398,0.398,0.397,0.397,0.397,0.396,0.395,0.394,0.394,0.394,0.394,0.393,0.393,0.393,0.393,0.392,0,0.392,0.391,0.391,0.39,0.389,0.389,0.389,0.389,0.389,0.389,0.389,0.388,0.388,0.387,0.386,0.386,0.386,0.385,0.386,0.385,0.385,0.385,0.385,0.384,0.384,0.383,0.382,0.382,0.381,0.381,0.381,0.381,0.381,0.381,0.38,0.38,0.38,0.38,0.379,0.378,0.377,0.377,0.377,0.377,0.377,0.376,0.376,0.376,0.375,0.375,0.374,0.374,0.373,0.373,0.373,0.373,0.373,0.372,0.371,0.371,0.37,0.37,0.37,0.369,0.369,0.369,0.369,0.368,0.368,0.368,0.367,0.367,0.367,0.366,0.366,0.366,0.366,0.366,0.365,0.365,0.365,0.365,0.364,0.364,0.363,0.363,0.363,0.362,0.362,0.362,0.361,0.361,0.361,0.361,0.36,0.36,0.359,0.359,0.359,0.359,0.358,0.358,0.358,0.357,0.357,0.356,0.356,0.356,0.356,0.355,0,0,0.355,0.355,0.354,0.354,0.354,0.352,0.352,0.352,0.351,0.351,0.351,0.351,0.351,0.351,0.351,0.351,0.35,0.35,0.35,0.349,0.349,0.349,0.348,0.348,0.348,0.348,0.347,0.347,0.346,0.346,0.346,0.346,0.345,0.345,0.344,0.343,0.343,0.342,0.342,0.341,0.341,0.341,0.341,0.341,0.341,0.34,0.34,0.34,0.339,0.339,0.339,0.338,0.338,0.338,0.338,0.337,0.337,0.337,0.336,0.337,0.337,0.337,0.336,0.337,0.337,0.337,0.337,0.337,0.338,0.337,0.337,0.337,0.337,0.337,0.337,0.336,0.336,0.335,0.335,0.334,0.333,0.333,0.332,0.332,0.331,0.33,0.33,0.33,0,0.329,0.328,0.328,0.328,0.327,0.327,0.327,0.327,0.326,0.326,0.326,0.326,0.325,0.325,0.325,0.324,0.324,0.324,0,0,0.323,0.323,0.323,0.323,0.323,0.323,0.322,0.322,0.322,0.321,0.321,0.321,0.32,0.32,0.32,0.32,0.319,0.319,0.319,0.318,0.318,0.318,0.318,0,0,0,0,0,0,0,0,0,0,0,0,0,0,0,0,0,0,0,0,0,0,0,0,0,0,0,0,0,0,0,0,0,0,0,0,0,0,0,0,0,0,0,0,0,0,0,0,0,0,0,0,0,0,0,0,0,0,0,0,0,0,0,0,0,0,0,0,0,0,0,0,0,0,0,0,0,0,0,0,0
0,0,0,0,0,0,0,0,0,0,0,0,0,0,0,0,0,0,0,0,0,0,0,0,0,0,0,0,0,0,0,0,0.532,0.531,0.531,0.53,0.529,0.527,0.526,0.525,0.524,0.524,0.523,0.523,0.522,0.521,0.521,0.52,0.519,0.519,0.518,0.517,0.516,0.516,0.516,0.515,0.514,0.512,0.511,0.51,0.509,0.509,0.509,0.508,0.508,0.508,0.507,0.507,0.507,0.506,0.506,0.505,0.504,0.503,0.502,0.502,0.502,0.502,0.502,0.501,0.5,0,0.497,0,0.496,0.496,0.495,0.495,0.495,0.494,0.493,0.492,0.491,0.49,0.489,0.489,0.488,0.488,0.488,0.488,0.487,0.486,0.485,0.485,0.484,0.483,0.482,0.482,0.481,0.481,0.48,0.479,0.478,0.477,0.477,0.477,0.476,0.476,0.476,0.475,0.475,0.475,0.475,0.474,0.474,0.473,0.472,0.471,0.471,0.47,0.47,0.47,0.469,0.468,0.468,0.467,0.467,0.466,0.465,0.465,0.464,0.464,0.464,0.463,0.463,0.463,0.463,0.462,0.462,0.461,0.461,0.46,0.46,0.46,0.459,0.459,0.458,0.458,0.457,0.457,0.455,0.455,0.453,0.453,0.453,0.452,0.452,0.452,0.451,0.451,0.448,0.448,0.447,0.447,0.447,0.446,0.446,0.446,0.446,0.446,0.446,0.445,0.445,0.444,0.444,0.444,0.443,0.443,0.442,0.442,0.442,0.442,0.442,0.441,0.441,0,0,0.44,0.44,0.44,0.439,0.438,0.437,0.436,0.436,0.436,0.435,0.434,0.434,0.432,0.432,0.431,0.431,0.43,0.43,0.43,0.429,0.429,0.428,0.427,0.427,0.426,0.426,0.426,0.425,0.425,0.425,0.425,0.424,0.422,0.422,0.421,0.421,0.421,0.421,0.42,0.42,0.42,0,0,0.418,0.418,0.417,0.417,0.417,0.417,0.416,0.416,0.416,0.416,0.415,0.415,0.415,0.415,0.414,0.413,0.413,0.412,0.412,0.411,0.411,0.411,0.411,0.411,0.41,0.41,0.409,0.408,0.408,0.407,0.407,0.407,0.406,0.406,0.406,0.405,0.404,0.404,0.403,0.402,0.402,0.402,0.402,0.402,0.402,0.401,0.401,0.401,0.401,0.4,0.4,0.399,0.399,0.399,0.399,0.398,0.398,0.397,0.397,0.397,0.397,0.395,0.394,0.394,0.394,0.393,0.393,0.393,0.393,0.393,0.392,0.392,0.391,0.391,0.39,0.389,0.389,0.389,0.389,0.389,0.389,0.388,0.388,0.387,0.387,0.386,0.386,0.385,0.385,0.385,0.385,0.385,0.385,0.385,0.385,0.384,0.384,0.383,0.382,0.382,0.381,0.381,0.381,0.381,0.38,0.38,0.38,0.379,0.379,0.378,0.378,0.377,0.377,0,0,0.377,0.376,0.376,0.376,0.376,0.375,0.374,0.374,0.374,0.373,0.373,0.373,0.373,0.372,0.371,0.371,0.37,0.37,0.37,0.37,0.369,0.369,0.369,0.369,0.368,0.367,0.366,0.366,0.366,0.366,0,0,0.366,0.365,0.365,0.365,0.365,0.364,0.364,0.364,0.363,0.363,0.363,0.362,0.362,0.362,0.362,0.361,0.361,0.36,0.36,0.36,0.359,0.359,0.359,0.359,0.359,0.358,0.358,0.358,0.357,0.356,0.356,0.355,0.355,0.355,0.355,0.355,0,0,0,0,0.354,0.352,0.352,0.352,0.352,0.351,0.351,0.351,0.351,0.35,0.35,0.35,0.35,0.35,0.35,0.349,0.349,0.348,0.348,0.348,0.348,0.348,0.348,0.347,0.347,0.347,0.346,0.346,0.345,0.345,0.345,0.345,0.344,0.344,0.343,0.342,0.342,0.341,0.341,0.34,0,0.34,0.34,0.34,0.339,0.339,0.339,0.339,0.338,0.338,0.338,0.337,0.337,0.337,0.336,0.336,0.336,0.336,0.336,0.335,0.335,0.335,0.335,0.336,0.336,0.336,0.336,0.336,0.336,0.336,0.335,0,0.335,0.335,0.335,0.335,0.334,0.333,0.333,0.333,0.332,0.332,0.33,0.33,0.329,0.329,0.329,0.329,0.328,0.328,0.327,0.327,0.327,0.326,0.326,0.326,0.326,0.326,0.325,0.325,0.324,0.324,0.324,0.323,0.323,0.323,0.323,0,0.323,0.323,0.322,0.322,0.322,0.321,0.321,0.321,0.321,0.321,0.32,0.32,0.32,0.319,0.319,0.319,0.318,0.318,0.318,0.318,0.318,0.318,0.318,0.318,0.318,0,0,0,0,0,0,0,0,0,0,0,0,0,0,0,0,0,0,0,0,0,0,0,0,0,0,0,0,0,0,0,0,0,0,0,0,0,0,0,0,0,0,0,0,0,0,0,0,0,0,0,0,0,0,0,0,0,0,0,0,0,0,0,0,0,0,0,0,0,0,0,0,0,0,0,0,0,0,0,0
