4.851,4.851,4.83,4.81,4.81,4.81,4.81,4.81,4.81,4.81,0.0,0.0,0.0,0.0,2.23,2.226,2.217,2.217,2.213,2.209,2.209,2.205,2.205,2.205,2.205,2.205,2.205,2.209,2.209,2.209,2.213,2.213,2.213,2.213,2.213,2.213,0.0,0.0,0.0,0.0,0.0,0.0,0.0,0.0,3.298,3.298,3.317,3.317,3.326,3.326,3.326,3.336,3.336,3.355,3.355,3.355,3.365,3.365,3.384,3.394,3.414,3.424,3.434,3.444,3.454,3.465,3.475,3.485,3.496,3.517,3.538,3.56,3.582,3.615,3.627,3.627,3.649,3.649,3.649,3.649,3.627,3.627,3.615,3.593,3.582,3.56,3.549,3.538,3.528,3.528,3.528,3.517,3.517,3.528,0.0,0.0,0.0,0.0,0.0,0.0,0.0,0.0,0.0,0.0,0.0,0.0,0.0,0.0,0.0,0.0,0.708,0.709,0.71,0.712,0.712,0.714,0.715,0.716,0.716,0.716,0.717,0.716,0.717,0.717,0.717,0.717,0.717,0.716,0.715,0.714,0.712,0.711,0.71,0.709,0.707,0.706,0.706,0.706,0.704,0.703,0.702,0.7,0.699,0.698,0.696,0.696,0.695,0.694,0.692,0.691,0.69,0.69,0.689,0.687,0.686,0.684,0.683,0.681,0.68,0.68,0.679,0.677,0.676,0.674,0.672,0.671,0.67,0.669,0.668,0.667,0.667,0.667,0.666,0.665,0.665,0.664,0.663,0.662,0.662,0.661,0.66,0.658,0.657,0.656,0.655,0.654,0.653,0.651,0.649,0.647,0.646,0.646,0.645,0.645,0.644,0.644,0.644,0.643,0.642,0.64,0.638,0.635,0.634,0.632,0.632,0.631,0.629,0.628,0.628,0.627,0.626,0.625,0.625,0.624,0.623,0.623,0.622,0.622,0.622,0.621,0.621,0.62,0.618,0.616,0.614,0.613,0.612,0.611,0.611,0.61,0.608,0.607,0.606,0.604,0.603,0.602,0.601,0.601,0.6,0.599,0.598,0.596,0.594,0.592,0.0,0.0,0.0,0.0,0.0,0.0,0.0,0.0,0.0,0.472,0.471,0.471,0.47,0.47,0.469,0.469,0.468,0.468,0.467,0.466,0.466,0.465,0.464,0.464,0.464,0.463,0.463,0.462,0.461,0.461,0.459,0.458,0.458,0.458,0.458,0.457,0.457,0.457,0.457,0.457,0.457,0.456,0.456,0.455,0.455,0.455,0.455,0.454,0.454,0.453,0.453,0.453,0.453,0.452,0.452,0.452,0.452,0.452,0.452,0.452,0.452,0.452,0.452,0.451,0.451,0.451,0.451,0.45,0.449,0.449,0.448,0.447,0.447,0.446,0.446,0.445,0.444,0.442,0.442,0.441,0.441,0.441,0.441,0.441,0.441,0.441,0.44,0.44,0.44,0.439,0.439,0.439,0.439,0.439,0.438,0.438,0.438,0.438,0.438,0.438,0.437,0.437,0.437,0.437,0.437,0.436,0.436,0.43624999999999997,0.436,0.436,0.435,0.435,0.435,0.435,0.435,0.435,0.435,0.434,0.435,0.434,0.434,0.434,0.434,0.434,0.434,0.434,0.434,0.434,0.434,0.435,0.435,0.435,0.434,0.434,0.434,0.434,0.434,0.434,0.434,0.434,0.435,0.435,0.435,0.435,0.435,0.435,0.435,0.435,0.435,0.435,0.435,0.435,0.435,0.435,0.435,0.434,0.434,0.434,0.433,0.433,0.432,0.432,0.432,0.432,0.432,0.431,0.431,0.431,0.431,0.431,0.431,0.432,0.432,0.432,0.43225,0.433,0.434,0.0,0.0,0.0,0.0,0.451,0.456,0.0,0.0,0.461,0.461,0.462,0.463,0.462,0.463,0.463,0.463,0.463,0.463,0.463,0.463,0.463,0.464,0.463,0.463,0.463,0.462,0.46,0.459,0.458,0.457,0.454,0.453,0.452,0.452,0.451,0.451,0.451,0.451,0.451,0.452,0.452,0.452,0.452,0.452,0.452,0.452,0.452,0.452,0.452,0.451,0.451,0.45,0.449,0.449,0.448,0.448,0.44775000000000004,0.447,0.447,0.446,0.446,0.446,0.446,0.446,0.445,0.445,0.444,0.444,0.444,0.443,0.443,0.442,0.442,0.442,0.441,0.441,0.441,0.441,0.44,0.44,0.439,0.438,0.437,0.436,0.436,0.435,0.435,0.433,0.432,0.431,0.431,0.43,0.43,0.43,0.429,0.429,0.427,0.426,0.426,0.426,0.425,0.425,0.425,0.425,0.425,0.425,0.424,0.424,0.423,0.422,0.422,0.421,0.421,0.421,0.421,0.42,0.42,0.42,0.419,0.419,0.418,0.418,0.417,0.417,0.416,0.416,0.416,0.416,0.415,0.415,0.0,0.0,0.413,0.413,0.412,0.411,0.411,0.411,0.411,0.411,0.0,0.0,0.0,0.0
4.851,4.83,4.83,4.81,4.81,4.81,4.81,4.81,4.81,0.0,0.0,0.0,0.0,0.0,2.243,2.234,2.226,2.222,2.217,2.213,2.213,2.213,2.213,2.213,2.213,2.213,2.213,2.213,2.213,2.213,2.213,2.213,2.213,2.213,2.213,2.217,2.217,0.0,0.0,0.0,0.0,0.0,0.0,0.0,0.0,3.298,3.317,3.326,3.326,3.326,3.326,3.326,3.326,3.336,3.336,3.355,3.355,3.365,3.384,3.394,3.404,3.424,3.434,3.444,3.454,3.465,3.475,3.485,3.496,3.517,3.538,3.56,3.593,3.615,3.627,3.649,3.649,3.649,3.649,3.627,3.627,3.615,3.615,3.582,3.582,3.549,3.549,3.538,3.528,3.517,3.506,3.506,3.506,3.517,0.0,0.0,0.0,0.0,0.0,0.0,0.0,0.0,0.0,0.0,0.0,0.0,0.0,0.0,0.0,0.0,0.707,0.7077499999999999,0.708,0.709,0.71,0.711,0.712,0.712,0.713,0.714,0.713,0.712,0.712,0.712,0.712,0.711,0.711,0.71,0.71,0.709,0.708,0.708,0.706,0.706,0.705,0.704,0.702,0.7,0.699,0.697,0.695,0.695,0.694,0.693,0.693,0.691,0.69,0.689,0.687,0.685,0.684,0.683,0.682,0.681,0.681,0.68,0.68,0.679,0.678,0.675,0.673,0.671,0.67,0.669,0.668,0.668,0.667,0.666,0.666,0.664,0.663,0.661,0.66,0.659,0.658,0.658,0.657,0.657,0.657,0.656,0.655,0.655,0.654,0.653,0.651,0.649,0.646,0.645,0.645,0.645,0.644,0.644,0.644,0.644,0.643,0.642,0.641,0.639,0.637,0.635,0.633,0.632,0.631,0.629,0.628,0.627,0.625,0.624,0.624,0.623,0.623,0.623,0.622,0.622,0.621,0.621,0.62,0.617,0.616,0.615,0.614,0.613,0.612,0.612,0.611,0.61,0.609,0.608,0.606,0.603,0.603,0.602,0.601,0.601,0.601,0.6,0.599,0.598,0.596,0.595,0.593,0.592,0.591,0.588,0.586,0.0,0.0,0.0,0.0,0.0,0.0,0.0,0.0,0.472,0.471,0.471,0.471,0.47,0.47,0.469,0.469,0.468,0.467,0.467,0.466,0.465,0.465,0.464,0.464,0.463,0.463,0.462,0.462,0.461,0.459,0.459,0.458,0.458,0.458,0.458,0.458,0.458,0.457,0.457,0.457,0.457,0.457,0.456,0.456,0.456,0.456,0.455,0.455,0.454,0.454,0.453,0.453,0.453,0.453,0.453,0.453,0.453,0.453,0.453,0.452,0.452,0.452,0.452,0.452,0.452,0.451,0.451,0.45,0.449,0.448,0.448,0.447,0.446,0.446,0.445,0.444,0.442,0.442,0.442,0.441,0.441,0.441,0.441,0.441,0.441,0.44,0.44,0.44,0.44,0.439,0.439,0.439,0.439,0.439,0.439,0.438,0.439,0.439,0.438,0.438,0.438,0.438,0.438,0.438,0.437,0.437,0.437,0.436,0.436,0.436,0.436,0.436,0.436,0.436,0.435,0.435,0.435,0.435,0.435,0.435,0.435,0.435,0.435,0.435,0.435,0.435,0.435,0.435,0.435,0.435,0.435,0.435,0.435,0.435,0.435,0.435,0.435,0.435,0.435,0.435,0.435,0.435,0.435,0.436,0.436,0.436,0.436,0.436,0.436,0.436,0.436,0.436,0.436,0.436,0.435,0.435,0.435,0.434,0.434,0.433,0.433,0.433,0.433,0.433,0.432,0.432,0.432,0.432,0.432,0.4325,0.433,0.433,0.434,0.433,0.435,0.436,0.437,0.0,0.0,0.0,0.451,0.0,0.0,0.0,0.461,0.461,0.462,0.463,0.463,0.463,0.463,0.463,0.463,0.463,0.463,0.463,0.463,0.463,0.463,0.462,0.461,0.46,0.459,0.458,0.458,0.457,0.455,0.454,0.453,0.452,0.45175,0.452,0.451,0.451,0.4505,0.450875,0.451,0.451,0.451,0.451,0.451,0.451,0.451,0.451,0.45,0.449,0.448,0.447,0.447,0.447,0.446,0.446,0.446,0.446,0.445,0.445,0.444,0.444,0.443,0.443,0.443,0.442,0.442,0.442,0.442,0.442,0.442,0.441,0.441,0.441,0.441,0.441,0.44,0.44,0.439,0.438,0.437,0.436,0.436,0.435,0.434,0.432,0.431,0.431,0.43,0.43,0.429,0.428,0.426,0.426,0.426,0.425,0.425,0.425,0.425,0.424,0.424,0.423,0.423,0.423,0.423,0.422,0.421,0.421,0.421,0.421,0.42,0.42,0.42,0.42,0.419,0.419,0.418,0.418,0.417,0.416,0.416,0.416,0.416,0.416,0.415,0.415,0.414,0.414,0.413,0.413,0.412,0.411,0.411,0.411,0.411,0.41,0.41,0.409,0.408,0.408,0.407,0.0,0.0,0.0
4.851,4.851,4.83,4.83,4.83,4.83,4.81,4.81,0.0,0.0,0.0,0.0,0.0,2.283,2.252,2.243,2.234,2.23,2.226,2.217,2.217,2.213,2.213,2.213,2.213,2.213,2.213,2.213,2.213,2.213,2.213,2.213,2.217,2.217,2.217,2.217,2.217,2.217,2.217,0.0,0.0,0.0,0.0,0.0,0.0,0.0,0.0,0.0,3.317,3.317,3.317,3.317,3.326,3.336,3.336,3.336,3.355,3.365,3.384,3.394,3.404,3.414,3.434,3.444,3.454,3.465,3.475,3.496,3.496,3.528,3.549,3.56,3.593,3.627,3.627,3.649,3.649,3.649,3.649,3.649,3.627,3.627,3.627,3.593,3.56,3.56,3.538,3.528,3.528,3.517,3.506,3.496,0.0,0.0,0.0,0.0,0.0,0.0,0.0,0.0,0.0,0.0,0.0,0.0,0.0,0.0,0.0,0.0,0.707,0.707,0.707,0.707,0.708,0.708,0.709,0.709,0.709,0.709,0.709,0.709,0.709,0.709,0.708,0.708,0.708,0.707,0.707,0.706,0.706,0.706,0.705,0.704,0.703,0.701,0.699,0.698,0.695,0.695,0.694,0.693,0.693,0.692,0.69,0.688,0.686,0.686,0.683,0.682,0.681,0.681,0.68,0.68,0.679,0.678,0.678,0.677,0.673,0.671,0.67,0.669,0.668,0.668,0.667,0.666,0.666,0.665,0.663,0.662,0.659,0.658,0.658,0.657,0.656,0.655,0.655,0.655,0.655,0.654,0.65275,0.653,0.651,0.649,0.648,0.646,0.645,0.644,0.644,0.644,0.643,0.643,0.642,0.641,0.64,0.639,0.638,0.636,0.634,0.633,0.632,0.631,0.629,0.627,0.626,0.624,0.624,0.623,0.622,0.622,0.622,0.622,0.621,0.621,0.62,0.619,0.616,0.614,0.613,0.612,0.612,0.611,0.611,0.61,0.609,0.608,0.607,0.603,0.603,0.602,0.601,0.601,0.601,0.6,0.599,0.599,0.598,0.596,0.595,0.594,0.593,0.592,0.592,0.589,0.586,0.584,0.584,0.0,0.0,0.0,0.0,0.0,0.0,0.0,0.0,0.472,0.471,0.471,0.47,0.47,0.469,0.469,0.468,0.468,0.468,0.467,0.467,0.466,0.465,0.465,0.464,0.464,0.463,0.463,0.463,0.462,0.461,0.46,0.459,0.459,0.459,0.458,0.458,0.458,0.458,0.458,0.458,0.457,0.457,0.457,0.457,0.457,0.457,0.456,0.456,0.455,0.455,0.455,0.454,0.454,0.454,0.454,0.453,0.453,0.453,0.453,0.453,0.453,0.452,0.452,0.452,0.452,0.452,0.451,0.451,0.45,0.449,0.448,0.447,0.447,0.446,0.446,0.445,0.444,0.442,0.442,0.441,0.441,0.441,0.441,0.441,0.441,0.44,0.44,0.44,0.44,0.439,0.439,0.439,0.439,0.439,0.439,0.439,0.439,0.439,0.439,0.439,0.439,0.439,0.439,0.439,0.439,0.438,0.438,0.437,0.437,0.437,0.437,0.436,0.436,0.436,0.436,0.436,0.436,0.436,0.436,0.435,0.435,0.435,0.435,0.436,0.436,0.436,0.436,0.436,0.436,0.436,0.436,0.436,0.436,0.436,0.436,0.436,0.436,0.436,0.436,0.436,0.436,0.436,0.436,0.436,0.436,0.436,0.436,0.436,0.437,0.436,0.436,0.436,0.436,0.436,0.436,0.436,0.436,0.435,0.435,0.435,0.434,0.434,0.433,0.433,0.433,0.433,0.433,0.433,0.434,0.434,0.434,0.434,0.435,0.435,0.436,0.437,0.44,0.0,0.0,0.0,0.451,0.0,0.0,0.0,0.461,0.461,0.462,0.462,0.462,0.463,0.462,0.463,0.463,0.462,0.462,0.462,0.462,0.461,0.461,0.46,0.459,0.458,0.458,0.458,0.457,0.455,0.454,0.453,0.452,0.452,0.452,0.451,0.451,0.45,0.45,0.45,0.449,0.449,0.449,0.449,0.449,0.449,0.448,0.448,0.448,0.44725,0.446,0.446,0.446,0.445,0.445,0.444,0.443,0.443,0.443,0.442,0.442,0.442,0.442,0.441,0.441,0.441,0.441,0.441,0.441,0.441,0.441,0.44,0.44,0.44,0.439,0.438,0.437,0.436,0.436,0.436,0.435,0.435,0.432,0.431,0.431,0.43,0.43,0.429,0.428,0.427,0.426,0.425,0.425,0.425,0.424,0.424,0.423,0.422,0.422,0.422,0.421,0.421,0.421,0.421,0.421,0.421,0.42,0.42,0.42,0.42,0.419,0.418,0.418,0.417,0.417,0.417,0.416,0.416,0.416,0.415,0.415,0.415,0.415,0.414,0.414,0.413,0.412,0.412,0.411,0.411,0.411,0.41,0.41,0.409,0.409,0.408,0.408,0.407,0.407,0.406,0.406,0.0,0.0,0.0
4.851,4.851,4.83,4.83,4.81,4.83,0.0,0.0,0.0,0.0,2.301,2.296,2.287,2.283,2.256,2.252,2.243,2.234,2.23,2.222,2.217,2.217,2.217,2.217,2.217,2.217,2.217,2.217,2.217,2.217,2.217,2.217,2.217,2.217,2.217,2.217,2.217,2.217,2.217,2.217,2.217,0.0,0.0,0.0,0.0,0.0,0.0,0.0,0.0,3.317,3.298,3.317,3.317,3.326,3.326,3.336,3.355,3.355,3.365,3.394,3.404,3.414,3.434,3.444,3.454,3.465,3.475,3.496,3.506,3.528,3.549,3.56,3.593,3.615,3.627,3.649,3.649,3.649,3.649,3.627,3.627,3.627,3.615,3.582,3.56,3.56,3.538,3.528,0.0,0.0,0.0,0.0,0.0,0.0,0.0,0.0,0.0,0.0,0.0,0.0,0.0,0.0,0.0,0.0,0.707,0.707,0.707,0.706,0.706,0.706,0.706,0.706,0.706,0.707,0.707,0.707,0.707,0.707,0.707,0.707,0.706,0.706,0.706,0.706,0.706,0.705,0.704,0.703,0.702,0.7,0.699,0.699,0.697,0.695,0.694,0.694,0.693,0.692,0.691,0.688,0.686,0.684,0.683,0.682,0.681,0.68,0.68,0.679,0.679,0.678,0.677,0.676,0.672,0.671,0.67,0.669,0.668,0.668,0.667,0.667,0.666,0.665,0.663,0.662,0.661,0.658,0.658,0.657,0.656,0.656,0.655,0.655,0.654,0.653,0.653,0.651,0.65,0.649,0.647,0.645,0.645,0.644,0.644,0.643,0.643,0.642,0.641,0.64,0.64,0.638,0.636,0.635,0.634,0.633,0.633,0.631,0.629,0.628,0.626,0.624,0.623,0.623,0.622,0.622,0.622,0.621,0.621,0.62,0.62,0.619,0.617,0.616,0.615,0.613,0.612,0.611,0.611,0.61,0.608,0.607,0.606,0.604,0.603,0.602,0.601,0.601,0.601,0.6,0.599,0.598,0.597,0.596,0.595,0.594,0.594,0.593,0.592,0.592,0.591,0.589,0.587,0.585,0.584,0.582,0.582,0.581,0.58,0.578,0.0,0.0,0.0,0.0,0.0,0.0,0.471,0.471,0.47,0.47,0.469,0.469,0.469,0.468,0.468,0.468,0.467,0.466,0.466,0.465,0.464,0.464,0.464,0.463,0.463,0.463,0.462,0.461,0.461,0.46,0.46,0.459,0.459,0.459,0.458,0.458,0.458,0.458,0.458,0.458,0.457,0.457,0.457,0.457,0.456,0.456,0.456,0.455,0.455,0.455,0.455,0.455,0.455,0.455,0.454,0.454,0.454,0.453,0.453,0.453,0.452,0.452,0.452,0.452,0.451,0.451,0.45,0.449,0.448,0.447,0.446,0.446,0.445,0.444,0.443,0.442,0.442,0.441,0.441,0.441,0.441,0.441,0.44,0.44,0.44,0.44,0.439,0.439,0.439,0.439,0.439,0.439,0.44,0.44,0.44,0.44,0.44,0.44,0.44,0.44,0.44,0.44,0.439,0.439,0.439,0.438,0.438,0.438,0.437,0.437,0.436,0.436,0.436,0.436,0.436,0.436,0.436,0.436,0.436,0.436,0.436,0.436,0.436,0.436,0.436,0.436,0.436,0.436,0.436,0.436,0.436,0.436,0.436,0.436,0.436,0.436,0.436,0.436,0.437,0.437,0.437,0.437,0.437,0.437,0.438,0.438,0.438,0.438,0.438,0.438,0.437,0.437,0.437,0.436,0.436,0.436,0.436,0.435,0.435,0.435,0.434,0.434,0.434,0.434,0.434,0.434,0.435,0.435,0.435,0.435,0.436,0.437,0.44,0.441,0.0,0.0,0.0,0.452,0.457,0.459,0.46,0.46,0.4605,0.461,0.462,0.462,0.462,0.462,0.462,0.461,0.461,0.461,0.46,0.46,0.459,0.458,0.458,0.458,0.458,0.457,0.457,0.454,0.454,0.453,0.453,0.452,0.452,0.451,0.451,0.45,0.449,0.448,0.448,0.447,0.447,0.447,0.447,0.447,0.447,0.447,0.446,0.446,0.446,0.445,0.444,0.442,0.442,0.442,0.442,0.441,0.441,0.441,0.441,0.441,0.441,0.441,0.441,0.44,0.44,0.44,0.44,0.439,0.439,0.439,0.437,0.437,0.436,0.436,0.436,0.436,0.435,0.435,0.433,0.431,0.431,0.43,0.43,0.429,0.428,0.427,0.426,0.425,0.425,0.424,0.423,0.423,0.422,0.422,0.421,0.421,0.421,0.421,0.421,0.42,0.42,0.42,0.42,0.42,0.419,0.419,0.418,0.418,0.417,0.417,0.417,0.416,0.416,0.416,0.415,0.415,0.415,0.414,0.414,0.413,0.413,0.412,0.412,0.411,0.411,0.411,0.41,0.41,0.41,0.409,0.408,0.408,0.408,0.407,0.407,0.407,0.406,0.406,0.405,0.4045,0.0,0.0,0.0
4.851,4.851,4.83,4.83,4.83,0.0,0.0,0.0,0.0,2.287,2.287,2.287,2.287,2.283,2.269,2.252,2.243,2.239,2.234,2.226,2.222,2.217,2.217,2.217,2.217,2.217,2.217,2.217,2.217,2.217,2.217,2.217,2.217,2.217,2.217,2.217,2.217,2.217,2.217,2.217,2.217,2.217,2.217,0.0,0.0,0.0,0.0,0.0,0.0,0.0,0.0,3.298,3.317,3.326,3.326,3.326,3.355,3.355,3.365,3.384,3.404,3.414,3.434,3.444,3.454,3.465,3.475,3.485,3.496,3.517,3.538,3.56,3.593,3.615,3.615,3.627,3.627,3.649,3.627,3.627,3.627,3.615,3.615,3.582,3.582,0.0,0.0,0.0,0.0,0.0,0.0,0.0,0.0,0.0,0.0,0.0,0.0,0.0,0.0,0.0,0.0,0.0,0.0,0.706,0.706,0.706,0.706,0.706,0.706,0.706,0.706,0.706,0.706,0.706,0.706,0.706,0.706,0.706,0.706,0.705,0.705,0.704,0.702,0.701,0.7,0.699,0.698,0.698,0.696,0.695,0.694,0.694,0.693,0.693,0.692,0.691,0.69,0.687,0.685,0.683,0.681,0.68,0.68,0.679,0.679,0.678,0.676,0.675,0.674,0.672,0.67,0.669,0.668,0.668,0.667,0.667,0.666,0.664,0.662,0.662,0.66,0.658,0.657,0.657,0.656,0.656,0.655,0.655,0.654,0.654,0.653,0.652,0.65,0.648,0.647,0.646,0.645,0.644,0.643,0.643,0.642,0.641,0.64,0.64,0.639,0.638,0.636,0.635,0.634,0.634,0.633,0.632,0.63,0.629,0.627,0.625,0.624,0.622,0.622,0.621,0.621,0.62,0.62,0.619,0.618,0.616,0.616,0.615,0.614,0.614,0.613,0.612,0.612,0.611,0.611,0.609,0.608,0.606,0.602,0.602,0.601,0.601,0.601,0.6,0.599,0.598,0.597,0.596,0.595,0.594,0.593,0.592,0.592,0.592,0.592,0.591,0.59,0.588,0.586,0.585,0.584,0.582,0.582,0.581,0.58,0.579,0.577,0.574,0.573,0.0,0.0,0.0,0.0,0.0,0.0,0.471,0.47,0.47,0.47,0.469,0.469,0.468,0.468,0.468,0.467,0.467,0.466,0.466,0.465,0.464,0.464,0.464,0.463,0.463,0.463,0.463,0.462,0.462,0.461,0.461,0.46,0.46,0.46,0.459,0.459,0.458,0.458,0.458,0.458,0.458,0.458,0.457,0.457,0.457,0.457,0.457,0.456,0.456,0.456,0.456,0.456,0.456,0.455,0.455,0.455,0.455,0.454,0.453,0.453,0.453,0.452,0.452,0.452,0.451,0.451,0.449,0.448,0.448,0.447,0.446,0.446,0.445,0.444,0.443,0.442,0.442,0.441,0.441,0.441,0.441,0.441,0.44,0.44,0.44,0.44,0.439,0.439,0.439,0.439,0.44,0.44,0.44,0.44,0.44,0.44,0.441,0.441,0.441,0.441,0.441,0.44,0.44,0.44,0.44,0.439,0.439,0.438,0.438,0.437,0.437,0.437,0.437,0.436,0.436,0.436,0.436,0.436,0.436,0.436,0.4365,0.437,0.437,0.437,0.437,0.437,0.437,0.437,0.437,0.437,0.437,0.437,0.437,0.437,0.437,0.437,0.4375,0.438,0.438,0.438,0.438,0.438,0.439,0.439,0.439,0.439,0.439,0.439,0.439,0.439,0.439,0.439,0.438,0.437,0.437,0.436,0.436,0.436,0.435,0.435,0.435,0.434,0.435,0.435,0.435,0.435,0.435,0.436,0.436,0.436,0.439,0.441,0.44175,0.442,0.0,0.0,0.453,0.458,0.459,0.46,0.46,0.46037500000000003,0.461,0.461,0.461,0.461,0.46,0.46,0.46,0.459,0.459,0.458,0.458,0.458,0.457,0.457,0.457,0.456,0.454,0.453,0.453,0.452,0.452,0.452,0.451,0.451,0.45,0.449,0.448,0.447,0.447,0.447,0.446,0.446,0.446,0.446,0.446,0.446,0.445,0.445,0.444,0.443,0.442,0.441,0.441,0.441,0.441,0.441,0.441,0.441,0.441,0.44,0.44,0.44,0.439,0.439,0.438,0.438,0.437,0.436,0.436,0.436,0.436,0.435,0.435,0.435,0.434,0.433,0.432,0.432,0.431,0.43,0.43,0.429,0.428,0.427,0.426,0.426,0.425,0.424,0.424,0.423,0.422,0.421,0.421,0.421,0.421,0.42,0.42,0.42,0.42,0.419,0.419,0.419,0.418,0.418,0.417,0.417,0.417,0.417,0.416,0.416,0.416,0.416,0.415,0.415,0.414,0.414,0.413,0.413,0.412,0.412,0.411,0.411,0.411,0.411,0.411,0.409,0.409,0.409,0.408,0.408,0.407,0.407,0.407,0.407,0.406,0.406,0.406,0.404,0.404,0.404,0.403,0.0,0.0,0.0
4.871,4.851,4.851,4.83,0.0,0.0,0.0,0.0,0.0,2.283,2.283,2.287,2.283,2.283,2.269,2.256,2.252,2.243,2.234,2.23,2.222,2.222,2.222,2.217,2.217,2.217,2.217,2.217,2.217,2.217,2.217,2.217,2.217,2.217,2.217,2.217,2.213,2.217,2.217,2.217,2.217,2.217,2.213,2.217,2.213,0.0,0.0,0.0,0.0,0.0,0.0,0.0,3.317,3.317,3.326,3.336,3.336,3.355,3.365,3.384,3.394,3.414,3.424,3.444,3.454,3.465,3.465,3.485,3.496,3.517,3.528,3.549,3.56,3.582,3.615,3.615,3.627,3.627,3.627,3.615,3.627,3.615,3.615,3.593,0.0,0.0,0.0,0.0,0.0,0.0,0.0,0.0,0.0,0.0,0.0,0.0,0.0,0.0,0.0,0.0,0.0,0.0,0.0,0.705,0.705,0.705,0.705,0.705,0.705,0.705,0.704,0.704,0.704,0.704,0.704,0.704,0.703,0.703,0.702,0.702,0.7,0.699,0.697,0.696,0.695,0.695,0.694,0.693,0.693,0.693,0.692,0.692,0.691,0.69,0.689,0.686,0.684,0.682,0.682,0.68,0.68,0.679,0.678,0.676,0.675,0.673,0.671,0.669,0.669,0.668,0.668,0.667,0.666,0.665,0.663,0.662,0.66,0.658,0.657,0.656,0.655,0.655,0.655,0.655,0.654,0.654,0.653,0.651,0.65,0.648,0.648,0.646,0.645,0.644,0.643,0.642,0.641,0.64,0.639,0.638,0.637,0.636,0.636,0.635,0.635,0.635,0.634,0.634,0.633,0.632,0.629,0.627,0.624,0.623,0.622,0.621,0.62,0.618,0.617,0.615,0.615,0.614,0.614,0.613,0.613,0.612,0.612,0.612,0.612,0.611,0.611,0.611,0.61,0.609,0.607,0.605,0.603,0.601,0.601,0.599,0.598,0.597,0.597,0.595,0.594,0.594,0.593,0.592,0.592,0.592,0.591,0.591,0.59,0.59,0.588,0.587,0.585,0.584,0.583,0.582,0.582,0.581,0.58,0.578,0.577,0.576,0.574,0.573,0.573,0.0,0.0,0.0,0.0,0.0,0.0,0.0,0.47,0.47,0.47,0.469,0.469,0.469,0.469,0.468,0.468,0.468,0.467,0.467,0.466,0.465,0.465,0.464,0.464,0.464,0.463,0.463,0.463,0.463,0.463,0.462,0.462,0.461,0.461,0.461,0.461,0.46,0.459,0.459,0.459,0.458,0.458,0.458,0.458,0.458,0.457,0.457,0.457,0.457,0.457,0.457,0.457,0.457,0.456,0.456,0.456,0.456,0.455,0.455,0.454,0.453,0.453,0.453,0.452,0.452,0.451,0.45,0.449,0.448,0.447,0.447,0.446,0.446,0.445,0.444,0.444,0.442,0.442,0.442,0.441,0.441,0.441,0.441,0.44,0.44,0.44,0.44,0.439,0.439,0.44,0.44,0.44,0.44,0.441,0.441,0.441,0.441,0.441,0.441,0.441,0.441,0.441,0.441,0.441,0.44,0.44,0.44,0.439,0.439,0.439,0.438,0.438,0.438,0.438,0.437,0.437,0.437,0.437,0.437,0.437,0.437,0.438,0.438,0.438,0.438,0.438,0.438,0.438,0.438,0.438,0.438,0.438,0.438,0.438,0.439,0.439,0.439,0.44,0.44,0.44,0.44,0.44,0.44,0.44,0.44,0.44,0.44,0.44,0.44,0.44,0.44,0.441,0.441,0.44,0.438,0.438,0.4395,0.44,0.441,0.439,0.436,0.435,0.436,0.436,0.436,0.436,0.437,0.438,0.439,0.44,0.441,0.44225000000000003,0.443,0.446,0.0,0.0,0.452,0.455,0.4575,0.459,0.459,0.46,0.46,0.459,0.459,0.459,0.459,0.458,0.458,0.458,0.457,0.457,0.457,0.457,0.456,0.454,0.454,0.453,0.452,0.452,0.452,0.452,0.451,0.451,0.45,0.449,0.447,0.447,0.446,0.446,0.446,0.446,0.445,0.445,0.445,0.445,0.444,0.443,0.443,0.441,0.441,0.441,0.441,0.44,0.44,0.44,0.44,0.44,0.439,0.439,0.439,0.438,0.438,0.437,0.437,0.436,0.436,0.436,0.435,0.435,0.435,0.434,0.433,0.433,0.432,0.431,0.431,0.43,0.43,0.43,0.429,0.427,0.427,0.426,0.426,0.425,0.424,0.424,0.423,0.422,0.422,0.421,0.421,0.421,0.42,0.42,0.42,0.419,0.419,0.418,0.418,0.418,0.417,0.417,0.417,0.416,0.416,0.416,0.416,0.416,0.415,0.415,0.414,0.414,0.413,0.413,0.412,0.412,0.411,0.411,0.411,0.411,0.411,0.41,0.409,0.409,0.408,0.408,0.407,0.407,0.407,0.407,0.406,0.406,0.406,0.406,0.405,0.404,0.404,0.403,0.403,0.402,0.402,0.402,0.0,0.0
0.0,0.0,0.0,0.0,0.0,0.0,0.0,0.0,2.278,2.278,2.278,2.283,2.283,2.278,2.278,2.269,2.256,2.252,2.239,2.23,2.226,2.226,2.222,2.222,2.222,2.222,2.217,2.217,2.217,2.217,2.217,2.217,2.217,2.217,2.217,2.217,2.213,2.217,2.213,2.217,2.213,2.217,2.217,2.217,2.217,0.0,0.0,0.0,0.0,0.0,0.0,0.0,0.0,3.317,3.326,3.336,3.336,3.355,3.365,3.384,3.394,3.404,3.424,3.434,3.444,3.454,3.465,3.475,3.485,3.496,3.506,3.528,3.549,3.56,3.56,3.582,3.593,3.615,3.615,3.615,3.615,0.0,0.0,0.0,0.0,0.0,0.0,0.0,0.0,0.0,0.0,0.0,0.0,0.0,0.0,0.0,0.0,0.0,0.0,0.0,0.0,0.0,0.0,0.702,0.702,0.703,0.703,0.702,0.702,0.702,0.701,0.702,0.701,0.701,0.7,0.7,0.699,0.698,0.697,0.696,0.695,0.695,0.694,0.693,0.693,0.693,0.692,0.691,0.69,0.69,0.689,0.688,0.685,0.683,0.682,0.681,0.68,0.68,0.679,0.678,0.677,0.674,0.673,0.669,0.669,0.668,0.668,0.667,0.667,0.666,0.665,0.663,0.661,0.66,0.658,0.655,0.655,0.654,0.654,0.653,0.653,0.651,0.65,0.65,0.649,0.649,0.647,0.646,0.645,0.644,0.644,0.642,0.64,0.639,0.638,0.636,0.636,0.635,0.634,0.634,0.634,0.634,0.634,0.633,0.633,0.633,0.633,0.632,0.629,0.626,0.624,0.622,0.621,0.62,0.614,0.613,0.613,0.612,0.612,0.612,0.611,0.611,0.611,0.611,0.611,0.611,0.61,0.61,0.609,0.609,0.608,0.608,0.606,0.604,0.603,0.601,0.6,0.599,0.597,0.595,0.594,0.593,0.593,0.592,0.592,0.592,0.591,0.591,0.591,0.59,0.588,0.587,0.586,0.585,0.584,0.583,0.582,0.582,0.581,0.581,0.579,0.577,0.576,0.574,0.574,0.573,0.573,0.572,0.571,0.57,0.0,0.0,0.0,0.0,0.0,0.0,0.0,0.469,0.469,0.469,0.469,0.469,0.469,0.469,0.469,0.468,0.468,0.468,0.467,0.467,0.466,0.465,0.465,0.464,0.464,0.464,0.464,0.463,0.463,0.463,0.463,0.463,0.462,0.462,0.462,0.461,0.461,0.46,0.46,0.459,0.459,0.458,0.458,0.458,0.458,0.458,0.458,0.458,0.457,0.457,0.457,0.457,0.457,0.457,0.457,0.457,0.456,0.456,0.455,0.455,0.454,0.453,0.452,0.452,0.452,0.451,0.451,0.449,0.448,0.447,0.447,0.446,0.446,0.445,0.444,0.444,0.442,0.442,0.442,0.441,0.441,0.441,0.441,0.44,0.44,0.44,0.44,0.44,0.44,0.44,0.441,0.441,0.441,0.441,0.441,0.441,0.441,0.441,0.441,0.441,0.441,0.441,0.441,0.441,0.441,0.441,0.441,0.44,0.44,0.44,0.44,0.439,0.439,0.439,0.438,0.438,0.438,0.438,0.438,0.439,0.439,0.439,0.439,0.439,0.439,0.439,0.44,0.44,0.44,0.44,0.44,0.44,0.44,0.44,0.44,0.441,0.441,0.441,0.441,0.441,0.441,0.441,0.441,0.441,0.441,0.441,0.441,0.441,0.441,0.441,0.442,0.442,0.442,0.443,0.443,0.444,0.444,0.444,0.0,0.4415,0.437,0.437,0.437,0.438,0.439,0.44,0.44075000000000003,0.441,0.441,0.442,0.444,0.446,0.447,0.0,0.0,0.452,0.453,0.457,0.458,0.458,0.458,0.458,0.458,0.458,0.458,0.458,0.457,0.457,0.457,0.456,0.455,0.454,0.453,0.453,0.452,0.452,0.452,0.452,0.451,0.451,0.45,0.449,0.448,0.448,0.447,0.446,0.446,0.446,0.446,0.445,0.444,0.443,0.443,0.442,0.442,0.442,0.441,0.441,0.441,0.44,0.439,0.438,0.438,0.438,0.438,0.437,0.437,0.437,0.437,0.436,0.436,0.436,0.436,0.436,0.435,0.435,0.434,0.433,0.432,0.432,0.431,0.431,0.431,0.43,0.429,0.429,0.428,0.427,0.427,0.426,0.425,0.425,0.425,0.424,0.423,0.422,0.421,0.421,0.421,0.421,0.42,0.42,0.42,0.419,0.419,0.418,0.418,0.418,0.417,0.417,0.417,0.416,0.416,0.416,0.416,0.415,0.415,0.415,0.414,0.413,0.413,0.412,0.412,0.411,0.411,0.411,0.411,0.411,0.41,0.41,0.409,0.408,0.408,0.407,0.407,0.407,0.406,0.406,0.406,0.406,0.406,0.405,0.405,0.404,0.403,0.403,0.402,0.0,0.402,0.402,0.402,0.401,0.401,0.0,0.0
0.0,0.0,0.0,0.0,0.0,0.0,0.0,0.0,2.265,2.256,2.269,2.269,2.269,2.269,2.265,2.256,2.252,2.243,2.239,2.234,2.23,2.226,2.222,2.222,2.222,2.222,2.222,2.217,2.217,2.217,2.217,2.217,2.217,2.217,2.217,2.217,2.217,2.213,2.213,2.213,2.213,2.217,2.217,2.213,2.217,2.217,0.0,0.0,0.0,0.0,0.0,0.0,0.0,3.3265000000000002,3.326,3.336,3.355,3.355,3.365,3.365,3.384,3.394,3.404,3.414,3.434,3.444,3.454,3.454,3.465,3.485,3.496,3.496,3.517,3.538,3.549,3.549,3.56,3.582,3.582,3.593,3.593,0.0,0.0,0.0,0.0,0.0,0.0,0.0,0.0,0.0,0.0,0.0,0.0,0.0,0.0,0.0,0.0,0.0,0.0,0.0,0.698,0.696,0.698,0.699,0.699,0.699,0.7,0.7,0.699,0.699,0.699,0.698,0.698,0.696,0.696,0.695,0.695,0.694,0.694,0.693,0.693,0.693,0.692,0.692,0.691,0.69,0.689,0.688,0.687,0.684,0.683,0.682,0.681,0.68,0.68,0.679,0.678,0.676,0.674,0.673,0.669,0.668,0.668,0.667,0.667,0.666,0.665,0.663,0.662,0.661,0.658,0.657,0.656,0.654,0.653,0.651,0.65,0.648,0.648,0.647,0.647,0.646,0.646,0.646,0.645,0.645,0.644,0.644,0.642,0.64,0.639,0.636,0.635,0.634,0.633,0.633,0.633,0.633,0.632,0.632,0.632,0.632,0.632,0.632,0.632,0.631,0.629,0.627,0.62475,0.622,0.621,0.619,0.613,0.612,0.611,0.611,0.61,0.61,0.609,0.609,0.609,0.609,0.609,0.608,0.608,0.608,0.608,0.607,0.606,0.604,0.603,0.603,0.601,0.6,0.599,0.598,0.596,0.594,0.593,0.592,0.592,0.591,0.591,0.591,0.59,0.589,0.588,0.587,0.586,0.585,0.584,0.584,0.583,0.583,0.582,0.582,0.581,0.58,0.578,0.577,0.574,0.573,0.573,0.573,0.573,0.572,0.571,0.571,0.569,0.566,0.0,0.0,0.0,0.0,0.0,0.0,0.0,0.0,0.469,0.469,0.469,0.469,0.469,0.469,0.469,0.469,0.469,0.468,0.468,0.468,0.467,0.467,0.466,0.465,0.465,0.465,0.464,0.464,0.464,0.464,0.463,0.463,0.463,0.463,0.463,0.463,0.462,0.461,0.461,0.461,0.46,0.46,0.459,0.459,0.458,0.458,0.458,0.458,0.458,0.458,0.458,0.458,0.458,0.458,0.457,0.457,0.457,0.457,0.456,0.455,0.455,0.454,0.453,0.452,0.452,0.452,0.451,0.451,0.449,0.448,0.448,0.447,0.446,0.446,0.446,0.444,0.444,0.443,0.442,0.441,0.441,0.441,0.441,0.441,0.441,0.44,0.44,0.44,0.44,0.441,0.441,0.441,0.441,0.441,0.441,0.442,0.442,0.442,0.442,0.442,0.442,0.442,0.441,0.441,0.441,0.441,0.441,0.441,0.441,0.441,0.44,0.44,0.44,0.44,0.44,0.439,0.44,0.44,0.44,0.44,0.44,0.44,0.44,0.44,0.44,0.44,0.441,0.441,0.441,0.441,0.441,0.441,0.441,0.441,0.441,0.441,0.441,0.441,0.441,0.441,0.441,0.442,0.442,0.442,0.442,0.442,0.443,0.443,0.444,0.444,0.445,0.445,0.446,0.446,0.447,0.447,0.447,0.447,0.447,0.447,0.447,0.447,0.4465,0.445375,0.441,0.443,0.444,0.443,0.443,0.444,0.446,0.447,0.449,0.45,0.451,0.452,0.454,0.456,0.457,0.458,0.458,0.458,0.457,0.457,0.457,0.457,0.456,0.455,0.454,0.453,0.452,0.452,0.452,0.452,0.451,0.451,0.451,0.45,0.449,0.4485,0.447,0.447,0.447,0.446,0.446,0.446,0.445,0.444,0.444,0.443,0.442,0.442,0.441,0.441,0.441,0.44,0.44,0.439,0.438,0.437,0.437,0.436,0.436,0.436,0.436,0.436,0.436,0.436,0.436,0.436,0.435,0.435,0.435,0.434,0.433,0.432,0.432,0.431,0.431,0.431,0.43,0.429,0.428,0.4275,0.427,0.426,0.426,0.425,0.425,0.425,0.424,0.423,0.422,0.422,0.421,0.421,0.421,0.42,0.42,0.42,0.419,0.419,0.418,0.418,0.418,0.417,0.417,0.417,0.416,0.416,0.416,0.416,0.415,0.415,0.415,0.414,0.413,0.412,0.412,0.411,0.411,0.411,0.411,0.411,0.41,0.41,0.409,0.408,0.408,0.407,0.407,0.407,0.407,0.406,0.406,0.406,0.406,0.405,0.405,0.404,0.403,0.403,0.402,0.402,0.402,0.402,0.402,0.4015,0.401,0.4,0.4,0.4,0.4,0.0,0.0
0.0,0.0,0.0,0.0,0.0,0.0,0.0,0.0,2.252,2.252,2.256,2.269,2.269,2.265,2.256,2.256,2.256,2.252,2.243,2.239,2.23,2.23,2.226,2.226,2.222,2.222,2.222,2.222,2.217,2.217,2.217,2.217,2.217,2.217,2.217,2.217,2.217,2.217,2.217,2.217,2.213,2.213,2.213,2.217,2.217,2.217,0.0,0.0,0.0,0.0,0.0,0.0,0.0,3.336,3.336,3.355,3.355,3.355,3.355,3.365,3.384,3.384,3.394,3.404,3.414,3.424,3.434,3.444,3.454,3.465,3.475,3.485,3.496,3.496,3.517,3.528,3.538,3.549,3.56,0.0,0.0,0.0,0.0,0.0,0.0,0.0,0.0,0.0,0.0,0.0,0.0,0.0,0.0,0.0,0.0,0.0,0.0,0.0,0.0,0.0,0.693,0.694,0.695,0.695,0.696,0.696,0.696,0.696,0.696,0.695,0.695,0.694,0.694,0.694,0.693,0.693,0.693,0.693,0.692,0.692,0.691,0.69,0.69,0.688,0.687,0.686,0.685,0.682,0.681,0.68,0.68,0.679,0.678,0.677,0.674,0.672,0.671,0.669,0.668,0.667,0.666,0.665,0.664,0.663,0.661,0.66,0.658,0.657,0.656,0.655,0.654,0.652,0.65,0.648,0.647,0.646,0.645,0.645,0.644,0.644,0.644,0.644,0.644,0.644,0.643,0.641,0.64,0.638,0.636,0.635,0.633,0.633,0.632,0.631,0.631,0.631,0.63,0.63,0.629,0.629,0.629,0.63,0.629,0.629,0.627,0.625,0.623,0.622,0.621,0.618,0.613,0.611,0.611,0.61,0.609,0.608,0.607,0.606,0.605,0.605,0.605,0.605,0.605,0.604,0.603,0.603,0.603,0.602,0.602,0.601,0.6,0.599,0.598,0.596,0.594,0.593,0.592,0.592,0.591,0.591,0.59,0.589,0.587,0.586,0.585,0.584,0.584,0.583,0.583,0.582,0.582,0.582,0.581,0.581,0.58,0.578,0.576,0.574,0.574,0.573,0.573,0.572,0.572,0.571,0.571,0.57,0.569,0.568,0.566,0.565,0.564,0.563,0.561,0.0,0.0,0.0,0.0,0.0,0.0,0.0,0.469,0.0,0.0,0.0,0.469,0.469,0.469,0.469,0.469,0.468,0.468,0.468,0.467,0.467,0.466,0.466,0.465,0.465,0.465,0.464,0.464,0.464,0.464,0.463,0.463,0.463,0.463,0.462,0.462,0.462,0.461,0.461,0.461,0.46,0.46,0.46,0.459,0.459,0.459,0.458,0.458,0.458,0.458,0.458,0.458,0.458,0.458,0.457,0.457,0.457,0.456,0.455,0.454,0.453,0.453,0.452,0.452,0.452,0.451,0.45,0.449,0.448,0.447,0.447,0.446,0.446,0.445,0.444,0.443,0.442,0.441,0.441,0.441,0.441,0.441,0.441,0.441,0.441,0.441,0.441,0.441,0.442,0.442,0.442,0.442,0.443,0.443,0.443,0.443,0.443,0.443,0.442,0.442,0.442,0.442,0.442,0.442,0.442,0.441,0.441,0.441,0.441,0.441,0.441,0.441,0.441,0.441,0.441,0.441,0.441,0.441,0.441,0.441,0.441,0.441,0.441,0.441,0.441,0.441,0.442,0.442,0.442,0.442,0.442,0.442,0.442,0.443,0.443,0.443,0.443,0.443,0.444,0.444,0.444,0.445,0.445,0.446,0.446,0.446,0.446,0.447,0.447,0.44775,0.448,0.448,0.45,0.451,0.453,0.454,0.454,0.457,0.457,0.456,0.456,0.447,0.4455,0.446,0.4455,0.446,0.446,0.4475,0.449,0.45,0.451,0.452,0.452,0.453,0.455,0.457,0.457,0.457,0.457,0.456,0.456,0.455,0.454,0.454,0.452,0.452,0.452,0.451,0.451,0.451,0.45,0.449,0.449,0.448,0.448,0.447,0.447,0.446,0.446,0.445,0.445,0.444,0.444,0.443,0.442,0.442,0.442,0.441,0.441,0.441,0.44,0.439,0.438,0.437,0.437,0.436,0.436,0.436,0.435,0.435,0.435,0.435,0.435,0.434,0.434,0.434,0.433,0.433,0.432,0.432,0.432,0.431,0.431,0.43,0.43,0.429,0.427,0.427,0.426,0.426,0.425625,0.425,0.425,0.425,0.424,0.424,0.422,0.422,0.421,0.421,0.421,0.42,0.42,0.42,0.419,0.418,0.418,0.418,0.417,0.417,0.417,0.417,0.417,0.416,0.416,0.416,0.416,0.415,0.415,0.414,0.414,0.413,0.412,0.411,0.411,0.411,0.41,0.41,0.41,0.409,0.408,0.408,0.407,0.407,0.407,0.406,0.406,0.406,0.406,0.406,0.405,0.405,0.404,0.404,0.403,0.403,0.4025,0.402,0.402,0.402,0.401,0.401,0.4,0.4,0.399,0.399,0.398,0.398,0.398,0.0,0.0,0.0
0.0,0.0,0.0,0.0,0.0,0.0,0.0,0.0,2.239,2.239,2.252,2.265,2.265,2.265,2.256,2.265,2.265,2.265,2.252,2.243,2.234,2.234,2.234,2.23,2.23,2.226,2.226,2.222,2.222,2.222,2.222,2.217,2.217,2.217,2.217,2.217,2.217,2.217,2.217,2.217,2.217,2.217,2.217,2.217,2.217,2.217,0.0,0.0,0.0,0.0,0.0,0.0,0.0,3.355,3.355,3.355,3.355,3.355,3.365,3.365,3.365,3.384,3.384,3.394,3.404,3.404,3.414,3.424,3.444,3.444,3.454,3.465,3.485,3.485,3.496,3.506,3.517,3.528,0.0,0.0,0.0,0.0,0.0,0.0,0.0,0.0,0.0,0.0,0.0,0.0,0.0,0.0,0.0,0.0,0.0,0.0,0.0,0.0,0.0,0.692,0.692,0.693,0.693,0.693,0.693,0.694,0.693,0.693,0.693,0.693,0.693,0.693,0.693,0.692,0.692,0.691,0.691,0.69,0.689,0.688,0.688,0.686,0.685,0.684,0.682,0.681,0.68,0.68,0.679,0.678,0.675,0.673,0.671,0.67,0.669,0.668,0.666,0.665,0.664,0.662,0.66,0.659,0.658,0.657,0.656,0.655,0.655,0.654,0.651,0.65,0.647,0.646,0.645,0.645,0.644,0.644,0.644,0.643,0.643,0.643,0.642,0.642,0.64,0.639,0.638,0.636,0.635,0.634,0.633,0.632,0.631,0.629,0.629,0.628,0.626,0.626,0.626,0.625,0.625,0.624,0.624,0.624,0.623,0.623,0.622,0.621,0.62,0.617,0.612,0.611,0.61,0.608,0.607,0.606,0.604,0.603,0.603,0.603,0.603,0.602,0.602,0.602,0.602,0.601,0.601,0.6,0.6,0.599,0.598,0.597,0.595,0.594,0.593,0.592,0.592,0.591,0.59,0.589,0.588,0.586,0.586,0.584,0.584,0.583,0.582,0.582,0.582,0.582,0.581,0.581,0.579,0.579,0.577,0.576,0.575,0.573,0.573,0.573,0.572,0.572,0.571,0.571,0.57,0.569,0.568,0.568,0.566,0.566,0.565,0.564,0.563,0.559,0.557,0.556,0.555,0.554,0.0,0.0,0.0,0.0,0.0,0.0,0.0,0.0,0.47,0.47,0.47,0.47,0.47,0.469,0.469,0.468,0.468,0.467,0.467,0.466,0.466,0.466,0.465,0.465,0.465,0.464,0.464,0.464,0.464,0.463,0.463,0.463,0.463,0.463,0.462,0.462,0.462,0.461,0.461,0.461,0.461,0.46,0.46,0.46,0.46,0.46,0.459,0.459,0.459,0.458,0.458,0.458,0.458,0.457,0.457,0.456,0.455,0.455,0.454,0.453,0.453,0.452,0.452,0.451,0.451,0.449,0.448,0.447,0.447,0.446,0.446,0.445,0.444,0.442,0.442,0.441,0.441,0.441,0.441,0.441,0.441,0.441,0.441,0.441,0.442,0.443,0.443,0.443,0.4435,0.444,0.444,0.444,0.444,0.444,0.444,0.444,0.444,0.444,0.443,0.443,0.443,0.443,0.442,0.442,0.442,0.442,0.442,0.441,0.441,0.441,0.441,0.441,0.441,0.441,0.442,0.442,0.442,0.442,0.442,0.442,0.443,0.443,0.443,0.443,0.443,0.444,0.444,0.444,0.444,0.445,0.445,0.445,0.445,0.446,0.446,0.446,0.446,0.446,0.446,0.446,0.44675000000000004,0.447,0.4475,0.448,0.448,0.449,0.45,0.451,0.451,0.452,0.453,0.454,0.455,0.457,0.456,0.457,0.456,0.455,0.453,0.448,0.448,0.447,0.447,0.448,0.449,0.45,0.451,0.451,0.452,0.452,0.453,0.454,0.455,0.455,0.455,0.455,0.454,0.453,0.452,0.452,0.452,0.451,0.451,0.449,0.449,0.449,0.448,0.447,0.447,0.447,0.447,0.446,0.446,0.445,0.445,0.444,0.443,0.443,0.442,0.442,0.442,0.441,0.441,0.441,0.441,0.44,0.439,0.438,0.437,0.436,0.43574999999999997,0.436,0.435,0.435,0.433,0.433,0.433,0.433,0.432,0.432,0.432,0.431,0.431,0.431,0.431,0.431,0.431,0.43,0.43,0.43,0.428,0.427,0.426,0.426,0.425,0.425,0.425,0.424,0.424,0.423,0.422,0.422,0.422,0.421,0.421,0.421,0.42,0.42,0.419,0.419,0.418,0.417,0.417,0.417,0.416,0.416,0.416,0.416,0.416,0.416,0.416,0.416,0.415,0.415,0.414,0.414,0.412,0.412,0.411,0.411,0.41,0.41,0.409,0.408,0.408,0.407,0.407,0.407,0.406,0.406,0.406,0.405,0.405,0.405,0.404,0.404,0.404,0.404,0.403,0.402,0.402,0.402,0.402,0.401125,0.401,0.4,0.399,0.399,0.399,0.398,0.398,0.398,0.397,0.397,0.397,0.397,0.0,0.0,0.0
0.0,0.0,0.0,0.0,0.0,0.0,0.0,0.0,2.23,2.239,2.2464999999999997,2.252,2.265,2.265,2.265,2.265,2.269,2.269,2.265,2.252,2.243,2.239,2.239,2.234,2.234,2.23,2.23,2.226,2.226,2.222,2.222,2.222,2.222,2.217,2.217,2.217,2.217,2.217,2.217,2.217,2.217,2.217,2.217,2.217,2.217,2.217,0.0,0.0,0.0,0.0,0.0,0.0,3.365,3.355,3.355,3.355,3.365,3.365,3.365,3.365,3.365,3.365,3.365,3.365,3.384,3.394,3.394,3.404,3.414,3.434,3.444,3.454,3.465,3.465,3.475,3.485,3.496,3.517,0.0,0.0,0.0,0.0,0.0,0.0,0.0,0.0,0.0,0.0,0.0,0.0,0.0,0.0,0.0,0.0,0.0,0.0,0.0,0.687,0.688,0.68925,0.69,0.691,0.691,0.692,0.692,0.692,0.692,0.692,0.692,0.691,0.691,0.69,0.69,0.69,0.689,0.688,0.687,0.687,0.686,0.684,0.683,0.682,0.682,0.68,0.68,0.678,0.677,0.676,0.673,0.671,0.669,0.669,0.668,0.665,0.664,0.662,0.661,0.659,0.658,0.657,0.656,0.655,0.655,0.654,0.651,0.65,0.649,0.647,0.646,0.645,0.644,0.644,0.643,0.642,0.642,0.641,0.64,0.64,0.64,0.639,0.638,0.638,0.635,0.635,0.634,0.633,0.632,0.632,0.63,0.628,0.625,0.624,0.623,0.623,0.623,0.622,0.622,0.622,0.622,0.622,0.622,0.621,0.621,0.62,0.618,0.616,0.612,0.0,0.608,0.608,0.605,0.603,0.603,0.602,0.602,0.602,0.601,0.601,0.601,0.601,0.601,0.6,0.599,0.598,0.597,0.596,0.595,0.594,0.593,0.592,0.592,0.591,0.591,0.59,0.589,0.586,0.586,0.584,0.584,0.583,0.583,0.582,0.582,0.581,0.581,0.581,0.581,0.58,0.579,0.578,0.576,0.575,0.573,0.573,0.572,0.571,0.571,0.57,0.57,0.569,0.568,0.567,0.566,0.566,0.566,0.565,0.565,0.564,0.564,0.562,0.559,0.557,0.556,0.555,0.554,0.553,0.551,0.549,0.548,0.547,0.0,0.0,0.0,0.0,0.0,0.47,0.47,0.47,0.47,0.47,0.469,0.469,0.468,0.468,0.468,0.468,0.467,0.467,0.466,0.466,0.465,0.465,0.465,0.464,0.464,0.464,0.463,0.463,0.463,0.463,0.463,0.463,0.462,0.462,0.462,0.462,0.462,0.462,0.462,0.461,0.461,0.461,0.461,0.46,0.46,0.46,0.459,0.458,0.458,0.458,0.457,0.457,0.456,0.456,0.455,0.454,0.454,0.453,0.453,0.452,0.452,0.451,0.45,0.449,0.448,0.447,0.446,0.446,0.446,0.444,0.442,0.442,0.441,0.441,0.441,0.441,0.441,0.441,0.442,0.442,0.443,0.44375,0.444,0.444,0.445,0.445,0.445,0.446,0.446,0.446,0.445,0.445,0.445,0.445,0.445,0.445,0.444,0.444,0.444,0.443,0.443,0.443,0.443,0.443,0.443,0.442,0.443,0.443,0.443,0.443,0.443,0.443,0.443,0.443,0.444,0.444,0.444,0.445,0.445,0.445,0.445,0.446,0.446,0.446,0.446,0.446,0.446,0.446,0.446,0.44675000000000004,0.447,0.447,0.447,0.447,0.447,0.448,0.448,0.448,0.449,0.45,0.451,0.45125,0.452,0.452,0.453,0.455,0.456,0.456,0.456,0.456,0.457,0.457,0.456,0.455,0.453,0.452,0.451,0.451,0.449,0.44975,0.45,0.451,0.451,0.452,0.452,0.452,0.452,0.453,0.453,0.453,0.453,0.452,0.452,0.452,0.451,0.45,0.45,0.448,0.448,0.447,0.447,0.447,0.447,0.446,0.446,0.446,0.445,0.445,0.444,0.443,0.442,0.442,0.442,0.441,0.441,0.441,0.441,0.44,0.439,0.438,0.437,0.437,0.436,0.436,0.436,0.4345,0.434,0.432,0.432,0.432,0.431,0.431,0.431,0.431,0.0,0.0,0.43,0.43,0.43,0.43,0.43,0.43,0.429,0.429,0.427,0.426,0.426,0.425,0.425,0.425,0.424,0.424,0.423,0.423,0.422,0.421,0.421,0.421,0.421,0.421,0.42,0.42,0.419,0.418,0.417,0.417,0.416,0.416,0.416,0.416,0.416,0.416,0.416,0.416,0.415,0.415,0.415,0.415,0.415,0.414,0.412,0.411,0.411,0.411,0.41,0.409,0.408,0.408,0.407,0.407,0.406,0.406,0.406,0.405,0.405,0.405,0.404,0.404,0.403,0.403,0.403,0.402,0.402,0.402,0.402,0.402,0.401,0.401,0.4,0.399,0.399,0.398,0.398,0.398,0.397,0.397,0.397,0.396,0.396,0.396,0.396,0.396,0.0,0.0,0.0
0.0,0.0,0.0,0.0,0.0,0.0,0.0,0.0,2.217,2.23,2.243,2.25075,2.256,2.256,2.265,2.265,2.278,2.278,2.278,2.269,2.256,2.256,2.252,2.243,2.239,2.239,2.234,2.23,2.226,2.226,2.226,2.222,2.222,2.222,2.222,2.222,2.217,2.217,2.217,2.217,2.217,2.217,2.217,2.217,2.217,2.222,0.0,0.0,0.0,0.0,0.0,0.0,3.365,3.365,3.365,3.365,3.365,3.365,3.355,3.365,3.365,3.365,3.365,3.365,3.365,3.365,3.384,3.384,3.394,3.404,3.414,3.434,3.444,3.454,3.465,3.475,3.496,3.506,0.0,0.0,0.0,0.0,0.0,0.0,0.0,0.0,0.0,0.0,0.0,0.0,0.0,0.0,0.0,0.0,0.0,0.682,0.683,0.684,0.686,0.687,0.688,0.689,0.688,0.69,0.689,0.689,0.689,0.688,0.688,0.688,0.687,0.687,0.686,0.686,0.684,0.684,0.683,0.683,0.682,0.681,0.68,0.679,0.678,0.677,0.675,0.673,0.671,0.67,0.669,0.668,0.667,0.664,0.662,0.659,0.658,0.657,0.656,0.655,0.655,0.654,0.653,0.65,0.649,0.647,0.646,0.645,0.644,0.644,0.643,0.642,0.641,0.64,0.64,0.639,0.637,0.637,0.636,0.635,0.635,0.635,0.634,0.633,0.633,0.632,0.631,0.629,0.627,0.624,0.623,0.622,0.622,0.622,0.621,0.621,0.621,0.621,0.621,0.62,0.62,0.619,0.618,0.617,0.615,0.614,0.611,0.61,0.6074999999999999,0.60575,0.604,0.603,0.602,0.601,0.601,0.601,0.601,0.6,0.6,0.6,0.598,0.597,0.597,0.596,0.594,0.593,0.592,0.592,0.592,0.591,0.591,0.59,0.589,0.588,0.586,0.584,0.584,0.583,0.583,0.582,0.582,0.582,0.581,0.581,0.58,0.579,0.578,0.577,0.577,0.576,0.575,0.573,0.573,0.572,0.571,0.57,0.569,0.568,0.566,0.566,0.566,0.566,0.565,0.565,0.565,0.564,0.564,0.563,0.563,0.56,0.558,0.557,0.556,0.555,0.555,0.554,0.552,0.55,0.549,0.547,0.547,0.5455000000000001,0.0,0.0,0.0,0.0,0.0,0.47,0.47,0.47,0.47,0.47,0.469,0.469,0.469,0.469,0.468,0.468,0.468,0.467,0.467,0.466,0.466,0.465,0.465,0.464,0.464,0.464,0.463,0.463,0.463,0.463,0.463,0.463,0.463,0.463,0.463,0.463,0.463,0.463,0.463,0.463,0.462,0.462,0.462,0.462,0.462,0.461,0.46,0.46,0.459,0.458,0.458,0.458,0.457,0.457,0.456,0.456,0.455,0.455,0.454,0.453,0.453,0.452,0.452,0.451,0.449,0.448,0.447,0.447,0.446,0.445,0.444,0.442,0.442,0.442,0.442,0.442,0.442,0.442,0.443,0.4435,0.444,0.445,0.446,0.446,0.446,0.446,0.446,0.446,0.446,0.446,0.446,0.446,0.446,0.446,0.446,0.446,0.446,0.446,0.446,0.445,0.445,0.445,0.445,0.445,0.445,0.444,0.4445,0.445,0.445,0.445,0.445,0.445,0.445,0.445,0.445,0.446,0.446,0.446,0.446,0.446,0.446,0.447,0.447,0.447,0.447,0.447,0.447,0.447,0.448,0.448,0.448,0.448,0.448,0.449,0.449,0.449,0.45,0.451,0.451,0.452,0.452,0.453,0.453,0.454,0.455,0.456,0.457,0.457,0.457,0.457,0.457,0.457,0.456,0.455,0.454,0.453,0.452,0.452,0.452,0.452,0.452,0.452,0.452,0.452,0.452,0.452,0.452,0.452,0.452,0.452,0.451,0.451,0.45,0.449,0.448,0.447,0.447,0.447,0.446,0.446,0.446,0.446,0.445,0.445,0.444,0.444,0.443,0.442,0.442,0.441,0.441,0.441,0.441,0.441,0.44,0.439,0.438,0.437,0.436,0.436,0.436,0.436,0.435,0.434,0.434,0.432,0.431,0.431,0.431,0.431,0.43,0.43,0.43,0.43,0.0,0.0,0.428,0.428,0.428,0.427,0.427,0.426,0.426,0.426,0.425,0.425,0.425,0.424,0.424,0.423,0.422,0.421,0.421,0.421,0.421,0.421,0.42,0.42,0.42,0.42,0.419,0.418,0.418,0.416,0.416,0.416,0.415,0.415,0.415,0.415,0.415,0.415,0.415,0.415,0.414,0.414,0.414,0.413,0.412,0.411,0.411,0.41,0.41,0.409,0.408,0.407,0.407,0.406,0.406,0.406,0.405,0.404,0.404,0.404,0.403,0.403,0.403,0.402,0.402,0.402,0.402,0.401,0.401,0.401,0.401,0.4,0.4,0.399,0.398,0.398,0.398,0.397,0.397,0.396,0.396,0.395,0.395,0.394,0.394,0.394,0.394,0.394,0.0,0.0,0.0
0.0,0.0,0.0,0.0,0.0,0.0,0.0,0.0,0.0,0.0,2.239,2.252,2.25725,2.265,2.269,2.269,2.283,2.287,2.287,2.278,2.269,2.265,2.256,2.256,2.252,2.243,2.239,2.234,2.234,2.23,2.23,2.226,2.226,2.222,2.222,2.222,2.222,2.222,2.222,2.222,2.222,2.222,2.222,2.23,2.23,2.226,0.0,0.0,0.0,0.0,0.0,0.0,3.365,3.365,3.365,3.365,3.365,3.365,3.365,3.365,3.355,3.355,3.355,3.355,3.355,3.355,3.355,3.365,3.384,3.394,3.404,3.424,3.4314999999999998,3.444,3.454,3.465,0.0,0.0,0.0,0.0,0.0,0.0,0.0,0.0,0.0,0.0,0.0,0.0,0.0,0.0,0.0,0.0,0.0,0.0,0.68,0.681,0.681,0.682,0.682,0.683,0.683,0.684,0.685,0.685,0.685,0.685,0.685,0.684,0.684,0.684,0.683,0.683,0.683,0.682,0.682,0.681,0.681,0.68,0.68,0.678,0.677,0.675,0.673,0.671,0.669,0.668,0.668,0.667,0.666,0.662,0.66,0.658,0.657,0.655,0.655,0.654,0.653,0.651,0.648,0.646,0.646,0.645,0.644,0.644,0.644,0.643,0.642,0.64,0.639,0.638,0.635,0.635,0.634,0.634,0.634,0.634,0.633,0.633,0.633,0.632,0.632,0.631,0.629,0.628,0.626,0.623,0.622,0.621,0.621,0.62,0.62,0.619,0.618,0.618,0.618,0.618,0.617,0.616,0.615,0.614,0.613,0.611,0.611,0.609,0.608,0.605,0.603,0.602,0.602,0.601,0.601,0.6,0.599,0.598,0.598,0.597,0.596,0.595,0.594,0.593,0.593,0.592,0.592,0.591,0.59,0.589,0.588,0.587,0.585,0.584,0.583,0.583,0.582,0.582,0.582,0.581,0.581,0.581,0.58,0.58,0.579,0.578,0.577,0.576,0.575,0.575,0.573,0.573,0.572,0.571,0.57,0.569,0.567,0.565,0.565,0.565,0.564,0.564,0.564,0.564,0.563,0.563,0.563,0.56,0.559,0.558,0.557,0.556,0.556,0.555,0.555,0.554,0.554,0.551,0.55,0.548,0.547,0.547,0.546,0.544,0.543,0.542,0.541,0.5405,0.54,0.539,0.539,0.0,0.0,0.0,0.0,0.0,0.469,0.469,0.469,0.469,0.468,0.468,0.467,0.467,0.466,0.466,0.465,0.465,0.464,0.464,0.464,0.463,0.463,0.463,0.463,0.463,0.463,0.463,0.463,0.463,0.463,0.463,0.463,0.463,0.463,0.463,0.463,0.463,0.463,0.462,0.462,0.461,0.46,0.459,0.459,0.458,0.458,0.457,0.457,0.457,0.457,0.456,0.456,0.455,0.454,0.453,0.453,0.452,0.451,0.45,0.448,0.448,0.447,0.446,0.446,0.444,0.444,0.443,0.443,0.443,0.44375,0.444,0.444,0.445,0.446,0.446,0.446,0.446,0.447,0.447,0.447,0.447,0.447,0.447,0.447,0.447,0.447,0.447,0.447,0.446,0.446,0.446,0.446,0.446,0.446,0.446,0.446,0.446,0.446,0.446,0.446,0.446,0.446,0.446,0.446,0.446,0.446,0.446,0.446,0.447,0.447,0.447,0.447,0.447,0.448,0.448,0.448,0.449,0.449,0.449,0.449,0.449,0.45,0.45,0.45,0.45,0.451,0.451,0.451,0.451,0.452,0.452,0.452,0.453,0.453,0.454,0.455,0.456,0.4565,0.457,0.457,0.457,0.457,0.457,0.457,0.457,0.456,0.455,0.455,0.454,0.453,0.453,0.452,0.452,0.452,0.452,0.452,0.452,0.452,0.452,0.452,0.451,0.45,0.45,0.449,0.44825000000000004,0.447,0.447,0.446,0.446,0.446,0.446,0.445,0.444,0.444,0.443,0.443,0.442,0.442,0.442,0.441,0.441,0.441,0.44,0.44,0.439,0.439,0.437,0.437,0.436,0.436,0.436,0.435,0.435,0.435,0.434,0.433,0.431,0.431,0.43,0.43,0.43,0.429,0.429,0.428,0.428,0.427,0.427,0.426,0.426,0.426,0.426,0.425,0.425,0.425,0.425,0.425,0.424,0.424,0.423,0.423,0.422,0.422,0.421,0.421,0.421,0.42,0.42,0.42,0.42,0.42,0.419,0.419,0.418,0.418,0.417,0.416,0.416,0.415,0.415,0.414,0.414,0.414,0.414,0.414,0.413,0.413,0.413,0.412,0.411,0.411,0.411,0.411,0.41,0.409,0.408,0.407,0.407,0.406,0.405,0.405,0.404,0.403,0.403,0.403,0.402,0.402,0.402,0.402,0.402,0.402,0.401,0.401,0.4,0.4,0.4,0.399,0.399,0.399,0.398,0.398,0.397,0.397,0.396,0.396,0.395,0.394,0.394,0.394,0.394,0.394,0.393,0.393,0.393,0.393,0.393,0.0,0.0,0.0
0.0,0.0,0.0,0.0,0.0,0.0,0.0,0.0,0.0,0.0,0.0,0.0,2.256,2.265,2.269,2.278,2.287,2.296,2.296,2.287,2.278,2.278,2.269,2.265,2.256,2.252,2.243,2.239,2.234,2.234,2.23,2.23,2.226,2.226,2.226,2.226,2.226,2.226,2.226,2.226,2.226,2.226,2.23,2.234,2.234,2.234,0.0,0.0,0.0,0.0,0.0,0.0,3.365,3.365,3.365,3.365,3.365,3.365,3.365,3.365,3.365,3.365,3.355,3.355,3.355,3.336,3.336,3.355,3.355,3.365,3.384,3.404,3.414,3.434,3.444,0.0,0.0,0.0,0.0,0.0,0.0,0.0,0.0,0.0,0.0,0.0,0.0,0.0,0.0,0.0,0.0,0.0,0.678,0.679,0.679,0.68,0.68,0.68,0.68,0.681,0.681,0.681,0.681,0.682,0.682,0.682,0.682,0.682,0.681,0.681,0.681,0.681,0.681,0.68,0.68,0.68,0.68,0.678,0.676,0.673,0.671,0.669,0.668,0.667,0.667,0.666,0.662,0.66,0.658,0.656,0.655,0.655,0.653,0.65,0.647,0.646,0.645,0.644,0.644,0.644,0.643,0.642,0.642,0.641,0.639,0.638,0.636,0.634,0.633,0.633,0.633,0.632,0.632,0.632,0.632,0.632,0.632,0.631,0.631,0.629,0.628,0.626,0.624,0.622,0.621,0.62,0.618,0.616,0.616,0.615,0.614,0.614,0.613,0.613,0.613,0.612,0.612,0.612,0.611,0.61,0.609,0.608,0.606,0.604,0.602,0.601,0.601,0.6,0.599,0.597,0.596,0.596,0.595,0.594,0.594,0.593,0.592,0.592,0.592,0.591,0.591,0.59,0.589,0.587,0.586,0.584,0.583,0.583,0.582,0.582,0.581,0.581,0.581,0.58,0.579,0.579,0.578,0.578,0.577,0.576,0.575,0.575,0.574,0.574,0.573,0.573,0.572,0.571,0.0,0.0,0.566,0.565,0.564,0.564,0.563,0.563,0.562,0.562,0.562,0.561,0.56,0.559,0.558,0.556,0.556,0.556,0.555,0.555,0.554,0.552,0.551,0.5507500000000001,0.55,0.5487500000000001,0.547,0.547,0.547,0.546,0.544,0.543,0.541,0.541,0.54,0.54,0.539,0.539,0.538,0.0,0.0,0.0,0.0,0.0,0.0,0.469,0.469,0.469,0.469,0.469,0.468,0.467,0.467,0.467,0.466,0.465,0.465,0.464,0.464,0.464,0.464,0.463,0.463,0.463,0.463,0.463,0.463,0.463,0.464,0.464,0.464,0.463,0.464,0.463,0.463,0.463,0.463,0.463,0.463,0.462,0.462,0.461,0.46,0.459,0.458,0.458,0.458,0.458,0.457,0.457,0.457,0.456,0.456,0.455,0.454,0.453,0.452,0.452,0.451,0.449,0.448,0.447,0.447,0.446,0.446,0.445,0.445,0.445,0.446,0.446,0.446,0.446,0.447,0.447,0.447,0.448,0.448,0.448,0.448,0.448,0.448,0.448,0.448,0.447,0.447,0.447,0.447,0.447,0.447,0.447,0.447,0.447,0.447,0.447,0.447,0.447,0.447,0.447,0.447,0.447,0.447,0.447,0.447,0.447,0.447,0.447,0.447,0.448,0.448,0.448,0.449,0.449,0.45,0.45,0.451,0.451,0.451,0.451,0.451,0.451,0.451,0.451,0.452,0.452,0.452,0.452,0.452,0.452,0.452,0.453,0.453,0.454,0.454,0.455,0.456,0.456,0.4565,0.457,0.457,0.457,0.457,0.456,0.456,0.456,0.455,0.454,0.454,0.453,0.453,0.452,0.452,0.452,0.452,0.452,0.452,0.451,0.451,0.45,0.449,0.448,0.448,0.44775000000000004,0.447,0.446,0.446,0.446,0.445,0.444,0.443,0.443,0.442,0.442,0.442,0.441,0.441,0.441,0.441,0.441,0.441,0.44,0.439,0.438,0.437,0.437,0.436,0.436,0.435,0.435,0.435,0.434,0.433,0.433,0.431,0.431,0.431,0.43,0.43,0.429,0.428,0.427,0.427,0.427,0.426,0.425,0.425,0.425,0.425,0.425,0.424,0.424,0.424,0.424,0.423,0.423,0.422,0.4215,0.421,0.421,0.421,0.421,0.42,0.42,0.42,0.42,0.42,0.419,0.419,0.418,0.418,0.417,0.417,0.416,0.416,0.415,0.415,0.414,0.414,0.413,0.412,0.412,0.412,0.412,0.412,0.411,0.411,0.411,0.411,0.41,0.41,0.40925,0.409,0.0,0.4075,0.407,0.406,0.405,0.404,0.403,0.403,0.402,0.402,0.402,0.402,0.401,0.401,0.401,0.401,0.4,0.4,0.399,0.399,0.399,0.398,0.398,0.398,0.398,0.397,0.397,0.397,0.396,0.395,0.394,0.394,0.394,0.393,0.393,0.393,0.393,0.393,0.392,0.392,0.392,0.391,0.392,0.0,0.0,0.0
0.0,0.0,0.0,0.0,0.0,0.0,0.0,0.0,0.0,0.0,0.0,0.0,0.0,0.0,2.278,2.283,2.287,2.301,2.301,2.301,2.287,2.283,2.278,2.269,2.265,2.256,2.252,2.243,2.243,2.239,2.239,2.234,2.23,2.23,2.23,2.226,2.23,2.226,2.23,2.23,2.23,2.23,2.239,2.239,2.243,2.239,0.0,0.0,0.0,0.0,0.0,0.0,0.0,3.365,3.365,3.365,3.365,3.365,3.355,3.355,3.355,3.355,3.355,3.336,3.336,3.336,3.336,3.336,3.336,3.336,3.355,3.365,3.384,0.0,0.0,0.0,0.0,0.0,0.0,0.0,0.0,0.0,0.0,0.0,0.0,0.0,0.0,0.0,0.0,0.0,0.676,0.677,0.677,0.677,0.678,0.679,0.679,0.679,0.68,0.68,0.68,0.68,0.68,0.68,0.68,0.68,0.68,0.68,0.68,0.68,0.68,0.68,0.68,0.679,0.679,0.677,0.676,0.673,0.671,0.669,0.668,0.667,0.664,0.661,0.659,0.657,0.657,0.655,0.654,0.653,0.651,0.649,0.646,0.645,0.644,0.644,0.643,0.642,0.642,0.64,0.64,0.639,0.638,0.635,0.635,0.633,0.633,0.632,0.632,0.631,0.631,0.631,0.631,0.631,0.63,0.629,0.629,0.628,0.627,0.625,0.622,0.6214999999999999,0.619625,0.618,0.616,0.614,0.613,0.612,0.612,0.611,0.611,0.611,0.611,0.611,0.61,0.609,0.609,0.608,0.606,0.605,0.603,0.602,0.602,0.601,0.6,0.598,0.597,0.596,0.594,0.594,0.594,0.593,0.593,0.592,0.592,0.592,0.591,0.59,0.589,0.588,0.586,0.584,0.583,0.582,0.582,0.582,0.581,0.581,0.58,0.58,0.579,0.578,0.577,0.576,0.576,0.575,0.575,0.574,0.574,0.573,0.573,0.573,0.573,0.572,0.571,0.57,0.569,0.567,0.0,0.0,0.564,0.563,0.562,0.561,0.559,0.559,0.558,0.558,0.558,0.557,0.556,0.556,0.556,0.555,0.555,0.554,0.553,0.551,0.55,0.549,0.548,0.548,0.5475000000000001,0.547,0.546,0.545,0.544,0.544,0.543,0.541,0.541,0.54,0.54,0.539,0.539,0.538,0.534,0.0,0.0,0.0,0.0,0.0,0.0,0.469,0.469,0.469,0.469,0.469,0.468,0.467,0.467,0.466,0.465,0.465,0.464,0.464,0.464,0.464,0.464,0.464,0.464,0.463,0.463,0.463,0.463,0.464,0.464,0.464,0.464,0.464,0.464,0.464,0.464,0.464,0.464,0.463,0.463,0.463,0.463,0.462,0.462,0.46,0.46,0.459,0.458,0.458,0.458,0.458,0.458,0.457,0.457,0.456,0.456,0.455,0.454,0.453,0.452,0.451,0.451,0.449,0.448,0.447,0.447,0.447,0.446,0.446,0.447,0.447,0.447,0.447,0.447,0.448,0.448,0.449,0.449,0.449,0.449,0.449,0.449,0.449,0.449,0.449,0.449,0.448,0.448,0.448,0.448,0.448,0.448,0.448,0.448,0.448,0.448,0.448,0.448,0.448,0.448,0.448,0.448,0.449,0.449,0.449,0.449,0.449,0.449,0.45,0.45,0.451,0.451,0.451,0.451,0.452,0.452,0.452,0.452,0.452,0.452,0.452,0.452,0.452,0.452,0.452,0.452,0.452,0.452,0.453,0.453,0.453,0.454,0.455,0.455,0.456,0.456,0.456,0.45637500000000003,0.457,0.457,0.456,0.456,0.456,0.455,0.454,0.454,0.453,0.453,0.452,0.452,0.452,0.452,0.451,0.451,0.45,0.449,0.448,0.448,0.447,0.447,0.447,0.446,0.446,0.445,0.445,0.444,0.442,0.442,0.441,0.441,0.441,0.441,0.441,0.441,0.44,0.44,0.44,0.44,0.439,0.439,0.438,0.436,0.436,0.436,0.436,0.435,0.434,0.433,0.432,0.432,0.431,0.431,0.431,0.43,0.43,0.43,0.429,0.428,0.427,0.426,0.426,0.426,0.425,0.425,0.424,0.424,0.423,0.423,0.422,0.422,0.421,0.421,0.421,0.421,0.421,0.4205,0.41999999999999993,0.42,0.42,0.42,0.42,0.42,0.419,0.418,0.418,0.418,0.417,0.417,0.417,0.416,0.416,0.415,0.415,0.414,0.414,0.413,0.412,0.412,0.411,0.411,0.411,0.411,0.411,0.411,0.411,0.41,0.41,0.409,0.408,0.40775,0.407,0.407,0.4065,0.406,0.405,0.404,0.403,0.402,0.402,0.402,0.401,0.401,0.4,0.399,0.399,0.399,0.399,0.399,0.398,0.398,0.398,0.398,0.398,0.397,0.397,0.397,0.397,0.396,0.395,0.394,0.394,0.394,0.393,0.393,0.393,0.392,0.392,0.392,0.391,0.391,0.39,0.39,0.39,0.39,0.0,0.0,0.0,0.0
0.0,0.0,0.0,0.0,0.0,0.0,0.0,0.0,0.0,0.0,0.0,0.0,0.0,0.0,0.0,2.287,2.301,2.31,2.31,2.31,2.301,2.296,2.287,2.283,2.278,2.278,2.265,2.256,2.256,2.252,2.243,2.243,2.239,2.234,2.234,2.234,2.234,2.234,2.234,2.234,2.234,2.239,2.243,2.243,2.252,2.252,2.252,0.0,0.0,0.0,0.0,0.0,0.0,3.365,3.365,3.365,3.365,3.365,3.355,3.355,3.355,3.355,3.355,3.336,3.336,3.336,3.326,3.326,3.326,3.317,3.326,0.0,0.0,0.0,0.0,0.0,0.0,0.0,0.0,0.0,0.0,0.0,0.0,0.0,0.0,0.0,0.0,0.0,0.0,0.673,0.673,0.674,0.676,0.676,0.677,0.676,0.677,0.678,0.677,0.678,0.678,0.678,0.678,0.678,0.678,0.678,0.678,0.679,0.679,0.678,0.678,0.677,0.677,0.674,0.673,0.671,0.669,0.668,0.667,0.666,0.664,0.658,0.657,0.656,0.655,0.655,0.653,0.651,0.649,0.647,0.645,0.644,0.644,0.643,0.642,0.641,0.64,0.639,0.638,0.636,0.635,0.634,0.633,0.632,0.631,0.631,0.63,0.629,0.629,0.629,0.628,0.627,0.627,0.627,0.626,0.626,0.624,0.624,0.623,0.621,0.62,0.617,0.615,0.613,0.612,0.611,0.611,0.61,0.609,0.609,0.608,0.607,0.606,0.606,0.605,0.604,0.603,0.603,0.602,0.601,0.601,0.6,0.599,0.598,0.595,0.594,0.594,0.593,0.593,0.592,0.592,0.592,0.591,0.591,0.591,0.589,0.588,0.586,0.585,0.583,0.582,0.582,0.581,0.58,0.579,0.579,0.578,0.577,0.576,0.575,0.575,0.575,0.574,0.573,0.573,0.573,0.573,0.573,0.572,0.572,0.571,0.571,0.571,0.57,0.568,0.566,0.565,0.565,0.564,0.563,0.559,0.558,0.557,0.557,0.556,0.556,0.556,0.556,0.555,0.555,0.555,0.554,0.554,0.552,0.551,0.55,0.549,0.547,0.547,0.547,0.546,0.546,0.545,0.544,0.543,0.542,0.542,0.541,0.541,0.54,0.54,0.539,0.539,0.539,0.538,0.535,0.533,0.532,0.531,0.529,0.526,0.523,0.0,0.495,0.4945,0.4935,0.0,0.4925,0.468,0.47950000000000004,0.467,0.466,0.465,0.465,0.464,0.464,0.464,0.0,0.0,0.463,0.463,0.463,0.464,0.463,0.464,0.464,0.464,0.464,0.465,0.465,0.464,0.464,0.464,0.464,0.464,0.464,0.463,0.463,0.463,0.463,0.462,0.462,0.46,0.46,0.459,0.459,0.459,0.458,0.458,0.458,0.458,0.457,0.457,0.457,0.456,0.455,0.453,0.452,0.452,0.451,0.45,0.449,0.448,0.448,0.448,0.448,0.448,0.448,0.449,0.449,0.449,0.45,0.45,0.451,0.451,0.451,0.451,0.451,0.451,0.451,0.451,0.451,0.451,0.451,0.45,0.45,0.449,0.449,0.449,0.449,0.449,0.449,0.449,0.45,0.45,0.45,0.451,0.451,0.451,0.451,0.451,0.451,0.451,0.451,0.452,0.452,0.452,0.452,0.452,0.452,0.452,0.452,0.452,0.452,0.452,0.452,0.452,0.452,0.452,0.453,0.453,0.452,0.453,0.453,0.453,0.453,0.453,0.453,0.454,0.455,0.455,0.455,0.456,0.456,0.456,0.456,0.455,0.455,0.455,0.454,0.453,0.453,0.453,0.452,0.452,0.452,0.451,0.451,0.449,0.448,0.448,0.447,0.447,0.447,0.446,0.446,0.446,0.445,0.444,0.444,0.442,0.442,0.441,0.441,0.441,0.441,0.44,0.44,0.44,0.44,0.439,0.439,0.438,0.438,0.437,0.437,0.436,0.436,0.435,0.435,0.434,0.433,0.432,0.431,0.431,0.431,0.431,0.43,0.43,0.429,0.429,0.428,0.427,0.426,0.426,0.426,0.425,0.425,0.424,0.424,0.423,0.422,0.422,0.421,0.421,0.421,0.42,0.42,0.42,0.42,0.42,0.419,0.419,0.418,0.418,0.418,0.417,0.417,0.417,0.417,0.416,0.416,0.416,0.416,0.416,0.415,0.415,0.414,0.413,0.413,0.412,0.411,0.411,0.411,0.411,0.41,0.41,0.41,0.409,0.409,0.409,0.408,0.408,0.407,0.407,0.406,0.406,0.406,0.406,0.404,0.403,0.403,0.402,0.402,0.402,0.401,0.4,0.399,0.398,0.398,0.398,0.398,0.398,0.398,0.398,0.397,0.397,0.397,0.397,0.397,0.397,0.396,0.396,0.394,0.394,0.394,0.393,0.393,0.393,0.392,0.392,0.391,0.39,0.39,0.389,0.389,0.389,0.389,0.389,0.389,0.389,0.0,0.0,0.0,0.0
0.0,0.0,0.0,0.0,0.0,0.0,0.0,0.0,0.0,0.0,0.0,0.0,0.0,0.0,0.0,2.31,2.314,2.319,2.319,2.314,2.314,2.31,2.301,2.296,2.296,2.287,2.283,2.278,2.269,2.269,2.265,2.256,2.252,2.252,2.243,2.243,2.239,2.239,2.239,2.239,2.243,2.243,2.252,2.256,2.265,2.265,2.265,0.0,0.0,0.0,0.0,0.0,0.0,3.355,3.355,3.365,3.365,3.365,3.365,3.365,3.355,3.355,3.355,3.336,3.326,3.326,3.317,3.317,3.326,3.317,0.0,0.0,0.0,0.0,0.0,0.0,0.0,0.0,0.0,0.0,0.0,0.0,0.0,0.0,0.0,0.0,0.0,0.0,0.671,0.672,0.671,0.672,0.672,0.673,0.673,0.673,0.673,0.673,0.673,0.673,0.674,0.674,0.674,0.674,0.673,0.673,0.673,0.673,0.672,0.672,0.671,0.67,0.669,0.669,0.668,0.667,0.666,0.664,0.662,0.6595000000000001,0.656,0.655,0.654,0.653,0.651,0.649,0.647,0.644,0.644,0.643,0.642,0.641,0.64,0.639,0.636,0.635,0.634,0.634,0.633,0.633,0.632,0.631,0.631,0.629,0.628,0.627,0.626,0.626,0.625,0.624,0.624,0.624,0.623,0.623,0.623,0.622,0.622,0.621,0.619,0.616,0.614,0.613,0.612,0.611,0.61,0.607,0.606,0.605,0.605,0.604,0.603,0.603,0.602,0.602,0.601,0.601,0.601,0.6,0.599,0.598,0.597,0.595,0.594,0.594,0.593,0.592,0.592,0.592,0.592,0.592,0.591,0.591,0.59,0.589,0.588,0.586,0.583,0.582,0.582,0.581,0.58,0.579,0.578,0.577,0.576,0.575,0.575,0.574,0.573,0.573,0.573,0.573,0.572,0.571,0.571,0.571,0.571,0.57,0.57,0.569,0.57,0.569,0.568,0.566,0.565,0.564,0.564,0.563,0.559,0.557,0.556,0.555,0.555,0.555,0.555,0.554,0.554,0.554,0.554,0.553,0.552,0.551,0.55,0.548,0.547,0.547,0.546,0.545,0.544,0.543,0.543,0.542,0.541,0.541,0.54,0.54,0.54,0.54,0.54,0.539,0.539,0.538,0.538,0.537,0.535,0.533,0.532,0.531,0.529,0.527,0.525,0.523,0.522,0.521,0.52,0.518,0.517,0.516,0.516,0.516,0.515,0.514,0.0,0.0,0.0,0.0,0.0,0.0,0.0,0.0,0.0,0.0,0.0,0.0,0.0,0.0,0.0,0.0,0.465,0.465,0.465,0.465,0.465,0.465,0.465,0.464,0.464,0.464,0.463,0.463,0.463,0.463,0.462,0.461,0.46,0.46,0.459,0.459,0.459,0.459,0.458,0.458,0.458,0.458,0.457,0.457,0.456,0.455,0.453,0.453,0.452,0.451,0.451,0.451,0.451,0.451,0.451,0.451,0.452,0.452,0.452,0.452,0.45275000000000004,0.453,0.453,0.453,0.453,0.453,0.453,0.453,0.452,0.452,0.452,0.452,0.452,0.452,0.451,0.451,0.451,0.451,0.451,0.451,0.451,0.452,0.452,0.452,0.452,0.452,0.452,0.452,0.452,0.452,0.452,0.452,0.452,0.452,0.452,0.452,0.452,0.452,0.453,0.453,0.453,0.453,0.453,0.453,0.453,0.453,0.453,0.453,0.453,0.453,0.453,0.453,0.453,0.453,0.453,0.453,0.454,0.455,0.455,0.455,0.455,0.455,0.455,0.455,0.454,0.454,0.453,0.453,0.452,0.452,0.452,0.452,0.451,0.451,0.449,0.448,0.447,0.447,0.446,0.446,0.446,0.445,0.445,0.444,0.443,0.442,0.441,0.441,0.441,0.44,0.44,0.44,0.439,0.439,0.438,0.438,0.438,0.437,0.437,0.437,0.436,0.436,0.436,0.436,0.435,0.435,0.433,0.432,0.431,0.431,0.431,0.43,0.43,0.43,0.429,0.429,0.428,0.428,0.427,0.426,0.426,0.425,0.425,0.425,0.424,0.423,0.422,0.422,0.421,0.421,0.421,0.42,0.42,0.42,0.42,0.418,0.418,0.418,0.418,0.417,0.417,0.416,0.416,0.416,0.416,0.416,0.416,0.415,0.415,0.415,0.415,0.414,0.413,0.413,0.412,0.412,0.411,0.411,0.411,0.41,0.41,0.409,0.408,0.408,0.408,0.407,0.407,0.407,0.407,0.407,0.406,0.406,0.406,0.405,0.404,0.403,0.403,0.402,0.402,0.402,0.401,0.4,0.4,0.398,0.398,0.398,0.397,0.397,0.397,0.397,0.397,0.397,0.397,0.396,0.396,0.396,0.395,0.394,0.394,0.394,0.393,0.393,0.393,0.393,0.392,0.391,0.391,0.391,0.39,0.389,0.389,0.389,0.389,0.388,0.388,0.388,0.387,0.387,0.387,0.0,0.0,0.0,0.0
0.0,0.0,0.0,0.0,0.0,0.0,0.0,0.0,0.0,0.0,0.0,0.0,0.0,0.0,0.0,2.319,2.319,2.324,2.324,2.319,2.324,2.319,2.319,2.314,2.314,2.31,2.301,2.296,2.287,2.287,2.283,2.278,2.269,2.265,2.256,2.256,2.256,2.252,2.252,2.252,2.252,2.256,2.256,2.265,2.269,2.278,2.283,2.287,0.0,0.0,0.0,0.0,0.0,0.0,3.355,3.355,3.365,3.355,3.365,3.365,3.365,3.355,3.355,3.336,3.326,3.336,3.326,3.326,0.0,0.0,0.0,0.0,0.0,0.0,0.0,0.0,0.0,0.0,0.0,0.0,0.0,0.0,0.0,0.0,0.0,0.668,0.669,0.669,0.669,0.67,0.67,0.67,0.669,0.67,0.669,0.67,0.67,0.67,0.67,0.669,0.669,0.669,0.669,0.669,0.669,0.669,0.669,0.668,0.668,0.668,0.667,0.667,0.666,0.665,0.664,0.661,0.657,0.656,0.655,0.654,0.653,0.651,0.649,0.647,0.646,0.645,0.644,0.642,0.641,0.64,0.638,0.637,0.635,0.634,0.633,0.633,0.632,0.631,0.63,0.629,0.628,0.627,0.626,0.625,0.624,0.623,0.623,0.623,0.622,0.622,0.622,0.622,0.621,0.621,0.62,0.619,0.617,0.616,0.614,0.612,0.611,0.611,0.609,0.606,0.603,0.603,0.602,0.602,0.602,0.601,0.601,0.601,0.6,0.599,0.599,0.598,0.597,0.596,0.594,0.593,0.592,0.592,0.592,0.592,0.592,0.591,0.591,0.591,0.591,0.59,0.59,0.589,0.588,0.586,0.583,0.582,0.581,0.581,0.579,0.578,0.576,0.575,0.575,0.574,0.573,0.573,0.573,0.572,0.572,0.572,0.571,0.57,0.57,0.569,0.569,0.568,0.567,0.566,0.566,0.566,0.566,0.565,0.565,0.564,0.563,0.563,0.561,0.557,0.556,0.555,0.555,0.554,0.553,0.553,0.552,0.551,0.551,0.55,0.549,0.549,0.548,0.548,0.547,0.546,0.544,0.543,0.542,0.541,0.54,0.54,0.54,0.54,0.539,0.539,0.539,0.538,0.538,0.538,0.538,0.537,0.536,0.535,0.533,0.533,0.532,0.531,0.53,0.529,0.527,0.525,0.523,0.522,0.522,0.521,0.519,0.518,0.517,0.516,0.51575,0.515,0.515,0.5135000000000001,0.0,0.0,0.0,0.0,0.0,0.0,0.0,0.0,0.0,0.0,0.0,0.0,0.0,0.0,0.0,0.0,0.465,0.466,0.467,0.467,0.467,0.467,0.467,0.467,0.466,0.465,0.465,0.465,0.465,0.465,0.464,0.464,0.463,0.463,0.463,0.463,0.463,0.461,0.461,0.462,0.46,0.46,0.459,0.458,0.458,0.458,0.457,0.456,0.455,0.454,0.453,0.453,0.453,0.453,0.453,0.453,0.454,0.455,0.455,0.456,0.456,0.456,0.457,0.457,0.457,0.457,0.457,0.457,0.456,0.455,0.455,0.454,0.453,0.452,0.452,0.452,0.452,0.452,0.452,0.452,0.452,0.452,0.452,0.453,0.453,0.453,0.453,0.453,0.453,0.453,0.453,0.453,0.453,0.453,0.453,0.453,0.453,0.453,0.453,0.454,0.454,0.454,0.454,0.454,0.454,0.453,0.453,0.453,0.453,0.453,0.453,0.453,0.453,0.453,0.453,0.453,0.453,0.453,0.454,0.454,0.453,0.453,0.453,0.453,0.453,0.452,0.452,0.452,0.451,0.451,0.45,0.449,0.448,0.448,0.447,0.447,0.446,0.446,0.445,0.444,0.444,0.443,0.442,0.441,0.441,0.441,0.441,0.44,0.44,0.439,0.439,0.438,0.437,0.437,0.437,0.436,0.436,0.436,0.436,0.436,0.435,0.435,0.435,0.434,0.433,0.432,0.0,0.43,0.43,0.429,0.429,0.428,0.427,0.427,0.427,0.426,0.426,0.426,0.425,0.425,0.425,0.424,0.423,0.422,0.422,0.421,0.421,0.421,0.42,0.42,0.42,0.419,0.419,0.417,0.417,0.417,0.416,0.416,0.416,0.416,0.416,0.415,0.415,0.415,0.415,0.415,0.415,0.413,0.413,0.412,0.412,0.411,0.411,0.411,0.411,0.411,0.41,0.41,0.409,0.408,0.407,0.407,0.407,0.407,0.406,0.406,0.406,0.406,0.406,0.405,0.404,0.403,0.403,0.402,0.402,0.402,0.402,0.401,0.401,0.4,0.399,0.398,0.398,0.397,0.397,0.397,0.396,0.396,0.395,0.395,0.395,0.395,0.395,0.394,0.394,0.394,0.394,0.393,0.393,0.393,0.392,0.392,0.391,0.391,0.39,0.39,0.389,0.389,0.389,0.388,0.388,0.388,0.388,0.387,0.386,0.386,0.386,0.385,0.385,0.0,0.0,0.0,0.0
0.0,0.0,0.0,0.0,0.0,0.0,0.0,0.0,0.0,0.0,0.0,0.0,0.0,0.0,2.324,2.324,2.328,2.328,2.328,2.328,2.328,2.328,2.324,2.324,2.328,2.324,2.319,2.314,2.314,2.31,2.301,2.296,2.287,2.278,2.278,2.269,2.269,2.269,2.269,2.269,2.269,2.269,2.278,2.278,2.287,2.296,2.296,2.296,0.0,0.0,0.0,0.0,0.0,0.0,0.0,0.0,3.355,3.355,3.365,3.365,3.365,3.355,3.355,3.355,3.336,3.336,0.0,0.0,0.0,0.0,0.0,0.0,0.0,0.0,0.0,0.0,0.0,0.0,0.0,0.0,0.0,0.0,0.0,0.0,0.0,0.6675,0.668,0.668,0.669,0.668,0.669,0.668,0.668,0.668,0.668,0.668,0.668,0.668,0.668,0.667,0.667,0.667,0.667,0.667,0.666,0.666,0.666,0.666,0.665,0.664,0.663,0.662,0.661,0.658,0.656,0.65525,0.654,0.653,0.651,0.648,0.646,0.645,0.644,0.644,0.643,0.641,0.64,0.638,0.635,0.634,0.634,0.633,0.633,0.632,0.629,0.629,0.628,0.627,0.626,0.625,0.624,0.623,0.623,0.622,0.622,0.622,0.622,0.621,0.621,0.62,0.618,0.618,0.617,0.616,0.615,0.614,0.612,0.612,0.611,0.61,0.608,0.605,0.603,0.602,0.601,0.601,0.601,0.6,0.599,0.598,0.598,0.597,0.596,0.594,0.593,0.593,0.592,0.592,0.592,0.591,0.591,0.591,0.591,0.591,0.59,0.59,0.59,0.59,0.589,0.588,0.587,0.586,0.585,0.582,0.582,0.58,0.579,0.576,0.575,0.574,0.573,0.573,0.573,0.572,0.572,0.571,0.57,0.57,0.569,0.568,0.567,0.567,0.566,0.566,0.566,0.565,0.565,0.565,0.564,0.564,0.564,0.563,0.563,0.562,0.561,0.557,0.556,0.555,0.555,0.554,0.552,0.551,0.55,0.549,0.549,0.548,0.548,0.547,0.547,0.546,0.546,0.544,0.543,0.542,0.54,0.54,0.539,0.539,0.539,0.538,0.538,0.538,0.538,0.537,0.536,0.536,0.536,0.535,0.534,0.533,0.532,0.531,0.531,0.531,0.53,0.528,0.527,0.525,0.524,0.523,0.523,0.522,0.521,0.519,0.518,0.517,0.516,0.516,0.516,0.515,0.514,0.513,0.0,0.0,0.0,0.0,0.51,0.5095000000000001,0.509,0.0,0.0,0.0,0.0,0.0,0.0,0.0,0.0,0.465,0.466,0.467,0.468,0.468,0.468,0.469,0.469,0.467,0.467,0.467,0.467,0.466,0.467,0.466,0.466,0.466,0.466,0.466,0.465,0.465,0.464,0.464,0.464,0.463,0.463,0.463,0.463,0.462,0.462,0.46,0.459,0.458,0.458,0.458,0.457,0.457,0.457,0.457,0.457,0.457,0.457,0.458,0.458,0.458,0.458,0.458,0.458,0.458,0.458,0.458,0.458,0.458,0.458,0.458,0.457,0.457,0.457,0.456,0.455,0.454,0.453,0.453,0.453,0.453,0.453,0.453,0.453,0.45375,0.454,0.454,0.455,0.454,0.455,0.455,0.455,0.455,0.455,0.455,0.455,0.455,0.455,0.455,0.455,0.455,0.455,0.455,0.455,0.454,0.454,0.454,0.454,0.453,0.453,0.453,0.453,0.453,0.453,0.453,0.453,0.453,0.453,0.453,0.453,0.453,0.452,0.452,0.452,0.452,0.452,0.451,0.45,0.448,0.448,0.447,0.447,0.447,0.446,0.446,0.446,0.445,0.444,0.443,0.443,0.441,0.441,0.441,0.441,0.44,0.44,0.439,0.439,0.438,0.438,0.437,0.436,0.436,0.436,0.436,0.435,0.435,0.435,0.434,0.434,0.433,0.433,0.432,0.432,0.431,0.431,0.4295,0.42874999999999996,0.428,0.427,0.427,0.426,0.426,0.426,0.426,0.425,0.425,0.425,0.425,0.424,0.423,0.422,0.422,0.421,0.421,0.421,0.42,0.42,0.42,0.419,0.418,0.417,0.417,0.416,0.416,0.416,0.416,0.416,0.415,0.415,0.415,0.415,0.414,0.414,0.413,0.413,0.412,0.411,0.411,0.411,0.411,0.411,0.411,0.41,0.41,0.41,0.409,0.408,0.407,0.407,0.407,0.406,0.406,0.406,0.406,0.405,0.405,0.404,0.404,0.404,0.402,0.402,0.402,0.402,0.402,0.401,0.401,0.4,0.4,0.4,0.399,0.398,0.397,0.397,0.396,0.396,0.395,0.394,0.394,0.394,0.394,0.394,0.394,0.394,0.393,0.393,0.393,0.393,0.392,0.392,0.391,0.39,0.39,0.389,0.389,0.389,0.388,0.388,0.388,0.387,0.386,0.386,0.386,0.386,0.385,0.385,0.385,0.385,0.385,0.385,0.0,0.0,0.0,0.0
0.0,0.0,0.0,0.0,0.0,0.0,0.0,0.0,0.0,0.0,0.0,0.0,0.0,0.0,2.324,2.324,2.324,2.328,2.328,2.328,2.328,2.333,2.333,2.333,2.333,2.333,2.333,2.328,2.324,2.319,2.314,2.314,2.301,2.296,2.287,2.287,2.283,2.283,2.278,2.283,2.283,2.283,2.287,2.287,2.296,2.296,2.31,2.31,2.314,2.314,0.0,0.0,0.0,0.0,0.0,0.0,0.0,0.0,0.0,0.0,0.0,3.355,3.365,3.355,3.336,0.0,0.0,0.0,0.0,0.0,0.0,0.0,0.0,0.0,0.0,0.0,0.0,0.0,0.0,0.0,0.0,0.0,0.0,0.667,0.667,0.667,0.668,0.668,0.667,0.667,0.668,0.667,0.667,0.667,0.666,0.666,0.666,0.665,0.665,0.665,0.664,0.664,0.663,0.663,0.662,0.662,0.661,0.66,0.659,0.658,0.657,0.657,0.655,0.654,0.653,0.65,0.648,0.646,0.645,0.644,0.643,0.641,0.64,0.639,0.637,0.636,0.635,0.634,0.633,0.632,0.632,0.631,0.628,0.626,0.625,0.624,0.624,0.623,0.622,0.622,0.622,0.622,0.621,0.621,0.62,0.62,0.619,0.617,0.616,0.614,0.614,0.613,0.612,0.612,0.611,0.611,0.61,0.609,0.608,0.604,0.603,0.602,0.601,0.6,0.6,0.599,0.598,0.597,0.595,0.594,0.592,0.592,0.592,0.591,0.591,0.591,0.591,0.59,0.589,0.588,0.588,0.587,0.587,0.587,0.587,0.586,0.587,0.587,0.586,0.585,0.584,0.582,0.582,0.581,0.578,0.576,0.574,0.573,0.573,0.573,0.572,0.571,0.571,0.569,0.569,0.567,0.566,0.566,0.566,0.565,0.565,0.565,0.565,0.564,0.564,0.564,0.564,0.563,0.563,0.56175,0.562,0.561,0.558,0.557,0.556,0.555,0.554,0.553,0.552,0.551,0.549,0.549,0.548,0.547,0.547,0.547,0.546,0.545,0.544,0.543,0.542,0.54,0.54,0.539,0.539,0.538,0.538,0.537,0.537,0.536,0.536,0.535,0.534,0.534,0.533,0.533,0.532,0.532,0.531,0.531,0.531,0.53,0.528,0.528,0.526,0.525,0.524,0.523,0.523,0.523,0.522,0.521,0.519,0.518,0.517,0.516,0.516,0.516,0.515,0.515,0.514,0.513,0.512,0.511,0.51,0.509,0.509,0.509,0.508,0.508,0.507,0.0,0.0,0.503,0.502,0.502,0.501,0.0,0.48150000000000004,0.48150000000000004,0.48150000000000004,0.48150000000000004,0.0,0.0,0.0,0.471,0.471,0.4705,0.47,0.469,0.469,0.469,0.469,0.469,0.469,0.469,0.469,0.468,0.468,0.467,0.466,0.465,0.465,0.464,0.464,0.464,0.464,0.463,0.463,0.463,0.0,0.0,0.46,0.46,0.46,0.46,0.46,0.46,0.46,0.46,0.461,0.461,0.46125,0.462,0.462,0.461,0.46125,0.462,0.461,0.461,0.46,0.459,0.458,0.458,0.458,0.457,0.457,0.456,0.456,0.456,0.455,0.455,0.455,0.455,0.455,0.455,0.455,0.455,0.456,0.455,0.456,0.455,0.456,0.455,0.455,0.455,0.455,0.455,0.455,0.455,0.455,0.455,0.455,0.455,0.454,0.454,0.454,0.454,0.453,0.453,0.453,0.453,0.453,0.452,0.452,0.452,0.452,0.452,0.452,0.452,0.452,0.452,0.451,0.451,0.451,0.45,0.449,0.447,0.447,0.447,0.446,0.446,0.446,0.445,0.445,0.444,0.443,0.442,0.442,0.441,0.441,0.44,0.44,0.44,0.439,0.438,0.438,0.437,0.437,0.436,0.436,0.436,0.436,0.435,0.434,0.433,0.433,0.432,0.432,0.431,0.431,0.431,0.431,0.431,0.431,0.43,0.428,0.427,0.426,0.426,0.425,0.425,0.425,0.425,0.425,0.425,0.424,0.424,0.424,0.422,0.422,0.421,0.421,0.421,0.421,0.42,0.42,0.419,0.418,0.418,0.417,0.416,0.416,0.416,0.415,0.415,0.415,0.415,0.415,0.414,0.414,0.414,0.413,0.412,0.411,0.411,0.411,0.411,0.411,0.411,0.41,0.41,0.409,0.409,0.408,0.408,0.407,0.407,0.406,0.406,0.406,0.405,0.405,0.404,0.404,0.404,0.403,0.403,0.402,0.402,0.402,0.402,0.402,0.401,0.401,0.401,0.4,0.4,0.399,0.399,0.398,0.397,0.397,0.396,0.395,0.394,0.394,0.394,0.394,0.393,0.393,0.393,0.393,0.393,0.393,0.392,0.392,0.391,0.391,0.391,0.39,0.39,0.389,0.389,0.388,0.388,0.387,0.386,0.386,0.386,0.385,0.385,0.385,0.385,0.385,0.384,0.384,0.384,0.383,0.383,0.0,0.0,0.0,0.0,0.0
0.0,0.0,0.0,0.0,0.0,0.0,0.0,0.0,0.0,0.0,0.0,0.0,0.0,2.324,2.328,2.328,2.328,2.328,2.333,2.333,2.333,2.333,2.338,2.338,2.338,2.338,2.342,2.338,2.338,2.333,2.328,2.324,2.319,2.314,2.301,2.301,2.296,2.296,2.296,2.287,2.287,2.296,2.296,2.301,2.301,2.31,2.314,2.314,2.314,2.314,2.319,2.314,2.314,0.0,0.0,0.0,0.0,0.0,0.0,0.0,0.0,0.0,0.0,0.0,0.0,0.0,0.0,0.0,0.0,0.0,0.0,0.0,0.0,0.0,0.0,0.0,0.0,0.0,0.0,0.0,0.0,0.666,0.666,0.666,0.666,0.666,0.666,0.666,0.666,0.666,0.665,0.665,0.664,0.663,0.663,0.662,0.662,0.661,0.661,0.661,0.66,0.659,0.658,0.658,0.657,0.657,0.656,0.656,0.655,0.654,0.654,0.652,0.65,0.649,0.647,0.645,0.644,0.644,0.64,0.639,0.638,0.635,0.634,0.634,0.633,0.633,0.632,0.631,0.63,0.629,0.626,0.625,0.623,0.623,0.622,0.622,0.621,0.621,0.621,0.62,0.619,0.619,0.618,0.618,0.616,0.615,0.614,0.614,0.613,0.612,0.611,0.611,0.611,0.61,0.608,0.607,0.603,0.603,0.602,0.601,0.601,0.6,0.599,0.598,0.596,0.595,0.594,0.593,0.592,0.591,0.591,0.591,0.59,0.588,0.587,0.587,0.586,0.586,0.585,0.584,0.584,0.584,0.583,0.583,0.583,0.583,0.583,0.583,0.583,0.582,0.581,0.58,0.578,0.575,0.574,0.573,0.572,0.571,0.571,0.569,0.567,0.566,0.566,0.566,0.565,0.565,0.564,0.564,0.564,0.564,0.564,0.564,0.563,0.563,0.563,0.563,0.561,0.561,0.5595000000000001,0.558,0.557,0.556,0.555,0.555,0.554,0.553,0.551,0.549,0.548,0.548,0.547,0.546,0.546,0.545,0.544,0.543,0.542,0.541,0.54,0.54,0.539,0.539,0.538,0.538,0.536,0.535,0.534,0.534,0.533,0.533,0.533,0.532,0.532,0.532,0.531,0.531,0.531,0.53,0.529,0.528,0.527,0.52625,0.525,0.524,0.524,0.523,0.522,0.522,0.522,0.521,0.519,0.519,0.518,0.517,0.517,0.516,0.516,0.515,0.514,0.514,0.513,0.511,0.51,0.51,0.509,0.509,0.508,0.508,0.507,0.505,0.504,0.503,0.502,0.502,0.5,0.49975,0.499,0.498,0.497,0.496,0.495,0.495,0.0,0.0,0.0,0.4795,0.4765,0.47575,0.475,0.4734999999999999,0.473,0.47275,0.473,0.4725,0.4725,0.4725,0.472,0.47150000000000003,0.47062499999999996,0.469,0.469,0.468,0.468,0.467,0.466,0.466,0.465,0.465,0.465,0.464,0.0,0.0,0.4625,0.463,0.463,0.463,0.463,0.463,0.463,0.463,0.463,0.464,0.464,0.464,0.464,0.464,0.464,0.464,0.464,0.463,0.463,0.463,0.461,0.46,0.459,0.458,0.458,0.457,0.457,0.457,0.457,0.457,0.456,0.456,0.456,0.456,0.456,0.456,0.456,0.456,0.456,0.456,0.456,0.456,0.456,0.456,0.456,0.456,0.456,0.456,0.455,0.455,0.455,0.455,0.454,0.454,0.454,0.453,0.453,0.453,0.453,0.453,0.452,0.452,0.452,0.452,0.452,0.451,0.451,0.451,0.451,0.45,0.449,0.448,0.447,0.447,0.447,0.446,0.446,0.446,0.445,0.444,0.443,0.443,0.442,0.442,0.441,0.441,0.44,0.44,0.439,0.438,0.438,0.437,0.437,0.436,0.436,0.436,0.436,0.436,0.435,0.434,0.433,0.432,0.432,0.431,0.431,0.431,0.43,0.43,0.43,0.43,0.43,0.429,0.427,0.427,0.426,0.425,0.425,0.425,0.424,0.424,0.424,0.423,0.423,0.422,0.422,0.421,0.421,0.421,0.421,0.42,0.42,0.42,0.419,0.419,0.418,0.417,0.416,0.416,0.416,0.415,0.415,0.414,0.414,0.414,0.414,0.413,0.413,0.412,0.412,0.411,0.411,0.411,0.411,0.411,0.41,0.41,0.409,0.409,0.408,0.408,0.407,0.407,0.406,0.406,0.406,0.405,0.405,0.404,0.404,0.403,0.403,0.402,0.402,0.402,0.402,0.402,0.402,0.401,0.401,0.401,0.4,0.4,0.399,0.399,0.399,0.398,0.398,0.397,0.397,0.396,0.395,0.394,0.394,0.393,0.393,0.393,0.393,0.392,0.392,0.392,0.392,0.392,0.391,0.391,0.39,0.0,0.39,0.389,0.389,0.389,0.388,0.387,0.386,0.386,0.385,0.385,0.385,0.385,0.385,0.384,0.384,0.383,0.383,0.382,0.382,0.382,0.382,0.382,0.0,0.0,0.0,0.0,0.0
0.0,0.0,0.0,0.0,0.0,0.0,0.0,0.0,0.0,0.0,0.0,0.0,0.0,0.0,2.328,2.328,2.328,2.333,2.333,2.333,2.338,2.338,2.338,2.342,2.342,2.347,2.347,2.347,2.347,2.342,2.338,2.338,2.333,2.328,2.319,2.314,2.314,2.31,2.301,2.301,2.301,2.301,2.31,2.31,2.31,2.314,2.314,2.314,2.314,2.314,2.314,2.314,2.301,2.301,2.296,0.0,0.0,0.0,0.0,0.0,0.0,0.0,0.0,0.0,0.0,0.0,0.0,0.0,0.0,0.0,0.0,0.0,0.0,0.0,0.0,0.0,0.0,0.0,0.0,0.0,0.664,0.664,0.665,0.665,0.665,0.665,0.664,0.665,0.664,0.663,0.662,0.661,0.661,0.66,0.659,0.658,0.658,0.657,0.657,0.657,0.656,0.656,0.655,0.655,0.655,0.654,0.653,0.651,0.649,0.649,0.647,0.646,0.645,0.644,0.644,0.643,0.642,0.638,0.636,0.635,0.634,0.633,0.632,0.632,0.631,0.63,0.629,0.626,0.624,0.624,0.623,0.622,0.622,0.621,0.62,0.619,0.618,0.618,0.617,0.616,0.615,0.615,0.614,0.614,0.613,0.613,0.612,0.612,0.611,0.61,0.609,0.608,0.606,0.603,0.602,0.602,0.601,0.601,0.6,0.599,0.598,0.597,0.595,0.594,0.592,0.592,0.591,0.591,0.59,0.589,0.588,0.587,0.586,0.584,0.584,0.584,0.583,0.582,0.582,0.582,0.582,0.582,0.581,0.581,0.581,0.581,0.581,0.581,0.58,0.579,0.577,0.575,0.574,0.573,0.572,0.571,0.567,0.566,0.566,0.565,0.565,0.564,0.564,0.564,0.563,0.563,0.563,0.563,0.563,0.563,0.562,0.562,0.561,0.561,0.56,0.559,0.557,0.556,0.556,0.555,0.555,0.554,0.553,0.551,0.549,0.548,0.547,0.547,0.547,0.544,0.544,0.543,0.542,0.541,0.54,0.54,0.539,0.539,0.539,0.538,0.538,0.537,0.536,0.534,0.533,0.532,0.532,0.532,0.531,0.531,0.531,0.531,0.531,0.531,0.53,0.53,0.528,0.527,0.526,0.525,0.524,0.523,0.523,0.522,0.521,0.521,0.519,0.519,0.519,0.519,0.518,0.517,0.517,0.516,0.516,0.515,0.515,0.514,0.511,0.511,0.51,0.509,0.509,0.509,0.508,0.508,0.507,0.506,0.505,0.504,0.503,0.502,0.502,0.5,0.499,0.498,0.497,0.496,0.496,0.495,0.495,0.494,0.493,0.492,0.49,0.488,0.482,0.48,0.478,0.477,0.476,0.476,0.476,0.476,0.476,0.476,0.475,0.475,0.474,0.472,0.47,0.47,0.469,0.469,0.469,0.469,0.468,0.468,0.468,0.467,0.466,0.465,0.465,0.465,0.465,0.465,0.465,0.465,0.465,0.465,0.465,0.466,0.467,0.467,0.466,0.465,0.466,0.466,0.465,0.464,0.464,0.463,0.463,0.463,0.46,0.459,0.458,0.458,0.458,0.457,0.457,0.457,0.457,0.457,0.457,0.457,0.457,0.457,0.457,0.457,0.456,0.456,0.456,0.456,0.456,0.456,0.455,0.455,0.455,0.455,0.454,0.45425,0.454,0.454,0.454,0.453,0.453,0.453,0.452,0.453,0.452,0.452,0.452,0.452,0.451,0.451,0.45,0.45,0.449,0.448,0.447,0.0,0.0,0.0,0.446,0.446,0.445,0.444,0.443,0.443,0.442,0.442,0.441,0.441,0.441,0.44,0.439,0.439,0.438,0.437,0.437,0.436,0.436,0.436,0.436,0.436,0.435,0.435,0.435,0.433,0.433,0.432,0.431,0.431,0.43,0.43,0.429,0.429,0.428,0.428,0.427,0.427,0.427,0.426,0.426,0.425,0.425,0.424,0.424,0.423,0.422,0.422,0.422,0.421,0.421,0.421,0.421,0.42,0.42,0.42,0.419,0.419,0.418,0.418,0.417,0.416,0.416,0.416,0.415,0.415,0.414,0.414,0.412,0.412,0.412,0.412,0.412,0.411,0.411,0.411,0.411,0.41,0.41,0.41,0.409,0.409,0.408,0.408,0.407,0.407,0.407,0.406,0.406,0.406,0.405,0.405,0.404,0.403,0.403,0.403,0.402,0.402,0.402,0.402,0.401,0.401,0.401,0.4,0.4,0.4,0.399,0.399,0.399,0.399,0.398,0.398,0.398,0.398,0.397,0.396,0.395,0.394,0.394,0.393,0.393,0.393,0.393,0.392,0.391,0.391,0.391,0.391,0.39,0.39,0.39,0.389,0.389,0.389,0.389,0.388,0.387,0.387,0.386,0.385,0.385,0.385,0.385,0.384,0.384,0.384,0.383,0.382,0.382,0.382,0.381,0.381,0.381,0.381,0.381,0.381,0.0,0.0,0.0,0.0,0.0
0.0,0.0,0.0,0.0,0.0,0.0,0.0,0.0,0.0,0.0,0.0,0.0,0.0,0.0,2.328,2.338,2.347,2.347,2.357,2.361,2.371,2.386,2.386,2.381,2.381,2.376,2.371,2.361,2.357,2.352,2.347,2.347,2.342,2.338,2.333,2.328,2.324,2.319,2.319,2.314,2.314,2.314,2.314,2.314,2.319,2.314,2.314,2.314,2.31,2.314,2.31,2.301,2.296,2.287,2.287,2.283,0.0,0.0,0.0,0.0,0.0,0.0,0.0,0.0,0.0,0.0,0.0,0.0,0.0,0.0,0.0,0.0,0.0,0.0,0.0,0.0,0.0,0.0,0.661,0.662,0.662,0.662,0.662,0.662,0.662,0.661,0.662,0.66,0.66,0.66,0.658,0.658,0.657,0.657,0.657,0.656,0.656,0.655,0.655,0.655,0.655,0.654,0.653,0.651,0.649,0.648,0.646,0.645,0.644,0.644,0.644,0.642,0.641,0.638,0.636,0.635,0.634,0.633,0.633,0.632,0.631,0.63,0.629,0.628,0.627,0.626,0.624,0.623,0.622,0.622,0.621,0.62,0.619,0.617,0.616,0.615,0.614,0.614,0.613,0.613,0.613,0.613,0.612,0.612,0.612,0.611,0.611,0.61,0.609,0.607,0.605,0.602,0.601,0.601,0.6,0.599,0.598,0.598,0.597,0.595,0.594,0.593,0.592,0.592,0.59,0.59,0.589,0.587,0.586,0.585,0.584,0.584,0.583,0.582,0.582,0.582,0.581,0.581,0.579,0.579,0.578,0.578,0.578,0.578,0.578,0.577,0.577,0.575,0.575,0.574,0.573,0.572,0.571,0.567,0.566,0.565,0.564,0.564,0.564,0.563,0.563,0.562,0.562,0.561,0.56,0.56,0.559,0.559,0.559,0.559,0.558,0.557,0.557,0.556,0.556,0.555,0.555,0.554,0.554,0.552,0.55,0.549,0.548,0.548,0.547,0.545,0.544,0.542,0.542,0.541,0.54,0.54,0.539,0.539,0.539,0.538,0.538,0.537,0.536,0.535,0.533,0.533,0.532,0.532,0.531,0.531,0.531,0.531,0.53,0.53,0.53,0.529,0.528,0.528,0.527,0.526,0.525,0.524,0.524,0.522,0.522,0.521,0.52,0.519,0.518,0.517,0.517,0.517,0.517,0.516,0.516,0.516,0.516,0.516,0.515,0.514,0.511,0.51,0.51,0.509,0.509,0.508,0.508,0.508,0.507,0.506,0.505,0.504,0.503,0.502,0.502,0.501,0.5,0.499,0.497,0.497,0.496,0.496,0.495,0.495,0.494,0.493,0.492,0.49049999999999994,0.489,0.485,0.485,0.4825,0.0,0.0,0.0,0.0,0.479,0.482,0.478,0.478,0.477,0.476,0.476,0.475,0.475,0.474,0.472,0.47,0.47,0.47,0.47,0.469,0.469,0.469,0.468,0.468,0.468,0.467,0.468,0.467,0.467,0.467,0.467,0.468,0.468,0.46799999999999997,0.469,0.469,0.468,0.468,0.468,0.468,0.467,0.466,0.465,0.464,0.464,0.463,0.461,0.46,0.459,0.458,0.458,0.458,0.458,0.457,0.457,0.457,0.457,0.457,0.457,0.457,0.457,0.457,0.456,0.456,0.456,0.455,0.455,0.455,0.455,0.454,0.454,0.454,0.454,0.454,0.454,0.454,0.453,0.453,0.453,0.452,0.452,0.452,0.452,0.451,0.451,0.45,0.449,0.448,0.448,0.447,0.447,0.446,0.446,0.0,0.0,0.0,0.443,0.442,0.442,0.441,0.441,0.441,0.441,0.441,0.44,0.439,0.438,0.437,0.437,0.436,0.436,0.436,0.436,0.435,0.435,0.435,0.435,0.434,0.433,0.432,0.432,0.431,0.431,0.43,0.43,0.429,0.428,0.427,0.426,0.426,0.426,0.426,0.425,0.425,0.42525,0.425,0.424,0.424,0.423,0.422,0.421,0.421,0.421,0.421,0.421,0.42,0.42,0.42,0.42,0.419,0.419,0.418,0.417,0.417,0.416,0.416,0.416,0.415,0.415,0.414,0.414,0.413,0.412,0.412,0.411,0.411,0.411,0.411,0.411,0.41,0.41,0.41,0.409,0.408,0.408,0.408,0.407,0.407,0.407,0.407,0.406,0.406,0.406,0.405,0.404,0.404,0.403,0.403,0.402,0.402,0.402,0.402,0.401,0.4,0.4,0.4,0.399,0.399,0.399,0.399,0.399,0.398,0.398,0.398,0.398,0.398,0.398,0.398,0.397,0.396,0.395,0.394,0.394,0.393,0.393,0.393,0.392,0.391,0.391,0.39,0.39,0.39,0.389,0.389,0.389,0.389,0.389,0.388,0.388,0.387,0.386,0.386,0.385,0.385,0.385,0.385,0.385,0.384,0.384,0.383,0.382,0.382,0.382,0.381,0.381,0.381,0.381,0.381,0.381,0.381,0.381,0.381,0.0,0.0,0.0,0.0,0.0
0.0,0.0,0.0,0.0,0.0,0.0,0.0,0.0,0.0,0.0,0.0,0.0,0.0,0.0,0.0,2.376,2.405,2.386,2.415,2.441,2.493,2.509,2.504,2.493,2.477,2.466,2.435,2.405,2.381,2.371,2.361,2.357,2.352,2.342,2.342,2.338,2.333,2.333,2.328,2.324,2.324,2.324,2.324,2.324,2.319,2.319,2.319,2.314,2.314,2.314,2.301,2.296,2.296,2.287,2.283,2.283,0.0,0.0,0.0,0.0,0.0,0.0,0.0,0.0,0.0,0.0,0.0,0.0,0.0,0.0,0.0,0.0,0.0,0.0,0.0,0.0,0.0,0.658,0.658,0.658,0.659,0.66,0.659,0.659,0.659,0.659,0.658,0.658,0.657,0.657,0.657,0.656,0.656,0.655,0.655,0.655,0.654,0.653,0.653,0.651,0.649,0.648,0.647,0.646,0.645,0.644,0.644,0.643,0.642,0.64,0.639,0.636,0.635,0.634,0.633,0.633,0.632,0.631,0.63,0.629,0.627,0.626,0.624,0.623,0.623,0.623,0.622,0.622,0.621,0.62,0.618,0.616,0.614,0.614,0.612,0.612,0.612,0.612,0.612,0.612,0.612,0.612,0.612,0.611,0.611,0.61,0.609,0.607,0.605,0.602,0.601,0.6,0.599,0.598,0.597,0.596,0.595,0.594,0.593,0.592,0.592,0.591,0.59,0.589,0.587,0.586,0.585,0.584,0.583,0.583,0.582,0.582,0.581,0.581,0.58,0.578,0.576,0.576,0.575,0.575,0.574,0.574,0.574,0.573,0.573,0.573,0.573,0.573,0.572,0.571,0.569,0.566,0.565,0.564,0.564,0.563,0.562,0.561,0.561,0.56,0.559,0.559,0.558,0.557,0.556,0.556,0.556,0.556,0.556,0.556,0.556,0.556,0.555,0.555,0.554,0.554,0.552,0.551,0.549,0.548,0.547,0.547,0.544,0.543,0.542,0.54,0.54,0.539,0.539,0.539,0.538,0.538,0.537,0.536,0.536,0.535,0.535,0.533,0.532,0.532,0.531,0.531,0.531,0.53,0.53,0.529,0.529,0.528,0.528,0.527,0.527,0.526,0.525,0.525,0.524,0.523,0.522,0.522,0.52,0.519,0.518,0.517,0.517,0.516,0.516,0.516,0.516,0.516,0.516,0.516,0.516,0.515,0.515,0.514,0.511,0.51,0.509,0.509,0.509,0.508,0.508,0.507,0.507,0.506,0.505,0.504,0.503,0.502,0.502,0.502,0.501,0.5,0.499,0.497,0.496,0.496,0.495,0.495,0.495,0.494,0.493,0.492,0.49,0.489,0.488,0.487,0.486,0.485,0.0,0.0,0.0,0.0,0.482,0.482,0.482,0.482,0.48,0.479,0.477,0.477,0.476,0.475,0.474,0.473,0.472,0.471,0.47,0.47,0.47,0.469,0.469,0.469,0.469,0.469,0.469,0.468,0.468,0.468,0.468,0.469,0.469,0.469,0.469,0.469,0.469,0.469,0.469,0.468,0.467,0.466,0.465,0.464,0.464,0.463,0.463,0.461,0.459,0.459,0.458,0.458,0.458,0.457,0.457,0.457,0.457,0.457,0.457,0.457,0.456,0.456,0.456,0.455,0.455,0.455,0.454,0.454,0.454,0.454,0.453,0.453,0.453,0.453,0.453,0.453,0.453,0.452,0.452,0.452,0.452,0.451,0.45,0.449,0.448,0.447,0.447,0.447,0.446,0.446,0.445,0.445,0.444,0.443,0.442,0.442,0.441,0.441,0.441,0.44,0.439,0.438,0.438,0.437,0.436,0.436,0.436,0.436,0.436,0.435,0.435,0.435,0.434,0.434,0.433,0.432,0.432,0.431,0.431,0.431,0.43,0.43,0.429,0.429,0.428,0.426,0.426,0.426,0.425,0.425,0.425,0.424,0.424,0.424,0.424,0.423,0.422,0.421,0.421,0.421,0.42,0.42,0.42,0.42,0.42,0.419,0.418,0.418,0.418,0.417,0.417,0.416,0.416,0.415,0.415,0.415,0.414,0.413,0.412,0.0,0.0,0.411,0.411,0.411,0.41,0.41,0.41,0.409,0.409,0.408,0.408,0.407,0.407,0.407,0.407,0.406,0.406,0.406,0.406,0.406,0.405,0.405,0.404,0.403,0.403,0.402,0.402,0.402,0.401,0.401,0.4,0.4,0.399,0.399,0.399,0.398,0.398,0.398,0.398,0.398,0.398,0.398,0.397,0.397,0.397,0.397,0.396,0.396,0.395,0.394,0.393,0.393,0.393,0.392,0.391,0.391,0.39,0.39,0.39,0.389,0.389,0.389,0.389,0.389,0.388,0.388,0.386,0.386,0.385,0.385,0.385,0.385,0.385,0.385,0.384,0.384,0.383,0.383,0.382,0.381,0.381,0.381,0.381,0.381,0.38,0.381,0.38,0.38,0.38,0.38,0.38,0.38,0.0,0.0,0.0,0.0,0.0
0.0,0.0,0.0,0.0,0.0,0.0,0.0,0.0,0.0,0.0,0.0,0.0,0.0,0.0,0.0,2.4,2.456,2.498,2.514,2.547,2.66125,2.628,2.628,2.57,2.536,2.676,2.559,2.52,2.493,2.451,2.415,2.381,2.361,2.357,2.352,2.347,2.347,2.342,2.342,2.342,2.338,2.338,2.338,2.333,2.328,2.324,2.324,2.319,2.314,2.301,2.296,2.296,2.287,2.283,2.283,2.283,0.0,0.0,0.0,0.0,0.0,0.0,0.0,0.0,0.0,0.0,0.0,0.0,0.0,0.0,0.0,0.0,0.0,0.0,0.0,0.656,0.6565000000000001,0.657,0.65725,0.658,0.658,0.658,0.658,0.657,0.657,0.657,0.657,0.656,0.656,0.655,0.655,0.655,0.654,0.654,0.653,0.653,0.651,0.648,0.647,0.646,0.645,0.644,0.644,0.643,0.642,0.642,0.64,0.639,0.635,0.634,0.634,0.633,0.632,0.632,0.631,0.629,0.628,0.627,0.625,0.623,0.623,0.622,0.622,0.622,0.621,0.621,0.621,0.619,0.617,0.616,0.614,0.613,0.612,0.611,0.611,0.611,0.611,0.611,0.611,0.611,0.611,0.611,0.611,0.61,0.609,0.608,0.605,0.603,0.601,0.599,0.597,0.595,0.594,0.594,0.593,0.592,0.592,0.592,0.592,0.591,0.589,0.588,0.586,0.585,0.584,0.583,0.583,0.582,0.581,0.581,0.58,0.579,0.576,0.575,0.575,0.574,0.574,0.573,0.573,0.573,0.572,0.572,0.571,0.571,0.571,0.57,0.569,0.566,0.565,0.565,0.564,0.56325,0.563,0.562,0.561,0.56,0.559,0.558,0.557,0.556,0.556,0.556,0.555,0.555,0.555,0.555,0.555,0.554,0.555,0.555,0.554,0.554,0.553,0.552,0.551,0.549,0.548,0.547,0.547,0.544,0.542,0.542,0.54,0.539,0.539,0.538,0.538,0.537,0.537,0.536,0.535,0.534,0.533,0.532,0.532,0.532,0.531,0.531,0.531,0.53,0.53,0.529,0.529,0.528,0.527,0.526,0.526,0.525,0.525,0.524,0.524,0.524,0.523,0.522,0.522,0.52,0.519,0.518,0.517,0.517,0.516,0.516,0.516,0.516,0.515,0.515,0.515,0.514,0.514,0.514,0.513,0.511,0.51,0.51,0.509,0.509,0.508,0.508,0.507,0.506,0.505,0.504,0.504,0.503,0.5030000000000001,0.502,0.502,0.502,0.5,0.5,0.499,0.497,0.497,0.496,0.495,0.495,0.495,0.494,0.494,0.493,0.492,0.49,0.489,0.488,0.488,0.487,0.486,0.485,0.484,0.484,0.483,0.483,0.483,0.482,0.482,0.482,0.482,0.48,0.479,0.478,0.476,0.476,0.475,0.474,0.473,0.472,0.471,0.47,0.47,0.47,0.469,0.469,0.469,0.469,0.469,0.469,0.469,0.468,0.468,0.469,0.469,0.469,0.469,0.469,0.468,0.468,0.468,0.467,0.466,0.465,0.464,0.464,0.463,0.463,0.461,0.46,0.459,0.458,0.458,0.458,0.458,0.457,0.457,0.457,0.457,0.457,0.456,0.456,0.456,0.455,0.455,0.455,0.453,0.453,0.453,0.453,0.453,0.453,0.452,0.452,0.452,0.453,0.452,0.452,0.452,0.452,0.452,0.451,0.45,0.449,0.448,0.447,0.0,0.0,0.446,0.445,0.445,0.444,0.443,0.442,0.442,0.441,0.441,0.44,0.439,0.438,0.437,0.437,0.437,0.436,0.436,0.436,0.436,0.435,0.435,0.434,0.434,0.433,0.432,0.432,0.431,0.431,0.431,0.431,0.431,0.43,0.43,0.429,0.428,0.427,0.427,0.426,0.425,0.425,0.425,0.425,0.424,0.424,0.423,0.423,0.422,0.422,0.421,0.421,0.42,0.42,0.42,0.419,0.419,0.418,0.418,0.418,0.417,0.417,0.417,0.416,0.416,0.416,0.416,0.416,0.415,0.414,0.413,0.412,0.412,0.411,0.411,0.0,0.0,0.409,0.409,0.408,0.408,0.408,0.408,0.407,0.407,0.407,0.407,0.406,0.406,0.406,0.406,0.406,0.405,0.404,0.404,0.404,0.404,0.403,0.402,0.402,0.402,0.402,0.401,0.399,0.399,0.399,0.398,0.398,0.398,0.398,0.398,0.397,0.397,0.397,0.397,0.397,0.397,0.397,0.396,0.396,0.395,0.395,0.394,0.394,0.393,0.393,0.393,0.392,0.391,0.39,0.39,0.389,0.389,0.389,0.389,0.389,0.388,0.388,0.387,0.386,0.386,0.385,0.385,0.385,0.385,0.384,0.384,0.384,0.383,0.383,0.382,0.382,0.381,0.381,0.381,0.381,0.381,0.38,0.38,0.38,0.38,0.38,0.379,0.379,0.379,0.379,0.379,0.379,0.0,0.0,0.0,0.0,0.0
0.0,0.0,0.0,0.0,0.0,0.0,0.0,0.0,0.0,0.0,0.0,0.0,3.475,0.0,0.0,2.907,2.9105,2.973625,3.216,3.146,2.977,2.896,2.882,2.86,2.819,2.765,2.6797500000000003,2.576,2.52,2.487,2.435,2.39,2.381,2.361,2.357,2.357,2.347,2.347,2.342,2.342,2.342,2.338,2.338,2.338,2.333,2.328,2.324,2.314,2.31,2.301,2.296,2.283,2.283,2.278,2.278,2.269,0.0,0.0,0.0,0.0,0.0,0.0,0.0,0.0,0.0,0.0,0.0,0.0,0.0,0.0,0.0,0.0,0.654,0.654,0.655,0.655,0.655,0.655,0.656,0.656,0.656,0.656,0.656,0.656,0.656,0.655,0.655,0.655,0.655,0.654,0.653,0.653,0.652,0.651,0.65,0.647,0.646,0.645,0.644,0.644,0.643,0.642,0.641,0.64,0.639,0.638,0.635,0.634,0.633,0.632,0.632,0.631,0.629,0.627,0.626,0.624,0.623,0.622,0.622,0.621,0.621,0.62,0.619,0.617,0.617,0.616,0.614,0.613,0.612,0.611,0.611,0.611,0.61,0.61,0.609,0.609,0.61,0.61,0.611,0.61,0.61,0.61,0.609,0.608,0.606,0.603,0.601,0.599,0.597,0.595,0.593,0.592,0.592,0.592,0.592,0.591,0.591,0.59,0.589,0.587,0.586,0.584,0.584,0.583,0.582,0.582,0.581,0.58,0.579,0.577,0.575,0.574,0.573,0.573,0.573,0.572,0.572,0.571,0.571,0.57,0.569,0.568,0.566,0.566,0.565,0.565,0.564,0.563,0.563,0.562,0.561,0.56,0.559,0.558,0.558,0.557,0.556,0.555,0.555,0.555,0.554,0.554,0.553,0.553,0.552,0.551,0.551,0.551,0.551,0.551,0.55,0.549,0.549,0.548,0.548,0.547,0.547,0.544,0.542,0.54,0.539,0.539,0.538,0.538,0.536,0.535,0.535,0.534,0.533,0.532,0.532,0.531,0.531,0.531,0.53,0.53,0.53,0.529,0.528,0.527,0.527,0.526,0.526,0.525,0.525,0.525,0.524,0.524,0.523,0.522,0.522,0.521,0.52,0.519,0.518,0.517,0.517,0.516,0.516,0.516,0.515,0.515,0.514,0.514,0.514,0.513,0.513,0.511,0.511,0.51,0.509,0.509,0.509,0.508,0.507,0.507,0.506,0.504,0.504,0.503,0.503,0.502,0.502,0.502,0.502,0.5,0.5,0.499,0.498,0.497,0.496,0.496,0.495,0.495,0.495,0.495,0.494,0.493,0.493,0.492,0.49,0.489,0.488,0.488,0.487,0.485,0.485,0.483,0.483,0.483,0.482,0.482,0.482,0.482,0.482,0.482,0.48,0.479,0.478,0.477,0.476,0.475,0.475,0.474,0.473,0.472,0.471,0.47,0.47,0.47,0.469,0.469,0.469,0.469,0.469,0.469,0.469,0.468,0.468,0.468,0.468,0.468,0.468,0.467,0.467,0.467,0.467,0.465,0.465,0.464,0.463,0.463,0.463,0.461,0.46,0.459,0.458,0.458,0.458,0.457,0.457,0.457,0.457,0.456,0.456,0.456,0.455,0.455,0.454,0.453,0.453,0.453,0.452,0.452,0.452,0.452,0.452,0.452,0.452,0.452,0.452,0.452,0.451,0.451,0.451,0.451,0.449,0.448,0.447,0.446,0.446,0.4445,0.0,0.0,0.443,0.442,0.442,0.442,0.441,0.441,0.441,0.44,0.438,0.437,0.436,0.436,0.436,0.436,0.436,0.435,0.435,0.435,0.434,0.433,0.432,0.432,0.431,0.431,0.431,0.431,0.43,0.43,0.43,0.43,0.429,0.428,0.427,0.426,0.426,0.425,0.425,0.425,0.424,0.423,0.423,0.422,0.422,0.422,0.421,0.421,0.421,0.421,0.42,0.42,0.419,0.418,0.418,0.418,0.417,0.417,0.416,0.416,0.416,0.416,0.416,0.415,0.415,0.415,0.414,0.413,0.412,0.412,0.411,0.411,0.411,0.41,0.409,0.408,0.408,0.407,0.407,0.407,0.407,0.407,0.407,0.406,0.406,0.406,0.406,0.405,0.405,0.404,0.404,0.404,0.403,0.403,0.403,0.403,0.402,0.402,0.402,0.401,0.401,0.399,0.398,0.398,0.398,0.398,0.397,0.397,0.397,0.397,0.397,0.397,0.397,0.396,0.395,0.395,0.394,0.394,0.394,0.394,0.393,0.393,0.393,0.393,0.392,0.391,0.39,0.389,0.389,0.389,0.389,0.389,0.389,0.388,0.388,0.387,0.386,0.385,0.385,0.385,0.385,0.385,0.384,0.384,0.383,0.383,0.382,0.382,0.381,0.381,0.381,0.381,0.381,0.381,0.38,0.38,0.379,0.379,0.379,0.378,0.378,0.378,0.378,0.378,0.378,0.378,0.378,0.378,0.0,0.0,0.0,0.0,0.0
0.0,0.0,0.0,0.0,0.0,0.0,0.0,0.0,0.0,0.0,3.475,3.475,3.465,3.454,3.444,3.414,3.365,3.27,3.225,3.181,3.104,3.055,3.024,2.97,2.925,2.896,2.819,2.714,2.559,2.509,2.472,2.415,2.386,2.371,2.361,2.357,2.357,2.347,2.347,2.347,2.342,2.342,2.338,2.338,2.333,2.324,2.324,2.314,2.31,2.301,2.287,2.283,2.269,2.265,2.265,2.265,0.0,0.0,0.0,0.0,0.0,0.0,0.0,0.0,0.0,0.0,0.0,0.0,0.0,0.0,0.647,0.647,0.648,0.65,0.65,0.651,0.651,0.652,0.651,0.652,0.652,0.651,0.65,0.65,0.649,0.649,0.648,0.647,0.646,0.645,0.644,0.644,0.643,0.643,0.642,0.641,0.64,0.643,0.642,0.641,0.64,0.639,0.6365000000000001,0.635,0.634,0.633,0.633,0.632,0.631,0.63,0.628,0.626,0.624,0.623,0.622,0.621,0.621,0.62,0.619,0.618,0.616,0.615,0.614,0.613,0.612,0.612,0.611,0.61,0.609,0.608,0.608,0.607,0.607,0.607,0.607,0.608,0.609,0.609,0.609,0.609,0.608,0.607,0.606,0.603,0.602,0.599,0.597,0.594,0.593,0.592,0.591,0.591,0.59,0.59,0.589,0.588,0.586,0.586,0.585,0.584,0.583,0.582,0.582,0.581,0.581,0.58,0.579,0.575,0.574,0.573,0.573,0.573,0.572,0.571,0.57,0.569,0.568,0.568,0.566,0.565,0.565,0.564,0.564,0.564,0.563,0.563,0.562,0.561,0.56,0.559,0.558,0.557,0.556,0.556,0.556,0.556,0.555,0.554,0.553,0.552,0.551,0.55,0.549,0.549,0.548,0.548,0.548,0.548,0.548,0.548,0.547,0.547,0.547,0.547,0.546,0.543,0.542,0.54,0.539,0.539,0.538,0.536,0.535,0.534,0.532,0.532,0.531,0.531,0.531,0.531,0.53,0.53,0.529,0.528,0.527,0.527,0.527,0.526,0.525,0.525,0.524,0.524,0.524,0.524,0.523,0.523,0.522,0.522,0.521,0.519,0.519,0.518,0.517,0.517,0.516,0.516,0.516,0.515,0.514,0.514,0.514,0.513,0.511,0.511,0.51,0.51,0.51,0.509,0.509,0.508,0.508,0.507,0.506,0.505,0.504,0.5035000000000001,0.502,0.502,0.502,0.502,0.501,0.5,0.499,0.499,0.499,0.497,0.497,0.496,0.496,0.495,0.495,0.495,0.494,0.493,0.493,0.493,0.492,0.492,0.49,0.49,0.489,0.488,0.487,0.486,0.485,0.484,0.483,0.482,0.482,0.482,0.482,0.481,0.481,0.481,0.48,0.479,0.478,0.477,0.477,0.476,0.475,0.475,0.474,0.473,0.472,0.47,0.47,0.47,0.469,0.469,0.469,0.469,0.468,0.468,0.468,0.468,0.468,0.467,0.467,0.467,0.467,0.467,0.466,0.466,0.465,0.465,0.464,0.464,0.464,0.463,0.463,0.461,0.46,0.459,0.458,0.458,0.458,0.457,0.457,0.457,0.456,0.456,0.455,0.455,0.454,0.453,0.453,0.453,0.452,0.452,0.452,0.452,0.452,0.452,0.451,0.451,0.451,0.45,0.45,0.45,0.4495,0.449,0.448,0.448,0.448,0.448,0.447,0.447,0.445,0.444,0.443,0.442,0.442,0.442,0.441,0.441,0.441,0.441,0.44,0.44,0.438,0.437,0.436,0.436,0.436,0.435,0.435,0.435,0.435,0.434,0.433,0.432,0.431,0.431,0.431,0.431,0.43,0.43,0.43,0.429,0.429,0.428,0.428,0.427,0.426,0.425,0.425,0.425,0.425,0.424,0.423,0.422,0.422,0.421,0.421,0.421,0.421,0.42,0.42,0.42,0.419,0.419,0.418,0.418,0.417,0.417,0.417,0.416,0.416,0.416,0.415,0.415,0.415,0.415,0.414,0.413,0.413,0.412,0.411,0.411,0.411,0.411,0.41,0.409,0.408,0.407,0.407,0.407,0.406,0.406,0.406,0.406,0.406,0.406,0.406,0.405,0.405,0.404,0.404,0.403,0.403,0.403,0.402,0.402,0.402,0.402,0.402,0.402,0.401,0.401,0.4,0.399,0.398,0.398,0.397,0.397,0.397,0.397,0.397,0.397,0.396,0.396,0.395,0.394,0.394,0.394,0.394,0.393,0.393,0.393,0.393,0.393,0.392,0.392,0.391,0.391,0.389,0.389,0.389,0.389,0.389,0.388,0.388,0.388,0.387,0.386,0.385,0.385,0.385,0.385,0.384,0.384,0.384,0.384,0.383,0.383,0.382,0.381,0.381,0.381,0.381,0.381,0.38,0.38,0.38,0.379,0.379,0.378,0.378,0.378,0.377,0.377,0.377,0.377,0.377,0.377,0.377,0.377,0.377,0.0,0.0,0.0,0.0,0.0,0.0
0.0,0.0,0.0,0.0,0.0,0.0,0.0,0.0,0.0,0.0,3.465,3.465,3.465,3.454,3.444,3.414,3.384,3.288,3.243,3.198,3.181,3.163,3.138,3.08,3.047,3.0,2.903,2.819,2.678,2.542,2.498,2.451,2.405,2.39,2.371,2.361,2.357,2.357,2.352,2.347,2.347,2.342,2.338,2.338,2.333,2.328,2.324,2.314,2.301,2.296,2.287,2.278,2.269,2.265,0.0,0.0,0.0,0.0,0.0,0.0,0.0,0.0,0.0,0.0,0.0,0.0,0.0,0.0,0.0,0.645,0.645,0.646,0.647,0.647,0.647,0.648,0.648,0.648,0.648,0.648,0.647,0.646,0.646,0.646,0.645,0.645,0.644,0.643,0.642,0.642,0.64,0.64,0.639,0.638,0.636,0.635,0.635,0.634,0.633,0.633,0.632,0.632,0.631,0.629,0.628,0.627,0.626,0.624,0.623,0.622,0.621,0.619,0.617,0.616,0.614,0.614,0.617,0.616,0.614,0.613,0.612,0.612,0.611,0.61,0.608,0.607,0.606,0.605,0.604,0.603,0.603,0.603,0.603,0.603,0.603,0.604,0.604,0.605,0.604,0.604,0.603,0.602,0.602,0.599,0.597,0.594,0.592,0.592,0.591,0.59,0.587,0.587,0.586,0.586,0.585,0.584,0.584,0.583,0.583,0.582,0.582,0.581,0.58,0.579,0.576,0.575,0.574,0.573,0.572,0.571,0.571,0.57,0.568,0.566,0.566,0.565,0.565,0.564,0.564,0.564,0.563,0.563,0.562,0.562,0.561,0.559,0.558,0.557,0.556,0.556,0.555,0.554,0.554,0.554,0.553,0.552,0.551,0.55,0.549,0.548,0.548,0.547,0.547,0.547,0.547,0.547,0.547,0.546,0.546,0.546,0.545,0.0,0.5435000000000001,0.541,0.54,0.539,0.539,0.538,0.537,0.535,0.534,0.532,0.532,0.531,0.531,0.53,0.53,0.529,0.529,0.528,0.527,0.527,0.526,0.525,0.525,0.524,0.524,0.524,0.523,0.523,0.523,0.523,0.523,0.522,0.521,0.52,0.519,0.518,0.518,0.517,0.516,0.516,0.516,0.515,0.514,0.514,0.513,0.512,0.512,0.511,0.51,0.51,0.509,0.509,0.509,0.509,0.508,0.508,0.506,0.505,0.504,0.504,0.503,0.502,0.502,0.501,0.5,0.499,0.499,0.498,0.497,0.497,0.496,0.496,0.496,0.495,0.495,0.495,0.494,0.494,0.493,0.493,0.492,0.491,0.491,0.491,0.49,0.489,0.489,0.488,0.487,0.486,0.485,0.483,0.482,0.482,0.482,0.482,0.481,0.481,0.481,0.48,0.479,0.478,0.478,0.477,0.477,0.476,0.476,0.475,0.474,0.473,0.472,0.47,0.47,0.47,0.469,0.469,0.469,0.468,0.468,0.468,0.467,0.467,0.467,0.467,0.466,0.466,0.465,0.465,0.465,0.465,0.465,0.464,0.464,0.463,0.463,0.463,0.461,0.46,0.459,0.459,0.458,0.458,0.457,0.457,0.457,0.456,0.455,0.455,0.455,0.455,0.453,0.453,0.453,0.452,0.452,0.452,0.452,0.451,0.451,0.45,0.449,0.449,0.448,0.448,0.447,0.447,0.447,0.4475,0.44725000000000004,0.447,0.446,0.446,0.446,0.446,0.444,0.443,0.442,0.441,0.441,0.441,0.441,0.44,0.44,0.438,0.438,0.438,0.437,0.436,0.436,0.436,0.436,0.435,0.435,0.434,0.433,0.433,0.432,0.431,0.431,0.431,0.431,0.43,0.43,0.429,0.429,0.428,0.427,0.427,0.426,0.426,0.426,0.425,0.425,0.424,0.423,0.422,0.422,0.422,0.421,0.421,0.421,0.42,0.42,0.42,0.42,0.419,0.418,0.418,0.418,0.417,0.417,0.416,0.416,0.416,0.416,0.415,0.415,0.414,0.413,0.413,0.412,0.412,0.411,0.411,0.411,0.411,0.411,0.41,0.41,0.409,0.407,0.407,0.407,0.406,0.406,0.406,0.406,0.405,0.405,0.405,0.405,0.404,0.404,0.403,0.403,0.402,0.402,0.402,0.402,0.402,0.402,0.401,0.401,0.401,0.4,0.4,0.399,0.0,0.0,0.397,0.397,0.397,0.396,0.396,0.396,0.395,0.395,0.395,0.394,0.394,0.393,0.393,0.39275,0.393,0.392,0.392,0.392,0.391,0.391,0.39,0.39,0.389,0.389,0.389,0.388,0.388,0.388,0.387,0.386,0.387,0.386,0.386,0.385,0.385,0.384,0.384,0.384,0.383,0.382,0.382,0.382,0.382,0.381,0.381,0.381,0.38,0.38,0.38,0.38,0.379,0.379,0.378,0.378,0.378,0.377,0.377,0.377,0.377,0.377,0.376,0.376,0.376,0.376,0.0,0.0,0.376,0.376,0.0,0.0,0.0,0.0,0.0,0.0
0.0,0.0,0.0,0.0,0.0,0.0,0.0,0.0,0.0,3.465,3.465,3.465,3.465,3.454,3.444,3.414,3.384,3.288,3.243,3.216,3.189,3.181,3.163,3.155,3.138,3.113,3.047,2.903,2.792,2.64675,2.52,2.477,2.43,2.405,2.39,2.371,2.361,2.357,2.357,2.352,2.347,2.342,2.342,2.338,2.333,2.328,2.324,2.314,2.301,2.287,2.283,2.269,0.0,0.0,0.0,0.0,0.0,0.0,0.0,0.0,0.0,0.0,0.0,0.0,0.0,0.0,0.0,0.0,0.643,0.644,0.644,0.644,0.644,0.645,0.645,0.645,0.645,0.645,0.645,0.645,0.644,0.644,0.644,0.644,0.642,0.641,0.64,0.639,0.637,0.636,0.635,0.634,0.634,0.633,0.633,0.632,0.632,0.63,0.629,0.629,0.629,0.627,0.626,0.624,0.623,0.623,0.622,0.622,0.621,0.617,0.615,0.614,0.613,0.612,0.612,0.611,0.611,0.611,0.61,0.607,0.605,0.603,0.602,0.601,0.601,0.6,0.6,0.599,0.599,0.599,0.6,0.6,0.601,0.601,0.602,0.602,0.602,0.602,0.601,0.601,0.601,0.598,0.596,0.59325,0.592,0.592,0.59,0.589,0.586,0.585,0.584,0.584,0.584,0.583,0.583,0.583,0.582,0.582,0.581,0.581,0.58,0.578,0.575,0.574,0.573,0.572,0.571,0.57,0.569,0.567,0.566,0.565,0.565,0.564,0.564,0.563,0.563,0.563,0.562,0.561,0.561,0.559,0.559,0.557,0.557,0.556,0.556,0.555,0.555,0.553,0.552,0.551,0.551,0.55,0.549,0.549,0.548,0.548,0.547,0.547,0.547,0.546,0.546,0.544,0.543,0.543,0.542,0.542,0.542,0.541,0.542,0.541,0.54,0.539,0.538,0.538,0.536,0.534,0.532,0.531,0.531,0.53,0.53,0.529,0.528,0.527,0.527,0.526,0.525,0.525,0.525,0.524,0.524,0.523,0.523,0.523,0.523,0.523,0.522,0.521,0.521,0.52,0.519,0.519,0.0,0.0,0.516,0.516,0.516,0.514,0.514,0.514,0.513,0.511,0.51,0.51,0.509,0.509,0.509,0.509,0.509,0.509,0.508,0.508,0.507,0.506,0.505,0.505,0.5035000000000001,0.502,0.502,0.502,0.5,0.499,0.499,0.497,0.496,0.496,0.496,0.495,0.495,0.495,0.495,0.495,0.495,0.494,0.494,0.493,0.492,0.492,0.491,0.491,0.491,0.49,0.489,0.489,0.489,0.488,0.488,0.487,0.485,0.4835,0.482,0.482,0.482,0.481,0.481,0.48,0.479,0.478,0.478,0.477,0.477,0.476,0.476,0.476,0.475,0.475,0.474,0.473,0.472,0.471,0.47,0.47,0.469,0.469,0.469,0.468,0.468,0.467,0.466,0.466,0.465,0.465,0.465,0.465,0.464,0.464,0.464,0.464,0.464,0.463,0.463,0.463,0.463,0.462,0.461,0.46,0.459,0.458,0.458,0.457,0.457,0.457,0.456,0.455,0.454,0.454,0.453,0.453,0.453,0.453,0.452,0.452,0.452,0.452,0.451,0.45,0.45,0.449,0.448,0.448,0.447,0.447,0.447,0.446,0.446,0.446,0.445,0.445,0.445,0.444,0.443,0.4435,0.4435,0.442625,0.441,0.441,0.44,0.44,0.439,0.438,0.437,0.437,0.436,0.436,0.436,0.436,0.436,0.435,0.435,0.434,0.434,0.433,0.432,0.432,0.431,0.431,0.431,0.43,0.43,0.43,0.429,0.429,0.428,0.427,0.426,0.426,0.426,0.425,0.425,0.425,0.424,0.424,0.423,0.422,0.422,0.421,0.421,0.421,0.42,0.42,0.42,0.419,0.418,0.418,0.417,0.417,0.417,0.416,0.416,0.416,0.416,0.415,0.415,0.415,0.414,0.414,0.412,0.412,0.411,0.411,0.411,0.411,0.411,0.41,0.41,0.409,0.409,0.407,0.407,0.407,0.406,0.406,0.406,0.405,0.405,0.405,0.404,0.404,0.403,0.403,0.403,0.402,0.402,0.402,0.402,0.402,0.401,0.401,0.401,0.401,0.4,0.4,0.4,0.399,0.398,0.398,0.0,0.0,0.0,0.3955,0.395,0.395,0.394,0.394,0.394,0.394,0.394,0.393,0.393,0.393,0.392,0.392,0.391,0.391,0.3905,0.38975000000000004,0.389,0.389,0.389,0.389,0.389,0.388,0.387,0.387,0.386,0.386,0.386,0.385,0.385,0.385,0.385,0.384,0.384,0.383,0.38250000000000006,0.382,0.382,0.381,0.381,0.381,0.381,0.381,0.38,0.38,0.379,0.379,0.378,0.378,0.378,0.378,0.377,0.377,0.377,0.377,0.377,0.377,0.376,0.376,0.375,0.375,0.374,0.374,0.374,0.0,0.0,0.374,0.374,0.0,0.0,0.0,0.0,0.0,0.0
