4.426,4.426,4.46,4.477,4.512,4.53,4.565,4.583,4.601,4.601,4.638,4.601,4.638,4.601,4.601,4.601,4.583,4.583,4.565,4.53,4.512,4.477,4.46,4.426,4.41,4.376,4.36,0.0,0.0,0.0,0.0,0.0,4.249,4.233,4.233,4.233,4.218,4.188,4.173,4.158,4.128,4.114,0.0,0.0,0.0,0.0,0.0,0.0,0.0,0.0,0.0,0.0,0.0,0.0,0.0,2.689,2.61,2.57,2.531,2.514,2.509,2.509,2.504,2.504,2.504,2.498,2.498,2.498,2.493,2.493,2.487,2.482,2.482,2.477,2.482,2.487,2.498,2.514,2.5225,2.531,2.57,2.646,2.695,2.7601250000000004,2.819,2.889,2.918,2.9505,2.962,3.039,3.104,3.146,3.172,3.198,3.225,3.261,3.298,3.326,3.317,3.317,3.317,3.326,3.336,0.0,0.0,0.0,0.0,0.0,0.0,0.0,0.0,0.0,0.0,0.0,0.0,0.0,0.0,0.0,0.72,0.72,0.72,0.721,0.721,0.721,0.721,0.721,0.722,0.721,0.721,0.721,0.721,0.72,0.72,0.72,0.72,0.719,0.717,0.716,0.715,0.714,0.712,0.712,0.71,0.709,0.708,0.707,0.706,0.706,0.705,0.703,0.7,0.698,0.697,0.695,0.694,0.693,0.693,0.693,0.692,0.691,0.689,0.687,0.684,0.682,0.681,0.681,0.68,0.68,0.68,0.68,0.679,0.678,0.678,0.677,0.675,0.674,0.672,0.67,0.669,0.668,0.667,0.666,0.665,0.663,0.661,0.66,0.658,0.657,0.657,0.655,0.655,0.655,0.654,0.652,0.651,0.65,0.649,0.649,0.648,0.647,0.646,0.646,0.646,0.645,0.644,0.644,0.642,0.64,0.636,0.634,0.633,0.632,0.63,0.628,0.627,0.626,0.625,0.624,0.623,0.623,0.623,0.623,0.622,0.622,0.622,0.621,0.621,0.62,0.619,0.618,0.616,0.615,0.614,0.613,0.612,0.612,0.611,0.611,0.61,0.61,0.609,0.608,0.605,0.605,0.603,0.603,0.602,0.602,0.601,0.601,0.601,0.6,0.6,0.599,0.598,0.599,0.598,0.0,0.0,0.0,0.0,0.0,0.0,0.0,0.0,0.483,0.482,0.478,0.477,0.476,0.475,0.474,0.473,0.472,0.471,0.47,0.469,0.469,0.469,0.468,0.467,0.466,0.465,0.465,0.464,0.464,0.463,0.463,0.463,0.46,0.459,0.458,0.458,0.457,0.457,0.456,0.456,0.455,0.455,0.454,0.454,0.454,0.453,0.453,0.453,0.453,0.453,0.453,0.452,0.452,0.452,0.452,0.452,0.452,0.451,0.451,0.451,0.45,0.45,0.449,0.448,0.447,0.447,0.447,0.446,0.446,0.445,0.443,0.442,0.442,0.441,0.441,0.441,0.441,0.44,0.44,0.44,0.439,0.439,0.438,0.437,0.437,0.436,0.436,0.436,0.435,0.435,0.435,0.435,0.434,0.434,0.433,0.433,0.432,0.431,0.431,0.431,0.43,0.43,0.429,0.428,0.427,0.427,0.426,0.426,0.426,0.426,0.425,0.425,0.425,0.425,0.425,0.424,0.424,0.424,0.424,0.423,0.423,0.422,0.422,0.422,0.422,0.422,0.422,0.422,0.422,0.422,0.421,0.422,0.421,0.421,0.421,0.421,0.421,0.421,0.421,0.421,0.421,0.421,0.421,0.421,0.421,0.421,0.421,0.421,0.421,0.421,0.42,0.42,0.42,0.42,0.419,0.418,0.418,0.417,0.417,0.417,0.417,0.417,0.417,0.417,0.417,0.417,0.417,0.417,0.417,0.417,0.417,0.417,0.417,0.417,0.417,0.418,0.418,0.419,0.419,0.42,0.42,0.42,0.42,0.42,0.42,0.42,0.42,0.42,0.42,0.42,0.42,0.0,0.0,0.0,0.0,0.0,0.0,0.0,0.0,0.0,0.0,0.426,0.425,0.425,0.425,0.425,0.425,0.425,0.425,0.425,0.424,0.425,0.425,0.425,0.425,0.425,0.426,0.426,0.428,0.429,0.42924999999999996,0.43,0.432,0.434,0.436,0.438,0.441,0.444,0.446,0.446,0.446,0.446,0.447,0.447,0.447,0.447,0.447,0.446,0.446,0.446,0.446,0.445,0.444,0.444,0.442,0.442,0.442,0.442,0.441,0.441,0.441,0.441,0.44,0.44,0.439,0.437,0.436,0.436,0.436,0.435,0.435,0.434,0.434,0.434,0.433,0.433,0.432,0.431,0.431,0.431,0.43,0.43,0.429,0.428,0.427,0.426,0.424,0.422,0.421,0.42,0.418,0.417,0.416,0.416,0.415,0.41324999999999995,0.412,0.411,0.411,0.411,0.4105,0.41,0.0
4.426,4.426,4.46,4.46,4.477,4.512,4.53,4.53,4.565,4.565,4.565,4.565,4.565,4.53,4.53,4.512,4.512,4.46,4.46,4.426,4.41,4.376,4.36,4.344,4.328,4.312,4.28,4.264,4.218,4.188,4.128,4.128,4.114,4.085,4.085,4.114,4.114,4.07,4.056,4.028,3.987,3.987,0.0,0.0,0.0,0.0,0.0,0.0,0.0,0.0,0.0,0.0,0.0,0.0,0.0,2.8145,2.7547499999999996,2.695,2.604,2.542,2.525,2.52,2.509,2.509,2.509,2.504,2.504,2.504,2.498,2.498,2.498,2.493,2.487,2.482,2.482,2.482,2.487,2.498,2.509,2.525,2.542,2.553,2.61,2.676,2.707,2.739,2.805,2.867,2.903,2.932,2.97725,2.977,3.055,3.121,3.146,3.172,3.189,3.225,3.243,3.27,3.298,0.0,0.0,0.0,0.0,0.0,0.0,0.0,0.0,0.0,0.0,0.0,0.0,0.0,0.0,0.0,0.0,0.719,0.719,0.72,0.72,0.72,0.72,0.72,0.72,0.72,0.72,0.72,0.72,0.72,0.719,0.719,0.719,0.719,0.718,0.715,0.713,0.711,0.71,0.709,0.708,0.708,0.706,0.706,0.706,0.704,0.703,0.699,0.696,0.695,0.694,0.694,0.693,0.693,0.692,0.69,0.69,0.688,0.687,0.683,0.681,0.68,0.68,0.679,0.679,0.678,0.676,0.676,0.676,0.674,0.673,0.672,0.671,0.67,0.669,0.668,0.667,0.667,0.666,0.664,0.663,0.661,0.66,0.658,0.657,0.656,0.655,0.655,0.654,0.652,0.651,0.65,0.649,0.648,0.648,0.647,0.646,0.646,0.645,0.645,0.645,0.645,0.644,0.644,0.642,0.64,0.635,0.634,0.633,0.631,0.629,0.627,0.625,0.624,0.623,0.623,0.622,0.621,0.621,0.621,0.621,0.621,0.621,0.62,0.619,0.618,0.618,0.616,0.614,0.614,0.612,0.612,0.611,0.611,0.61,0.609,0.609,0.608,0.606,0.605,0.604,0.603,0.603,0.602,0.602,0.601,0.601,0.6,0.599,0.598,0.598,0.597,0.596,0.595,0.594,0.0,0.0,0.0,0.0,0.0,0.0,0.0,0.0,0.0,0.485,0.483,0.482,0.481,0.478,0.476,0.476,0.475,0.474,0.473,0.472,0.471,0.47,0.469,0.469,0.468,0.467,0.467,0.465,0.465,0.464,0.464,0.464,0.463,0.463,0.462,0.459,0.458,0.458,0.458,0.457,0.457,0.456,0.456,0.456,0.455,0.455,0.454,0.454,0.454,0.453,0.453,0.453,0.453,0.453,0.453,0.452,0.452,0.452,0.452,0.452,0.452,0.451,0.451,0.451,0.449,0.449,0.448,0.447,0.447,0.447,0.446,0.446,0.445,0.443,0.442,0.442,0.441,0.441,0.441,0.441,0.44,0.44,0.44,0.439,0.438,0.438,0.437,0.436,0.436,0.436,0.436,0.435,0.435,0.435,0.435,0.434,0.434,0.433,0.433,0.432,0.431,0.431,0.431,0.431,0.43,0.43,0.428,0.427,0.427,0.427,0.426,0.426,0.426,0.426,0.426,0.425,0.425,0.425,0.425,0.425,0.424,0.424,0.423,0.423,0.423,0.423,0.423,0.423,0.423,0.423,0.423,0.423,0.422,0.422,0.422,0.422,0.422,0.422,0.422,0.422,0.422,0.422,0.422,0.422,0.422,0.422,0.421,0.421,0.421,0.421,0.421,0.421,0.421,0.421,0.42,0.42,0.42,0.419,0.419,0.418,0.418,0.417,0.417,0.417,0.417,0.417,0.417,0.417,0.417,0.417,0.417,0.417,0.418,0.417,0.418,0.418,0.418,0.418,0.419,0.419,0.42,0.42,0.42,0.42,0.42,0.421,0.42,0.42,0.42,0.42,0.42,0.42,0.421,0.0,0.0,0.0,0.0,0.0,0.0,0.0,0.0,0.0,0.0,0.0,0.0,0.425,0.425,0.425,0.425,0.425,0.425,0.425,0.425,0.425,0.425,0.425,0.426,0.427,0.428,0.42825,0.429,0.43,0.431,0.432,0.435,0.436,0.0,0.439,0.441,0.443,0.445,0.446,0.446,0.446,0.446,0.446,0.446,0.446,0.446,0.446,0.445,0.444,0.444,0.442,0.442,0.442,0.441,0.441,0.441,0.441,0.441,0.441,0.44,0.439,0.439,0.438,0.436,0.436,0.436,0.435,0.435,0.434,0.433,0.433,0.432,0.432,0.431,0.431,0.431,0.431,0.43,0.43,0.429,0.429,0.427,0.427,0.426,0.425,0.425,0.424,0.422,0.421,0.42,0.42,0.418,0.417,0.416,0.415,0.415,0.414,0.412,0.412,0.41174999999999995,0.4115,0.0
4.426,4.426,4.46,4.46,4.46,4.477,4.477,4.512,4.512,4.512,4.477,4.477,4.46,4.46,4.426,4.41,4.393,4.393,4.36,4.344,4.328,4.328,4.312,4.296,4.28,4.264,4.249,4.188,4.173,4.128,4.085,4.07,4.07,4.056,4.056,4.056,4.056,4.014,3.973,3.973,3.946,3.92,0.0,0.0,0.0,0.0,0.0,0.0,0.0,0.0,0.0,3.198,3.163,3.138,3.096,2.94,2.929375,2.8181874999999996,2.707,2.587,2.547,2.525,2.52,2.514,2.514,2.509,2.504,2.504,2.504,2.498,2.498,2.498,2.493,2.487,2.482,2.477,2.482,2.493,2.498,2.504,2.52,2.542,2.562,2.576,2.628,2.67,2.695,2.726,2.7925,2.831875,2.896,2.925,2.97,3.0082500000000003,3.024,3.08,3.146,3.163,3.189,0.0,0.0,0.0,0.0,0.0,0.0,0.0,0.0,0.0,0.0,0.0,0.0,0.0,0.0,0.0,0.0,0.716,0.717,0.717,0.718,0.719,0.719,0.719,0.718,0.719,0.719,0.718,0.719,0.719,0.718,0.718,0.718,0.717,0.715,0.714,0.712,0.71,0.709,0.708,0.707,0.706,0.706,0.705,0.704,0.702,0.7,0.697,0.695,0.694,0.693,0.693,0.692,0.691,0.69,0.688,0.687,0.684,0.682,0.681,0.68,0.68,0.678,0.677,0.676,0.674,0.673,0.672,0.671,0.67,0.669,0.669,0.668,0.667,0.667,0.665,0.664,0.663,0.662,0.661,0.659,0.658,0.657,0.657,0.656,0.655,0.655,0.654,0.651,0.65,0.648,0.647,0.646,0.645,0.645,0.645,0.644,0.644,0.644,0.644,0.644,0.643,0.643,0.642,0.641,0.639,0.634,0.633,0.632,0.631,0.629,0.628,0.625,0.623,0.622,0.622,0.621,0.62,0.619,0.619,0.618,0.618,0.617,0.617,0.617,0.616,0.615,0.614,0.614,0.612,0.612,0.611,0.611,0.61,0.609,0.608,0.606,0.605,0.604,0.603,0.603,0.602,0.602,0.601,0.601,0.601,0.6,0.599,0.598,0.597,0.595,0.594,0.594,0.593,0.593,0.592,0.591,0.0,0.0,0.0,0.0,0.0,0.0,0.0,0.0,0.0,0.485,0.483,0.482,0.481,0.478,0.477,0.476,0.475,0.474,0.473,0.473,0.471,0.47,0.469,0.469,0.468,0.468,0.467,0.466,0.465,0.465,0.464,0.464,0.463,0.463,0.462,0.46,0.459,0.458,0.458,0.458,0.457,0.457,0.457,0.456,0.456,0.456,0.455,0.455,0.455,0.454,0.454,0.454,0.453,0.453,0.453,0.453,0.453,0.453,0.452,0.452,0.452,0.452,0.451,0.451,0.45,0.45,0.449,0.448,0.447,0.447,0.447,0.446,0.446,0.443,0.443,0.442,0.442,0.441,0.441,0.441,0.441,0.44,0.44,0.44,0.439,0.438,0.437,0.437,0.436,0.436,0.436,0.436,0.436,0.435,0.435,0.435,0.435,0.434,0.434,0.433,0.432,0.432,0.431,0.431,0.431,0.43,0.43,0.43,0.428,0.428,0.427,0.427,0.427,0.427,0.426,0.426,0.426,0.426,0.425,0.425,0.425,0.425,0.424,0.424,0.424,0.424,0.424,0.424,0.424,0.424,0.424,0.424,0.424,0.423,0.424,0.423,0.423,0.423,0.423,0.423,0.423,0.423,0.423,0.423,0.423,0.423,0.423,0.422,0.422,0.422,0.422,0.421,0.421,0.421,0.421,0.42,0.42,0.42,0.42,0.419,0.418,0.418,0.418,0.418,0.418,0.418,0.418,0.418,0.418,0.418,0.418,0.418,0.418,0.418,0.418,0.418,0.418,0.419,0.42,0.42,0.42,0.42,0.42,0.421,0.421,0.421,0.421,0.421,0.421,0.42,0.42,0.42,0.0,0.0,0.0,0.0,0.0,0.0,0.0,0.0,0.0,0.0,0.0,0.0,0.0,0.0,0.426,0.426,0.426,0.426,0.426,0.426,0.426,0.427,0.427,0.427,0.428,0.4285,0.429,0.43,0.431,0.432,0.434,0.435,0.436,0.438,0.439,0.44,0.441,0.442,0.443,0.444,0.444,0.444,0.445,0.444,0.445,0.444,0.444,0.443,0.443,0.442,0.441,0.441,0.441,0.441,0.441,0.441,0.44,0.44,0.44,0.439,0.438,0.438,0.436,0.436,0.436,0.435,0.435,0.434,0.433,0.432,0.432,0.431,0.431,0.431,0.431,0.43,0.43,0.43,0.429,0.429,0.428,0.427,0.426,0.426,0.425,0.425,0.424,0.423,0.422,0.421,0.421,0.42,0.42,0.418,0.417,0.416,0.416,0.415,0.414,0.414,0.413,0.413,0.0
4.426,4.426,4.426,4.426,4.426,4.426,4.46,4.46,4.46,4.46,4.426,4.41,4.393,4.376,4.36,4.344,4.328,4.328,4.312,4.312,4.296,4.28,4.264,4.249,4.233,4.203,4.173,4.128,4.085,4.07,4.056,4.028,4.028,4.014,4.014,4.014,4.014,3.973,3.933,3.92,3.906,3.893,3.868,3.855,0.0,0.0,0.0,0.0,3.506,3.485,3.444,3.326,3.261,3.216,3.189,3.155,3.104,2.96559375,2.8001484375,2.646,2.587,2.542,2.525,2.52,2.52,2.514,2.509,2.509,2.504,2.504,2.504,2.498,2.498,2.493,2.487,2.482,2.482,2.487,2.487,2.493,2.504,2.509,2.52,2.536,2.57,2.59525,2.616,2.658,2.682,2.707,2.752,2.816,2.867,2.918,2.955,2.997,3.039,3.121,0.0,0.0,0.0,0.0,0.0,0.0,0.0,0.0,0.0,0.0,0.0,0.0,0.0,0.0,0.0,0.712,0.713,0.714,0.714,0.716,0.716,0.717,0.717,0.717,0.716,0.717,0.717,0.717,0.717,0.717,0.716,0.716,0.714,0.713,0.712,0.71,0.709,0.708,0.707,0.706,0.706,0.705,0.703,0.701,0.698,0.696,0.695,0.694,0.693,0.693,0.691,0.69,0.688,0.687,0.685,0.683,0.68,0.68,0.68,0.679,0.677,0.675,0.673,0.671,0.67,0.669,0.669,0.668,0.667,0.666,0.666,0.664,0.663,0.662,0.661,0.659,0.658,0.657,0.657,0.657,0.656,0.655,0.655,0.655,0.654,0.651,0.649,0.648,0.646,0.646,0.645,0.644,0.644,0.644,0.644,0.643,0.643,0.642,0.642,0.641,0.64,0.639,0.638,0.635,0.634,0.633,0.632,0.631,0.629,0.627,0.625,0.623,0.622,0.62,0.62,0.618,0.617,0.616,0.615,0.614,0.614,0.613,0.613,0.613,0.612,0.612,0.612,0.611,0.611,0.61,0.609,0.608,0.605,0.604,0.603,0.603,0.602,0.602,0.602,0.601,0.601,0.601,0.6,0.6,0.599,0.598,0.597,0.596,0.594,0.593,0.592,0.592,0.591,0.591,0.59,0.589,0.588,0.586,0.584,0.583,0.0,0.0,0.0,0.0,0.0,0.0,0.485,0.483,0.482,0.482,0.478,0.477,0.476,0.475,0.475,0.474,0.473,0.471,0.471,0.47,0.469,0.469,0.468,0.467,0.467,0.466,0.465,0.465,0.464,0.464,0.463,0.463,0.462,0.46,0.459,0.458,0.458,0.458,0.457,0.457,0.457,0.457,0.456,0.456,0.456,0.455,0.455,0.455,0.455,0.454,0.454,0.454,0.453,0.453,0.453,0.453,0.453,0.452,0.452,0.452,0.452,0.451,0.45,0.45,0.449,0.448,0.447,0.447,0.446,0.446,0.445,0.443,0.442,0.442,0.441,0.441,0.441,0.441,0.441,0.44,0.44,0.439,0.439,0.438,0.437,0.436,0.436,0.436,0.436,0.436,0.436,0.435,0.435,0.435,0.435,0.435,0.434,0.433,0.433,0.432,0.431,0.431,0.431,0.431,0.43,0.43,0.429,0.428,0.428,0.428,0.427,0.427,0.427,0.426,0.426,0.426,0.426,0.425,0.425,0.425,0.425,0.425,0.425,0.425,0.425,0.425,0.425,0.425,0.425,0.425,0.425,0.425,0.425,0.424,0.424,0.424,0.424,0.424,0.424,0.424,0.424,0.424,0.424,0.424,0.423,0.423,0.423,0.423,0.422,0.422,0.421,0.421,0.421,0.421,0.42,0.42,0.42,0.419,0.419,0.418,0.418,0.418,0.418,0.418,0.418,0.418,0.418,0.418,0.418,0.418,0.419,0.419,0.419,0.419,0.42,0.42,0.42,0.42,0.421,0.421,0.421,0.421,0.421,0.421,0.0,0.0,0.0,0.0,0.0,0.0,0.0,0.0,0.0,0.0,0.0,0.0,0.0,0.0,0.0,0.0,0.0,0.0,0.0,0.0,0.431,0.429,0.429,0.429,0.429,0.429,0.429,0.43,0.43,0.43,0.43,0.431,0.432,0.433,0.435,0.436,0.436,0.438,0.43875,0.44,0.44,0.441,0.441,0.442,0.443,0.443,0.443,0.443,0.443,0.443,0.442,0.442,0.441,0.441,0.441,0.441,0.441,0.44,0.44,0.439,0.439,0.438,0.438,0.437,0.437,0.436,0.436,0.435,0.435,0.434,0.433,0.432,0.432,0.431,0.431,0.43,0.43,0.43,0.43,0.43,0.429,0.429,0.428,0.427,0.427,0.426,0.426,0.425,0.425,0.424,0.423,0.422,0.422,0.422,0.421,0.421,0.421,0.42,0.42,0.418,0.417,0.416,0.416,0.415,0.415,0.415,0.414,0.414
4.426,4.41,4.41,4.393,4.376,4.376,4.36,4.36,4.344,4.328,4.328,4.312,4.296,4.28,4.28,4.264,4.264,4.249,4.249,4.233,4.218,4.203,4.188,4.158,4.128,4.114,4.07,4.056,4.014,3.987,3.973,3.933,3.92,3.893,3.88,3.88,3.868,3.868,3.855,3.855,3.842,3.829,3.829,3.817,0.0,0.0,3.627,3.549,3.517,3.485,3.465,3.454,3.384,3.336,3.288,3.225,3.181,3.113,2.882,2.76,2.616,2.559,2.531,2.525,2.52,2.52,2.514,2.509,2.509,2.504,2.504,2.504,2.498,2.498,2.487,2.487,2.482,2.482,2.482,2.487,2.493,2.493,2.498,2.504,2.514,2.525,2.542,2.587,2.607,2.628,2.676,2.707,2.7744999999999997,2.8125,2.8535,0.0,0.0,0.0,0.0,0.0,0.0,0.0,0.0,0.0,0.0,0.0,0.0,0.0,0.0,0.0,0.0,0.0,0.709,0.71,0.711,0.712,0.712,0.714,0.713,0.715,0.715,0.714,0.714,0.714,0.714,0.715,0.714,0.715,0.714,0.713,0.712,0.711,0.71,0.708,0.707,0.706,0.706,0.704,0.702,0.7,0.696,0.695,0.694,0.693,0.693,0.692,0.691,0.689,0.687,0.686,0.684,0.682,0.68,0.68,0.678,0.677,0.676,0.674,0.672,0.67,0.669,0.668,0.668,0.667,0.665,0.663,0.662,0.66,0.658,0.658,0.657,0.657,0.656,0.655,0.655,0.655,0.655,0.654,0.653,0.653,0.65,0.649,0.64825,0.646,0.645,0.644,0.644,0.644,0.643,0.642,0.641,0.64,0.64,0.64,0.639,0.638,0.638,0.635,0.634,0.634,0.633,0.633,0.632,0.63,0.628,0.625,0.624,0.623,0.622,0.62,0.619,0.617,0.615,0.614,0.613,0.612,0.612,0.612,0.612,0.611,0.611,0.611,0.61,0.61,0.609,0.608,0.608,0.604,0.603,0.603,0.602,0.602,0.601,0.601,0.601,0.6,0.6,0.599,0.599,0.598,0.598,0.596,0.595,0.594,0.593,0.592,0.592,0.591,0.591,0.59,0.589,0.588,0.586,0.584,0.583,0.582,0.581,0.581,0.0,0.0,0.0,0.0,0.0,0.0,0.0,0.484,0.483,0.482,0.478,0.477,0.476,0.475,0.475,0.474,0.473,0.472,0.471,0.47,0.469,0.469,0.468,0.468,0.467,0.467,0.466,0.465,0.465,0.464,0.464,0.463,0.463,0.462,0.46,0.459,0.459,0.458,0.458,0.458,0.457,0.457,0.457,0.457,0.456,0.456,0.456,0.456,0.455,0.455,0.455,0.455,0.455,0.454,0.454,0.454,0.453,0.453,0.453,0.452,0.452,0.452,0.451,0.451,0.45,0.449,0.448,0.447,0.447,0.446,0.446,0.444,0.443,0.442,0.442,0.441,0.441,0.441,0.441,0.44,0.44,0.44,0.439,0.438,0.437,0.437,0.436,0.436,0.436,0.436,0.436,0.436,0.436,0.435,0.435,0.435,0.435,0.434,0.434,0.433,0.432,0.432,0.431,0.431,0.431,0.43,0.43,0.43,0.429,0.429,0.429,0.428,0.428,0.427,0.427,0.427,0.426,0.426,0.426,0.425,0.425,0.425,0.425,0.425,0.425,0.425,0.425,0.425,0.425,0.425,0.425,0.425,0.425,0.425,0.425,0.425,0.425,0.425,0.425,0.425,0.425,0.425,0.425,0.425,0.424,0.424,0.424,0.424,0.423,0.423,0.423,0.422,0.421,0.421,0.421,0.42,0.42,0.42,0.42,0.419,0.419,0.419,0.419,0.419,0.419,0.419,0.419,0.419,0.419,0.419,0.419,0.419,0.42,0.42,0.42,0.42,0.42,0.421,0.421,0.421,0.421,0.421,0.421,0.4215,0.0,0.0,0.0,0.0,0.0,0.0,0.0,0.0,0.0,0.456,0.0,0.0,0.0,0.0,0.0,0.0,0.0,0.0,0.0,0.0,0.439,0.438,0.4375,0.435875,0.431,0.431,0.431,0.431,0.431,0.431,0.432,0.433,0.435,0.435,0.436,0.436,0.437,0.43825000000000003,0.439,0.44,0.441,0.441,0.441,0.441,0.442,0.442,0.442,0.442,0.442,0.441,0.441,0.441,0.441,0.44,0.44,0.439,0.439,0.438,0.437,0.437,0.437,0.436,0.436,0.436,0.435,0.435,0.434,0.434,0.433,0.432,0.431,0.431,0.431,0.431,0.43,0.43,0.429,0.429,0.428,0.428,0.427,0.426,0.426,0.426,0.425,0.425,0.425,0.424,0.424,0.423,0.422,0.421,0.421,0.421,0.421,0.42,0.42,0.42,0.418,0.417,0.417,0.416,0.416,0.415,0.415,0.415,0.415,0.415
4.41,4.393,4.376,4.36,4.344,4.328,4.328,4.328,4.312,4.296,4.28,4.28,4.264,4.249,4.249,4.249,4.233,4.218,4.203,4.188,4.188,4.128,4.114,4.114,4.07,4.056,4.028,3.987,3.973,3.933,3.92,3.893,3.88,3.868,3.855,3.855,3.842,3.829,3.829,3.829,3.817,3.817,3.792,3.767,3.731,3.661,3.593,3.549,3.506,3.496,3.475,3.454,3.444,3.384,3.355,3.317,3.27,3.198,3.146,2.896,2.664,2.616,2.547,2.536,2.536,2.525,2.52,2.52,2.514,2.509,2.509,2.504,2.504,2.504,2.498,2.487,2.482,2.482,2.477,2.477,2.477,2.477,2.482,2.482,2.487,2.498,2.504,2.514,2.531,2.57,2.59025,2.628,2.682,2.707,2.752,0.0,0.0,0.0,0.0,0.0,0.0,0.0,0.0,0.0,0.0,0.0,0.0,0.0,0.0,0.0,0.707,0.708,0.708,0.708,0.709,0.709,0.71,0.71,0.71,0.711,0.711,0.712,0.711,0.711,0.711,0.712,0.712,0.711,0.711,0.71,0.709,0.708,0.707,0.706,0.706,0.704,0.702,0.699,0.695,0.694,0.693,0.693,0.692,0.691,0.69,0.688,0.687,0.685,0.684,0.682,0.68,0.68,0.679,0.677,0.674,0.673,0.671,0.67,0.669,0.668,0.667,0.664,0.663,0.661,0.658,0.657,0.656,0.656,0.655,0.655,0.655,0.654,0.654,0.653,0.653,0.651,0.651,0.648,0.647,0.646,0.646,0.645,0.644,0.644,0.643,0.642,0.641,0.64,0.639,0.638,0.636,0.636,0.635,0.634,0.634,0.634,0.633,0.633,0.632,0.632,0.631,0.629,0.627,0.625,0.623,0.622,0.622,0.621,0.618,0.617,0.615,0.614,0.613,0.612,0.611,0.611,0.611,0.61,0.61,0.609,0.608,0.607,0.606,0.604,0.603,0.603,0.602,0.601,0.601,0.601,0.6,0.599,0.599,0.598,0.598,0.597,0.596,0.596,0.595,0.594,0.594,0.593,0.592,0.592,0.591,0.59,0.589,0.588,0.587,0.586,0.584,0.584,0.582,0.582,0.581,0.58,0.576,0.575,0.574,0.0,0.0,0.0,0.0,0.0,0.0,0.485,0.483,0.482,0.479,0.477,0.476,0.475,0.475,0.474,0.473,0.473,0.471,0.471,0.47,0.469,0.469,0.468,0.468,0.467,0.466,0.466,0.465,0.464,0.464,0.463,0.463,0.463,0.462,0.46,0.46,0.459,0.458,0.458,0.458,0.458,0.457,0.457,0.457,0.457,0.457,0.456,0.456,0.456,0.456,0.456,0.455,0.455,0.455,0.455,0.454,0.453,0.453,0.453,0.452,0.452,0.452,0.451,0.451,0.45,0.448,0.448,0.447,0.446,0.446,0.445,0.443,0.442,0.442,0.441,0.441,0.441,0.441,0.441,0.44,0.44,0.439,0.438,0.437,0.437,0.436,0.436,0.436,0.436,0.436,0.436,0.436,0.436,0.435,0.435,0.435,0.435,0.434,0.434,0.433,0.432,0.432,0.431,0.431,0.431,0.431,0.43,0.43,0.43,0.43,0.429,0.429,0.428,0.428,0.428,0.427,0.427,0.426,0.426,0.426,0.426,0.426,0.425,0.425,0.425,0.426,0.426,0.426,0.426,0.426,0.426,0.426,0.426,0.426,0.426,0.426,0.426,0.425,0.425,0.425,0.425,0.425,0.425,0.425,0.425,0.425,0.424,0.424,0.424,0.423,0.423,0.422,0.422,0.421,0.421,0.421,0.421,0.42,0.42,0.42,0.42,0.42,0.419,0.419,0.419,0.419,0.419,0.419,0.4195,0.42,0.42,0.42,0.42,0.42,0.4205,0.421,0.421,0.421,0.421,0.421,0.421,0.4215,0.422,0.0,0.0,0.0,0.0,0.0,0.455,0.456,0.456,0.456,0.456,0.455,0.455,0.454,0.454,0.453,0.452,0.452,0.0,0.0,0.0,0.447,0.447,0.446,0.446,0.438,0.436,0.435,0.435,0.434,0.434,0.435,0.435,0.436,0.436,0.437,0.43724999999999997,0.438,0.439,0.44,0.44,0.44,0.441,0.441,0.441,0.441,0.441,0.441,0.441,0.441,0.441,0.44,0.44,0.439,0.438,0.438,0.437,0.436,0.436,0.436,0.436,0.436,0.435,0.435,0.434,0.433,0.433,0.432,0.432,0.431,0.431,0.431,0.43,0.43,0.429,0.429,0.428,0.428,0.427,0.427,0.426,0.426,0.426,0.425,0.425,0.425,0.424,0.423,0.422,0.422,0.421,0.421,0.421,0.421,0.42,0.42,0.42,0.418,0.418,0.417,0.416,0.416,0.416,0.415,0.415,0.415,0.415,0.414,0.414
4.393,4.36,4.344,4.328,4.312,4.312,4.296,4.28,4.264,4.264,4.249,4.249,4.233,4.218,4.203,4.188,4.173,4.173,4.158,4.158,4.128,4.114,4.07,4.07,4.056,4.014,3.987,3.973,3.933,3.92,3.893,3.868,3.855,3.842,3.829,3.829,3.817,3.817,3.804,3.804,3.804,3.792,3.767,3.743,3.696,3.649,3.593,3.538,3.517,3.496,3.485,3.465,3.444,3.404,3.365,3.326,3.27,3.225,3.163,3.024,2.838,2.652,2.57,2.553,2.547,2.536,2.525,2.525,2.52,2.52,2.514,2.509,2.509,2.504,2.504,2.498,2.493,2.487,2.482,2.482,2.477,2.472,2.466,2.456,2.456,2.456,2.456,2.456,2.472,2.477,2.487,2.504,2.61,0.0,0.0,0.0,0.0,0.0,0.0,0.0,0.0,0.0,0.0,0.0,0.0,0.0,0.0,0.0,0.0,0.706,0.706,0.707,0.707,0.707,0.707,0.707,0.708,0.708,0.708,0.708,0.708,0.708,0.708,0.708,0.708,0.708,0.708,0.708,0.707,0.707,0.706,0.706,0.705,0.703,0.7,0.698,0.695,0.694,0.693,0.693,0.692,0.691,0.69,0.688,0.687,0.686,0.683,0.682,0.681,0.68,0.678,0.677,0.674,0.672,0.67,0.669,0.668,0.667,0.666,0.662,0.66,0.658,0.657,0.656,0.655,0.654,0.653,0.651,0.651,0.651,0.651,0.65,0.648,0.648,0.647,0.646,0.645,0.645,0.644,0.644,0.643,0.642,0.641,0.64,0.639,0.638,0.636,0.635,0.634,0.633,0.633,0.633,0.632,0.632,0.632,0.631,0.631,0.629,0.628,0.627,0.625,0.624,0.622,0.622,0.621,0.618,0.616,0.615,0.614,0.613,0.612,0.612,0.611,0.61,0.609,0.608,0.608,0.607,0.604,0.603,0.603,0.602,0.602,0.602,0.601,0.601,0.599,0.599,0.598,0.597,0.596,0.595,0.594,0.594,0.593,0.593,0.593,0.592,0.592,0.592,0.592,0.591,0.59,0.589,0.588,0.587,0.586,0.584,0.584,0.583,0.582,0.581,0.581,0.58,0.578,0.575,0.575,0.574,0.573,0.572,0.571,0.568,0.0,0.0,0.0,0.524,0.0,0.0,0.482,0.477,0.476,0.476,0.475,0.474,0.473,0.473,0.472,0.471,0.47,0.47,0.469,0.469,0.468,0.468,0.467,0.466,0.466,0.465,0.464,0.464,0.463,0.463,0.463,0.463,0.462,0.46,0.46,0.459,0.459,0.458,0.458,0.458,0.458,0.457,0.457,0.457,0.457,0.457,0.457,0.456,0.456,0.456,0.456,0.456,0.455,0.455,0.454,0.454,0.453,0.452,0.452,0.452,0.451,0.451,0.449,0.448,0.447,0.447,0.446,0.446,0.443,0.443,0.442,0.442,0.441,0.441,0.441,0.441,0.441,0.44,0.439,0.438,0.438,0.437,0.436,0.436,0.436,0.436,0.436,0.436,0.436,0.436,0.436,0.435,0.435,0.435,0.435,0.435,0.434,0.434,0.433,0.432,0.432,0.431,0.431,0.431,0.431,0.43,0.43,0.43,0.43,0.429,0.429,0.429,0.428,0.428,0.427,0.427,0.426,0.426,0.426,0.426,0.426,0.426,0.426,0.426,0.426,0.426,0.426,0.426,0.426,0.426,0.426,0.426,0.426,0.426,0.426,0.426,0.426,0.426,0.426,0.426,0.426,0.425,0.425,0.425,0.425,0.425,0.425,0.424,0.424,0.423,0.422,0.422,0.421,0.421,0.421,0.421,0.42,0.42,0.42,0.42,0.42,0.42,0.42,0.42,0.42,0.42,0.42,0.42,0.42,0.42,0.42,0.42062499999999997,0.421,0.421,0.421,0.421,0.421,0.0,0.0,0.0,0.0,0.0,0.0,0.0,0.455,0.455,0.455,0.456,0.455,0.455,0.455,0.454,0.453,0.453,0.452,0.452,0.451,0.449,0.448,0.4475,0.447,0.446,0.446,0.441,0.439,0.437,0.436,0.436,0.436,0.436,0.436,0.436,0.43675,0.437,0.4375,0.438,0.439,0.439,0.44,0.44,0.44,0.44,0.44,0.441,0.441,0.441,0.44,0.44,0.439,0.439,0.438,0.438,0.437,0.436,0.436,0.436,0.436,0.435,0.435,0.434,0.433,0.433,0.432,0.432,0.431,0.431,0.431,0.431,0.43,0.43,0.429,0.429,0.428,0.427,0.427,0.427,0.426,0.426,0.426,0.425,0.425,0.425,0.424,0.423,0.422,0.422,0.421,0.421,0.421,0.421,0.42,0.42,0.42,0.419,0.417,0.417,0.417,0.416,0.416,0.416,0.415,0.415,0.415,0.414,0.414,0.413,0.413,0.413
4.36,4.328,4.328,4.312,4.296,4.28,4.28,4.264,4.249,4.249,4.218,4.203,4.203,4.188,4.173,4.158,4.128,4.128,4.114,4.085,4.07,4.07,4.056,4.028,4.014,3.987,3.946,3.933,3.906,3.88,3.868,3.855,3.829,3.817,3.804,3.804,3.804,3.78,3.78,3.767,3.755,3.743,3.731,3.707,3.661,3.627,3.593,3.549,3.517,3.496,3.485,3.465,3.454,3.404,3.365,3.317,3.261,3.216,3.163,3.039,2.8575,2.676,2.604,2.576,2.57,2.547,2.536,2.525,2.525,2.52,2.514,2.509,2.509,2.504,2.504,2.498,2.493,2.493,2.482,2.482,2.472,2.466,2.456,2.456,2.456,2.451,2.451,2.451,2.451,2.451,2.456,0.0,0.0,0.0,0.0,0.0,0.0,0.0,0.0,0.0,0.0,0.0,0.0,0.0,0.0,0.0,0.0,0.0,0.705,0.705,0.706,0.706,0.706,0.706,0.706,0.706,0.706,0.706,0.706,0.706,0.706,0.706,0.706,0.706,0.706,0.705,0.705,0.704,0.704,0.703,0.702,0.7,0.698,0.696,0.694,0.693,0.693,0.692,0.691,0.69,0.688,0.688,0.687,0.685,0.683,0.682,0.681,0.68,0.679,0.678,0.676,0.673,0.671,0.669,0.668,0.667,0.666,0.661,0.659,0.657,0.656,0.655,0.654,0.653,0.651,0.65,0.648,0.646,0.646,0.646,0.646,0.645,0.645,0.645,0.644,0.644,0.644,0.643,0.642,0.64,0.639,0.638,0.636,0.635,0.634,0.633,0.633,0.632,0.632,0.631,0.631,0.63,0.629,0.628,0.628,0.627,0.626,0.625,0.623,0.623,0.622,0.621,0.619,0.617,0.615,0.614,0.613,0.612,0.612,0.611,0.611,0.61,0.609,0.608,0.606,0.603,0.603,0.602,0.602,0.601,0.601,0.6,0.6,0.599,0.598,0.597,0.595,0.594,0.594,0.593,0.592,0.592,0.592,0.592,0.592,0.591,0.591,0.591,0.59,0.59,0.589,0.588,0.587,0.586,0.584,0.583,0.583,0.582,0.581,0.581,0.58,0.579,0.576,0.575,0.574,0.573,0.573,0.573,0.572,0.571,0.569,0.566,0.565,0.564,0.564,0.563,0.0,0.0,0.0,0.0,0.0,0.476,0.475,0.474,0.473,0.472,0.472,0.471,0.47,0.47,0.469,0.469,0.469,0.468,0.468,0.467,0.467,0.466,0.465,0.465,0.464,0.464,0.464,0.463,0.463,0.462,0.462,0.46,0.46,0.459,0.459,0.458,0.458,0.458,0.458,0.457,0.457,0.457,0.457,0.457,0.457,0.457,0.457,0.456,0.456,0.456,0.455,0.455,0.454,0.453,0.452,0.452,0.452,0.451,0.45,0.449,0.448,0.447,0.446,0.446,0.445,0.443,0.443,0.442,0.442,0.441,0.441,0.441,0.441,0.44,0.44,0.439,0.438,0.437,0.436,0.436,0.436,0.436,0.436,0.436,0.436,0.436,0.436,0.436,0.436,0.436,0.435,0.435,0.435,0.435,0.434,0.434,0.433,0.432,0.432,0.431,0.431,0.431,0.431,0.431,0.43,0.43,0.43,0.43,0.429,0.429,0.428,0.428,0.427,0.427,0.427,0.427,0.427,0.427,0.427,0.427,0.427,0.427,0.427,0.427,0.427,0.427,0.427,0.427,0.427,0.427,0.427,0.427,0.427,0.427,0.426,0.426,0.426,0.426,0.426,0.426,0.426,0.426,0.426,0.425,0.425,0.424,0.424,0.423,0.422,0.422,0.421,0.421,0.421,0.421,0.421,0.42,0.42,0.42,0.42,0.42,0.42,0.42,0.42,0.42,0.4205,0.421,0.421,0.421,0.421,0.421,0.421,0.4215,0.0,0.0,0.0,0.0,0.0,0.0,0.0,0.0,0.453,0.454,0.454,0.455,0.455,0.454,0.454,0.453,0.453,0.452,0.452,0.45,0.449,0.448,0.447,0.447,0.446,0.446,0.446,0.441,0.441,0.44,0.439,0.438,0.438,0.437,0.437,0.438,0.438,0.438,0.438,0.439,0.439,0.439,0.44,0.439,0.44,0.44,0.44,0.44,0.439,0.439,0.438,0.437,0.437,0.436,0.436,0.436,0.436,0.435,0.435,0.433,0.433,0.433,0.432,0.432,0.431,0.431,0.431,0.43,0.43,0.43,0.43,0.429,0.428,0.427,0.427,0.427,0.426,0.426,0.426,0.425,0.425,0.425,0.425,0.425,0.423,0.422,0.421,0.421,0.421,0.421,0.42,0.42,0.42,0.42,0.419,0.418,0.417,0.416,0.416,0.416,0.416,0.415,0.415,0.414,0.414,0.413,0.413,0.412,0.412,0.411,0.411,0.0
4.312,4.312,4.296,4.28,4.264,4.264,4.249,4.249,4.233,4.218,4.188,4.173,4.158,4.158,4.128,4.114,4.085,4.07,4.07,4.056,4.056,4.028,4.014,4.014,3.987,3.946,3.92,3.893,3.868,3.855,3.842,3.817,3.804,3.792,3.78,3.767,3.755,3.731,3.731,3.707,3.707,3.707,3.672,3.661,3.627,3.615,3.582,3.549,3.528,3.496,3.485,3.465,3.454,3.394,3.355,3.288,3.234,3.198,3.155,3.039,0.0,0.0,2.634,2.604,2.587,2.57,2.547,2.536,2.525,2.525,2.52,2.514,2.509,2.509,2.504,2.498,2.493,2.487,2.482,2.477,2.472,2.456,2.451,2.451,2.441,2.441,2.435,2.441,2.441,2.441,2.441,0.0,0.0,0.0,0.0,0.0,0.0,0.0,0.0,0.0,0.0,0.0,0.0,0.0,0.698,0.698,0.7,0.702,0.702,0.703,0.702,0.702,0.702,0.702,0.701,0.7,0.699,0.699,0.698,0.702,0.702,0.701,0.701,0.7,0.699,0.699,0.698,0.698,0.696,0.695,0.695,0.693,0.693,0.692,0.691,0.69,0.689,0.687,0.686,0.686,0.684,0.684,0.683,0.682,0.681,0.68,0.68,0.678,0.676,0.673,0.671,0.669,0.668,0.667,0.662,0.66,0.657,0.656,0.655,0.655,0.653,0.651,0.65,0.648,0.646,0.645,0.645,0.644,0.644,0.644,0.644,0.644,0.644,0.643,0.642,0.641,0.64,0.639,0.636,0.635,0.634,0.634,0.633,0.632,0.632,0.631,0.63,0.629,0.628,0.627,0.626,0.625,0.624,0.624,0.623,0.623,0.622,0.622,0.621,0.62,0.617,0.615,0.614,0.613,0.612,0.612,0.611,0.611,0.61,0.609,0.608,0.607,0.604,0.603,0.602,0.601,0.601,0.601,0.6,0.599,0.598,0.597,0.596,0.594,0.594,0.592,0.592,0.592,0.592,0.591,0.591,0.59,0.59,0.59,0.589,0.589,0.588,0.587,0.587,0.586,0.585,0.584,0.583,0.583,0.582,0.582,0.581,0.58,0.578,0.575,0.575,0.574,0.573,0.573,0.572,0.572,0.571,0.571,0.57,0.569,0.566,0.565,0.564,0.562,0.561,0.56,0.0,0.0,0.0,0.0,0.0,0.475,0.475,0.474,0.473,0.472,0.472,0.471,0.471,0.47,0.469,0.469,0.469,0.469,0.468,0.468,0.468,0.467,0.467,0.466,0.465,0.465,0.464,0.464,0.463,0.463,0.463,0.462,0.462,0.46,0.46,0.459,0.459,0.458,0.458,0.458,0.458,0.457,0.457,0.457,0.457,0.457,0.457,0.457,0.457,0.456,0.456,0.455,0.455,0.453,0.453,0.452,0.452,0.452,0.451,0.449,0.448,0.447,0.447,0.446,0.446,0.445,0.443,0.442,0.442,0.442,0.441,0.441,0.441,0.44,0.44,0.439,0.438,0.437,0.437,0.436,0.436,0.436,0.436,0.436,0.436,0.436,0.436,0.436,0.436,0.436,0.436,0.436,0.436,0.435,0.435,0.435,0.434,0.434,0.433,0.433,0.432,0.432,0.431,0.431,0.431,0.431,0.43,0.43,0.43,0.43,0.429,0.429,0.429,0.428,0.428,0.428,0.428,0.428,0.428,0.428,0.428,0.428,0.428,0.428,0.428,0.429,0.428,0.428,0.428,0.428,0.428,0.428,0.428,0.427,0.428,0.427,0.427,0.427,0.427,0.427,0.427,0.427,0.426,0.426,0.426,0.425,0.425,0.425,0.424,0.423,0.422,0.422,0.422,0.421,0.421,0.421,0.421,0.421,0.421,0.421,0.421,0.421,0.421,0.421,0.421,0.421,0.421,0.421,0.421,0.421,0.4215,0.422,0.0,0.0,0.0,0.0,0.451,0.452,0.452,0.452,0.452,0.453,0.453,0.453,0.453,0.453,0.453,0.452,0.452,0.452,0.45,0.449,0.448,0.447,0.447,0.446,0.446,0.446,0.445,0.443,0.442,0.441,0.441,0.44,0.44,0.439,0.439,0.439,0.438,0.439,0.438,0.438,0.439,0.439,0.439,0.439,0.439,0.438,0.438,0.438,0.437,0.437,0.436,0.436,0.436,0.435,0.435,0.4335,0.433125,0.432,0.431,0.431,0.431,0.431,0.431,0.43,0.43,0.43,0.429,0.429,0.428,0.428,0.427,0.427,0.426,0.426,0.426,0.425,0.426,0.425,0.425,0.425,0.424,0.424,0.423,0.422,0.421,0.421,0.42,0.42,0.42,0.42,0.419,0.419,0.418,0.417,0.417,0.416,0.416,0.416,0.415,0.415,0.415,0.414,0.413,0.412,0.411,0.411,0.411,0.411,0.411,0.411,0.411,0.0
4.28,4.28,4.264,4.249,4.249,4.249,4.218,4.203,4.188,4.173,4.158,4.128,4.114,4.114,4.085,4.07,4.07,4.056,4.056,4.028,4.028,4.014,3.987,3.946,3.933,3.906,3.868,3.868,3.842,3.829,3.804,3.792,3.767,3.743,3.731,3.696,3.672,3.672,3.661,3.661,3.661,3.649,3.649,3.627,3.615,3.582,3.549,3.528,3.517,3.496,3.485,3.465,3.444,3.384,3.317,3.243,3.207,3.181,3.016,2.9745,0.0,0.0,2.658,2.628,2.604,2.587,2.559,2.542,2.536,2.525,2.52,2.514,2.509,2.509,2.498,2.498,2.493,2.482,2.477,2.472,2.466,2.451,2.441,2.441,2.435,2.435,2.43,2.43,0.0,0.0,0.0,0.0,0.0,0.0,0.0,0.0,0.0,0.0,0.0,0.0,0.0,0.0,0.0,0.694,0.695,0.696,0.698,0.699,0.7,0.7,0.7,0.7,0.7,0.699,0.698,0.697,0.696,0.695,0.695,0.694,0.693,0.693,0.693,0.692,0.69,0.69,0.688,0.688,0.687,0.686,0.685,0.6864999999999999,0.688,0.687,0.686,0.685,0.684,0.683,0.683,0.682,0.682,0.682,0.681,0.68,0.68,0.678,0.676,0.673,0.671,0.669,0.667,0.666,0.663,0.658,0.657,0.655,0.654,0.653,0.651,0.65,0.648,0.645,0.645,0.644,0.644,0.644,0.643,0.643,0.643,0.643,0.642,0.641,0.64,0.64,0.639,0.636,0.635,0.634,0.633,0.632,0.632,0.631,0.631,0.63,0.629,0.628,0.626,0.625,0.624,0.623,0.623,0.622,0.622,0.621,0.621,0.621,0.62,0.617,0.615,0.614,0.613,0.612,0.612,0.611,0.611,0.611,0.61,0.609,0.608,0.607,0.605,0.603,0.602,0.601,0.601,0.6,0.599,0.598,0.597,0.595,0.594,0.593,0.592,0.592,0.592,0.591,0.59,0.589,0.589,0.589,0.588,0.588,0.587,0.586,0.586,0.585,0.584,0.584,0.584,0.583,0.583,0.582,0.581,0.581,0.58,0.579,0.575,0.574,0.574,0.573,0.573,0.572,0.571,0.571,0.57,0.569,0.569,0.567,0.566,0.566,0.565,0.564,0.562,0.56,0.558,0.557,0.0,0.0,0.0,0.0,0.0,0.0,0.475,0.474,0.473,0.472,0.472,0.471,0.471,0.47,0.47,0.469,0.469,0.469,0.469,0.469,0.468,0.468,0.467,0.467,0.466,0.465,0.465,0.464,0.464,0.463,0.463,0.463,0.463,0.462,0.462,0.461,0.46,0.459,0.459,0.458,0.458,0.458,0.458,0.458,0.458,0.458,0.457,0.457,0.457,0.457,0.457,0.456,0.456,0.455,0.454,0.453,0.453,0.452,0.451,0.451,0.449,0.448,0.447,0.447,0.446,0.445,0.444,0.443,0.442,0.442,0.442,0.441,0.441,0.441,0.44,0.439,0.438,0.437,0.436,0.436,0.436,0.436,0.436,0.436,0.436,0.436,0.436,0.436,0.436,0.436,0.436,0.436,0.436,0.436,0.436,0.436,0.435,0.435,0.435,0.434,0.433,0.433,0.432,0.431,0.431,0.431,0.431,0.431,0.431,0.431,0.43,0.43,0.43,0.429,0.429,0.429,0.429,0.429,0.429,0.429,0.429,0.429,0.429,0.429,0.429,0.429,0.429,0.429,0.429,0.429,0.429,0.429,0.429,0.429,0.429,0.429,0.428,0.428,0.428,0.428,0.428,0.428,0.428,0.427,0.427,0.427,0.426,0.425,0.425,0.425,0.424,0.424,0.423,0.423,0.422,0.422,0.421,0.421,0.421,0.421,0.421,0.421,0.421,0.421,0.421,0.421,0.421,0.421,0.422,0.422,0.422,0.0,0.0,0.0,0.0,0.0,0.45,0.451,0.451,0.452,0.452,0.452,0.452,0.452,0.452,0.452,0.452,0.452,0.451,0.451,0.449,0.448,0.447,0.447,0.446,0.446,0.446,0.445,0.444,0.444,0.443,0.442,0.441,0.441,0.441,0.44,0.439,0.438,0.438,0.438,0.437,0.437,0.437,0.437,0.437,0.437,0.437,0.436,0.436,0.436,0.436,0.436,0.435,0.435,0.434,0.432,0.431,0.431,0.431,0.43,0.43,0.43,0.43,0.429,0.429,0.429,0.428,0.427,0.427,0.426,0.426,0.426,0.426,0.425,0.425,0.425,0.425,0.424,0.425,0.424,0.424,0.423,0.421,0.421,0.421,0.42,0.42,0.419,0.418,0.418,0.418,0.418,0.417,0.416,0.416,0.416,0.416,0.415,0.415,0.414,0.413,0.413,0.412,0.411,0.411,0.411,0.41,0.41,0.41,0.41,0.409,0.409,0.409,0.0
4.249,4.249,4.233,4.233,4.218,4.203,4.173,4.173,4.128,4.128,4.114,4.085,4.07,4.056,4.028,4.028,4.028,4.014,4.014,3.987,3.973,3.946,3.92,3.893,3.868,3.855,3.842,3.829,3.817,3.792,3.767,3.743,3.731,3.661,3.661,3.649,3.627,3.627,3.615,3.615,3.615,3.615,3.593,3.582,3.582,3.56,3.538,3.517,3.506,3.496,3.475,3.454,3.444,3.355,3.288,3.216,3.181,3.155,2.977,2.91,2.841,2.772,2.676,2.652,2.628,2.593,2.576,2.553,2.542,2.531,2.525,2.52,2.509,2.509,2.498,2.493,2.487,2.477,2.477,2.466,2.456,2.441,2.441,2.43,2.42,2.42,0.0,0.0,0.0,0.0,0.0,0.0,0.0,0.0,0.0,0.0,0.0,0.0,0.0,0.0,0.0,0.692,0.692,0.693,0.694,0.694,0.695,0.696,0.697,0.698,0.698,0.698,0.698,0.697,0.696,0.695,0.694,0.693,0.693,0.692,0.691,0.688,0.687,0.686,0.684,0.683,0.682,0.681,0.681,0.68,0.68,0.68,0.68,0.679,0.679,0.679,0.678,0.678,0.678,0.678,0.678,0.68,0.68,0.679,0.676,0.673,0.671,0.669,0.667,0.666,0.659,0.657,0.656,0.655,0.653,0.651,0.649,0.648,0.646,0.644,0.644,0.644,0.643,0.643,0.642,0.642,0.641,0.641,0.641,0.64,0.639,0.638,0.638,0.636,0.635,0.634,0.633,0.632,0.631,0.63,0.629,0.628,0.627,0.626,0.625,0.624,0.623,0.622,0.622,0.621,0.62,0.619,0.617,0.616,0.616,0.615,0.614,0.613,0.612,0.612,0.611,0.611,0.611,0.61,0.609,0.609,0.608,0.606,0.603,0.602,0.602,0.601,0.6,0.599,0.598,0.596,0.595,0.594,0.593,0.592,0.592,0.591,0.591,0.589,0.589,0.587,0.586,0.586,0.586,0.585,0.585,0.584,0.584,0.584,0.583,0.583,0.582,0.582,0.582,0.581,0.581,0.579,0.578,0.577,0.575,0.574,0.573,0.573,0.572,0.571,0.571,0.57,0.568,0.567,0.566,0.566,0.565,0.565,0.565,0.564,0.564,0.562,0.56,0.559,0.556,0.556,0.555,0.0,0.0,0.0,0.0,0.0,0.0,0.473,0.473,0.472,0.471,0.471,0.471,0.47,0.47,0.47,0.469,0.469,0.469,0.469,0.469,0.468,0.468,0.467,0.467,0.466,0.465,0.465,0.464,0.464,0.463,0.463,0.463,0.463,0.463,0.462,0.462,0.461,0.46,0.46,0.459,0.459,0.458,0.458,0.458,0.458,0.458,0.458,0.458,0.457,0.457,0.457,0.456,0.456,0.455,0.454,0.453,0.452,0.452,0.451,0.451,0.449,0.448,0.447,0.447,0.446,0.445,0.444,0.443,0.442,0.442,0.441,0.441,0.441,0.44,0.439,0.438,0.437,0.437,0.436,0.436,0.436,0.436,0.436,0.436,0.436,0.436,0.436,0.436,0.436,0.436,0.436,0.436,0.436,0.436,0.436,0.436,0.436,0.435,0.435,0.435,0.434,0.433,0.432,0.432,0.432,0.432,0.431,0.431,0.431,0.431,0.431,0.431,0.43,0.43,0.43,0.43,0.43,0.43,0.43,0.43,0.43,0.43,0.43,0.43,0.43,0.43,0.43,0.43,0.43,0.43,0.43,0.43,0.43,0.429,0.429,0.429,0.429,0.429,0.429,0.429,0.429,0.429,0.429,0.429,0.429,0.428,0.427,0.427,0.426,0.425,0.425,0.425,0.424,0.423,0.422,0.422,0.422,0.422,0.422,0.421,0.421,0.421,0.421,0.422,0.422,0.422,0.423,0.424,0.424,0.425,0.0,0.0,0.0,0.0,0.447,0.448,0.449,0.45,0.45,0.451,0.451,0.451,0.452,0.451,0.451,0.451,0.45,0.449,0.448,0.447,0.447,0.446,0.446,0.446,0.445,0.445,0.444,0.443,0.442,0.441,0.441,0.441,0.44,0.44,0.439,0.439,0.438,0.437,0.437,0.436,0.436,0.436,0.436,0.436,0.436,0.436,0.436,0.435,0.435,0.435,0.434,0.433,0.431,0.431,0.431,0.43,0.43,0.429,0.428,0.428,0.427,0.427,0.426,0.426,0.426,0.426,0.426,0.425,0.425,0.425,0.425,0.425,0.424,0.423,0.42274999999999996,0.422,0.422,0.422,0.421,0.421,0.421,0.42,0.42,0.42,0.419,0.418,0.417,0.416,0.416,0.416,0.416,0.415,0.415,0.415,0.415,0.414,0.414,0.413,0.412,0.41125,0.411,0.41,0.41,0.409,0.409,0.408,0.408,0.407,0.407,0.407,0.407,0.407,0.0
4.203,4.203,4.188,4.173,4.173,4.128,4.128,4.114,4.085,4.085,4.07,4.056,4.028,3.987,4.014,3.987,3.987,3.973,3.946,3.933,3.906,3.893,3.868,3.855,3.829,3.817,3.804,3.792,3.767,3.743,3.707,3.672,3.627,3.615,3.615,3.593,3.593,3.582,3.582,3.582,3.582,3.582,3.582,3.582,3.56,3.549,3.528,3.517,3.496,3.485,3.465,3.454,3.384,3.298,3.234,3.189,3.155,3.121,2.94,2.903,2.853,2.772,2.689,2.664,2.646,2.616,2.593,2.57,2.547,2.531,2.525,2.52,2.514,2.509,2.498,2.493,2.487,2.477,2.472,2.456,2.451,2.435,2.43,2.42,2.42,0.0,0.0,0.0,0.0,0.0,0.0,0.0,0.0,0.0,0.0,0.0,0.0,0.0,0.0,0.687,0.688,0.69,0.691,0.692,0.692,0.693,0.693,0.694,0.694,0.695,0.695,0.695,0.694,0.694,0.693,0.693,0.692,0.691,0.687,0.686,0.684,0.682,0.681,0.681,0.68,0.68,0.679,0.679,0.678,0.676,0.675,0.674,0.673,0.673,0.673,0.673,0.673,0.673,0.672,0.671,0.67,0.669,0.668,0.667,0.664,0.658,0.657,0.655,0.654,0.656,0.655,0.653,0.651,0.648,0.646,0.645,0.644,0.644,0.643,0.642,0.642,0.641,0.64,0.64,0.64,0.639,0.639,0.638,0.638,0.636,0.635,0.635,0.634,0.633,0.633,0.631,0.63,0.629,0.628,0.626,0.625,0.625,0.624,0.623,0.622,0.622,0.621,0.62,0.619,0.616,0.614,0.614,0.613,0.612,0.612,0.612,0.611,0.611,0.611,0.61,0.609,0.609,0.608,0.608,0.606,0.605,0.603,0.602,0.602,0.601,0.601,0.599,0.598,0.596,0.594,0.593,0.592,0.592,0.592,0.591,0.589,0.588,0.587,0.586,0.585,0.584,0.584,0.583,0.583,0.583,0.583,0.582,0.582,0.582,0.582,0.581,0.581,0.58,0.579,0.579,0.575,0.574,0.573,0.573,0.573,0.572,0.571,0.57,0.569,0.568,0.566,0.566,0.565,0.565,0.564,0.564,0.564,0.563,0.563,0.562,0.561,0.559,0.5575000000000001,0.556,0.556,0.555,0.554,0.553,0.551,0.0,0.0,0.0,0.0,0.0,0.0,0.0,0.471,0.471,0.471,0.471,0.47,0.47,0.47,0.469,0.469,0.469,0.469,0.469,0.468,0.468,0.467,0.467,0.466,0.465,0.465,0.464,0.464,0.464,0.463,0.463,0.463,0.463,0.463,0.462,0.462,0.461,0.46,0.46,0.46,0.46,0.459,0.459,0.458,0.458,0.458,0.458,0.458,0.457,0.457,0.456,0.456,0.455,0.454,0.453,0.453,0.452,0.451,0.45,0.449,0.448,0.447,0.447,0.446,0.445,0.445,0.443,0.442,0.442,0.441,0.441,0.44,0.44,0.439,0.438,0.437,0.436,0.436,0.436,0.436,0.436,0.436,0.436,0.436,0.436,0.436,0.4365,0.437,0.437,0.437,0.437,0.437,0.436,0.436,0.436,0.436,0.436,0.435,0.435,0.434,0.434,0.433,0.432,0.432,0.432,0.432,0.432,0.431,0.431,0.431,0.431,0.431,0.431,0.431,0.431,0.431,0.431,0.431,0.431,0.431,0.431,0.431,0.431,0.431,0.43,0.431,0.43,0.431,0.431,0.43,0.43,0.43,0.43,0.43,0.43,0.43,0.43,0.43,0.43,0.43,0.43,0.43,0.43,0.43,0.43,0.429,0.429,0.428,0.426,0.426,0.426,0.425,0.425,0.425,0.424,0.424,0.423,0.422,0.422,0.422,0.422,0.423,0.423,0.424,0.425,0.426,0.427,0.4275,0.0,0.0,0.442,0.446,0.447,0.4475,0.448,0.448,0.448,0.449,0.45,0.45,0.45,0.45,0.449,0.448,0.448,0.447,0.447,0.446,0.446,0.445,0.445,0.444,0.444,0.442,0.442,0.441,0.441,0.441,0.44,0.44,0.439,0.438,0.438,0.437,0.436,0.436,0.436,0.436,0.436,0.436,0.435,0.435,0.435,0.435,0.434,0.434,0.433,0.432,0.431,0.431,0.43,0.429,0.42825,0.427,0.427,0.426,0.426,0.426,0.425,0.425,0.425,0.425,0.425,0.425,0.425,0.424,0.424,0.424,0.423,0.422,0.422,0.421,0.421,0.42,0.421,0.42,0.42,0.42,0.4195,0.419,0.418,0.417,0.416,0.416,0.415,0.415,0.415,0.415,0.415,0.414,0.413,0.413,0.412,0.412,0.411,0.41,0.41,0.409,0.409,0.408,0.407,0.407,0.407,0.407,0.406,0.406,0.406,0.406,0.406,0.406,0.0
4.128,4.128,4.128,4.114,4.085,4.07,4.07,4.07,4.056,4.028,4.014,3.973,3.973,3.946,3.973,3.946,3.933,3.933,3.906,3.88,3.868,3.855,3.842,3.817,3.804,3.78,3.755,3.731,3.696,3.672,3.615,3.593,3.582,3.56,3.56,3.56,3.549,3.549,3.549,3.538,3.549,3.549,3.549,3.549,3.549,3.538,3.528,3.506,3.496,3.485,3.465,3.444,3.336,3.261,3.198,3.163,3.129,2.977,2.925,2.889,2.832,2.765,2.689,2.676,2.652,2.628,2.604,2.576,2.553,2.536,2.525,2.52,2.509,2.504,2.498,2.493,2.482,2.477,2.466,2.451,2.441,2.43,2.42,2.42,0.0,0.0,0.0,0.0,0.0,0.0,0.0,0.0,0.0,0.0,0.0,0.0,0.0,0.0,0.684,0.684,0.686,0.687,0.688,0.69,0.689,0.69,0.691,0.692,0.692,0.693,0.692,0.692,0.692,0.691,0.69,0.689,0.686,0.684,0.682,0.681,0.68,0.68,0.679,0.678,0.677,0.675,0.674,0.673,0.67,0.669,0.669,0.669,0.669,0.668,0.668,0.668,0.668,0.668,0.667,0.666,0.666,0.664,0.66,0.656,0.6545000000000001,0.653,0.651,0.648,0.646,0.645,0.644,0.641,0.64,0.639,0.638,0.637,0.636,0.64,0.639,0.639,0.638,0.638,0.637,0.637,0.637,0.636,0.636,0.635,0.635,0.634,0.633,0.633,0.632,0.63,0.629,0.628,0.626,0.625,0.624,0.624,0.623,0.622,0.622,0.622,0.621,0.62,0.618,0.615,0.614,0.613,0.612,0.612,0.611,0.611,0.61,0.61,0.609,0.608,0.607,0.607,0.606,0.605,0.604,0.603,0.602,0.602,0.601,0.601,0.6,0.599,0.598,0.596,0.594,0.593,0.5925,0.592,0.591,0.591,0.588,0.587,0.586,0.585,0.584,0.583,0.583,0.582,0.582,0.582,0.581,0.581,0.581,0.581,0.581,0.58,0.579,0.578,0.577,0.575,0.575,0.574,0.573,0.573,0.572,0.571,0.57,0.569,0.567,0.566,0.565,0.565,0.564,0.564,0.564,0.563,0.562,0.562,0.561,0.56,0.559,0.558,0.557,0.557,0.5558750000000001,0.555,0.554,0.553,0.551,0.551,0.549,0.0,0.0,0.0,0.0,0.0,0.0,0.0,0.0,0.471,0.471,0.471,0.47,0.47,0.47,0.47,0.469,0.469,0.469,0.469,0.469,0.468,0.468,0.467,0.466,0.465,0.465,0.465,0.464,0.464,0.464,0.464,0.463,0.463,0.463,0.463,0.462,0.462,0.462,0.462,0.461,0.461,0.461,0.46,0.46,0.46,0.459,0.459,0.458,0.458,0.457,0.457,0.457,0.456,0.455,0.454,0.453,0.452,0.452,0.451,0.45,0.449,0.448,0.447,0.447,0.446,0.446,0.445,0.443,0.442,0.441,0.441,0.441,0.44,0.439,0.438,0.437,0.437,0.436,0.436,0.436,0.436,0.436,0.436,0.437,0.437,0.437,0.437,0.438,0.438,0.438,0.438,0.438,0.438,0.437,0.437,0.436,0.436,0.436,0.436,0.435,0.435,0.434,0.434,0.433,0.433,0.433,0.433,0.433,0.432,0.432,0.432,0.432,0.431,0.431,0.431,0.431,0.431,0.431,0.431,0.431,0.431,0.431,0.431,0.431,0.431,0.431,0.431,0.431,0.431,0.431,0.431,0.431,0.431,0.431,0.431,0.431,0.431,0.431,0.431,0.431,0.431,0.431,0.431,0.431,0.431,0.431,0.431,0.43,0.43,0.43,0.429,0.429,0.428,0.427,0.426,0.426,0.425,0.425,0.425,0.424,0.424,0.425,0.425,0.425,0.426,0.4275,0.429,0.43,0.0,0.0,0.441,0.443,0.446,0.447,0.447,0.447,0.44725,0.448,0.448,0.448,0.447,0.447,0.447,0.447,0.446,0.446,0.445,0.445,0.444,0.443,0.442,0.441,0.441,0.441,0.441,0.441,0.44,0.44,0.439,0.438,0.437,0.437,0.436,0.436,0.436,0.435,0.435,0.435,0.435,0.434,0.434,0.433,0.433,0.432,0.432,0.431,0.431,0.43,0.43,0.429,0.428,0.427,0.426,0.426,0.425,0.425,0.425,0.425,0.424,0.424,0.424,0.424,0.423,0.423,0.422,0.422,0.422,0.421,0.421,0.42,0.42,0.42,0.42,0.419,0.419,0.419,0.419,0.418,0.0,0.0,0.416,0.416,0.415,0.414,0.414,0.413,0.413,0.413,0.412,0.412,0.411,0.411,0.411,0.41,0.409,0.408,0.407,0.407,0.407,0.406,0.406,0.406,0.406,0.406,0.405,0.405,0.405,0.405,0.405,0.0,0.0
4.07,4.056,4.028,4.028,4.014,3.987,3.946,3.933,3.933,3.92,3.906,3.893,3.88,3.88,3.88,3.88,3.868,3.868,3.855,3.829,3.829,3.817,3.804,3.767,3.743,3.707,3.672,3.661,3.593,3.593,3.56,3.549,3.538,3.528,3.538,3.528,3.517,3.528,3.528,3.528,3.528,3.528,3.538,3.538,3.538,3.528,3.517,3.506,3.496,3.475,3.454,3.384,3.298,3.216,3.172,3.146,3.0,2.94,2.903,2.874,2.819,2.765,2.695,2.682,2.664,2.634,2.61,2.576,2.553,2.536,2.525,2.52,2.514,2.509,2.498,2.493,2.482,2.477,2.466,2.451,2.435,2.43,0.0,0.0,0.0,0.0,0.0,0.0,0.0,0.0,0.0,0.0,0.0,0.0,0.0,0.0,0.681,0.682,0.682,0.682,0.683,0.683,0.684,0.684,0.685,0.686,0.687,0.687,0.688,0.688,0.688,0.687,0.687,0.686,0.683,0.682,0.681,0.68,0.68,0.679,0.678,0.676,0.675,0.673,0.671,0.669,0.669,0.668,0.668,0.667,0.667,0.667,0.666,0.666,0.665,0.664,0.663,0.662,0.661,0.659,0.656,0.655,0.654,0.6505000000000001,0.64875,0.646,0.644,0.644,0.643,0.64,0.639,0.637,0.636,0.635,0.635,0.634,0.634,0.634,0.634,0.634,0.634,0.634,0.634,0.634,0.635,0.634,0.634,0.634,0.633,0.632,0.632,0.629,0.628,0.626,0.625,0.624,0.623,0.623,0.622,0.622,0.622,0.621,0.62,0.619,0.616,0.614,0.613,0.612,0.611,0.611,0.611,0.61,0.609,0.608,0.607,0.606,0.605,0.604,0.603,0.602,0.602,0.602,0.601,0.601,0.601,0.601,0.6,0.598,0.597,0.596,0.595,0.594,0.592,0.592,0.591,0.59,0.588,0.586,0.584,0.584,0.583,0.583,0.582,0.582,0.582,0.581,0.581,0.581,0.58,0.579,0.579,0.578,0.577,0.575,0.575,0.574,0.573,0.573,0.573,0.572,0.571,0.57,0.568,0.566,0.566,0.565,0.565,0.564,0.564,0.563,0.562,0.561,0.561,0.56,0.559,0.558,0.557,0.556,0.556,0.556,0.555,0.555,0.554,0.553,0.551,0.55,0.548,0.547,0.547,0.0,0.0,0.0,0.0,0.0,0.0,0.0,0.0,0.47,0.47,0.47,0.47,0.47,0.47,0.47,0.469,0.469,0.469,0.469,0.469,0.468,0.468,0.467,0.467,0.466,0.465,0.465,0.465,0.464,0.464,0.464,0.464,0.464,0.463,0.463,0.463,0.463,0.463,0.463,0.463,0.463,0.463,0.462,0.462,0.462,0.461,0.46,0.459,0.459,0.458,0.458,0.457,0.457,0.456,0.455,0.454,0.453,0.452,0.452,0.451,0.451,0.449,0.448,0.447,0.447,0.446,0.446,0.444,0.442,0.441,0.441,0.441,0.44,0.44,0.439,0.438,0.437,0.437,0.437,0.436,0.436,0.437,0.437,0.437,0.438,0.438,0.438,0.439,0.439,0.439,0.439,0.439,0.439,0.438,0.438,0.438,0.438,0.437,0.436,0.436,0.436,0.435,0.435,0.435,0.435,0.434,0.434,0.434,0.434,0.434,0.433,0.433,0.433,0.433,0.432,0.432,0.432,0.432,0.432,0.432,0.432,0.432,0.432,0.432,0.432,0.432,0.432,0.432,0.432,0.432,0.432,0.433,0.432,0.433,0.433,0.433,0.433,0.433,0.433,0.433,0.433,0.433,0.433,0.433,0.433,0.433,0.433,0.432,0.432,0.432,0.431,0.431,0.431,0.431,0.43,0.43,0.429,0.427,0.426,0.426,0.426,0.426,0.426,0.427,0.428,0.429,0.431,0.432,0.0,0.0,0.438,0.442,0.445,0.446,0.446,0.446,0.446,0.446,0.446,0.446,0.446,0.446,0.446,0.445,0.445,0.444,0.443,0.442,0.442,0.441,0.441,0.441,0.44,0.44,0.44,0.439,0.438,0.437,0.43674999999999997,0.436,0.4355,0.435,0.435,0.435,0.435,0.435,0.434,0.434,0.433,0.432,0.432,0.431,0.431,0.431,0.43,0.43,0.429,0.428,0.42724999999999996,0.426,0.426,0.425,0.425,0.425,0.424,0.424,0.424,0.423,0.423,0.422,0.422,0.421,0.421,0.421,0.421,0.421,0.421,0.42,0.42,0.419,0.419,0.418,0.418,0.417,0.417,0.417,0.417,0.416,0.0,0.0,0.415,0.414,0.413,0.412,0.412,0.411,0.411,0.411,0.411,0.411,0.409,0.409,0.408,0.407,0.407,0.406,0.406,0.406,0.406,0.405,0.405,0.405,0.404,0.404,0.404,0.403,0.403,0.403,0.403,0.0,0.0
3.987,3.987,3.973,3.946,3.92,3.906,3.88,3.868,3.868,3.855,3.855,3.855,3.842,3.842,3.842,3.829,3.817,3.817,3.804,3.792,3.767,3.755,3.707,3.696,3.661,3.627,3.593,3.56,3.56,3.538,3.538,3.528,3.517,3.517,3.506,3.506,3.506,3.496,3.506,3.506,3.506,3.506,3.517,3.517,3.528,3.517,3.506,3.496,3.485,3.465,3.444,3.336,3.243,3.189,3.155,3.0582499999999997,2.955,2.918,2.896,2.853,2.805,2.765,2.701,2.689,2.67,2.646,2.61,2.587,2.559,2.536,2.525,2.52,2.514,2.509,2.498,2.487,2.477,2.472,2.456,2.441,0.0,0.0,0.0,0.0,0.0,0.0,0.0,0.0,0.0,0.0,0.0,0.0,0.0,0.0,0.68,0.68,0.68,0.68,0.681,0.681,0.681,0.681,0.681,0.681,0.682,0.682,0.682,0.682,0.682,0.682,0.682,0.681,0.681,0.68,0.68,0.68,0.679,0.678,0.676,0.674,0.672,0.671,0.669,0.668,0.668,0.667,0.667,0.666,0.665,0.664,0.663,0.663,0.662,0.661,0.66,0.658,0.658,0.657,0.655,0.654,0.651,0.649,0.64775,0.645,0.644,0.64,0.639,0.637,0.636,0.635,0.634,0.633,0.633,0.633,0.633,0.633,0.633,0.633,0.633,0.633,0.633,0.633,0.633,0.632,0.632,0.632,0.631,0.628,0.626,0.624,0.627,0.625,0.624,0.623,0.622,0.622,0.622,0.621,0.621,0.621,0.62,0.619,0.615,0.614,0.612,0.612,0.611,0.61,0.609,0.608,0.607,0.606,0.605,0.603,0.603,0.603,0.602,0.601,0.601,0.601,0.601,0.6,0.599,0.599,0.598,0.597,0.596,0.594,0.593,0.592,0.592,0.591,0.591,0.587,0.586,0.585,0.584,0.583,0.582,0.582,0.582,0.581,0.581,0.58,0.58,0.579,0.579,0.578,0.577,0.575,0.575,0.574,0.574,0.573,0.573,0.572,0.572,0.571,0.57,0.569,0.567,0.566,0.565,0.564,0.564,0.563,0.563,0.562,0.561,0.56,0.559,0.558,0.558,0.557,0.556,0.556,0.556,0.555,0.555,0.554,0.553,0.553,0.551,0.55,0.548,0.548,0.548,0.547,0.546,0.544,0.542,0.54,0.539,0.538,0.0,0.0,0.0,0.0,0.0,0.0,0.0,0.0,0.0,0.0,0.469,0.469,0.469,0.469,0.469,0.468,0.468,0.467,0.467,0.466,0.465,0.465,0.465,0.465,0.464,0.464,0.464,0.464,0.464,0.463,0.463,0.463,0.463,0.463,0.463,0.463,0.463,0.463,0.463,0.463,0.463,0.463,0.462,0.46,0.459,0.458,0.458,0.457,0.457,0.456,0.455,0.454,0.453,0.452,0.452,0.451,0.451,0.449,0.448,0.447,0.447,0.446,0.446,0.443,0.442,0.441,0.441,0.441,0.44,0.439,0.438,0.438,0.437,0.437,0.437,0.437,0.438,0.438,0.438,0.439,0.439,0.439,0.44,0.44,0.44,0.44,0.44,0.44,0.44,0.44,0.439,0.439,0.439,0.438,0.437,0.436,0.436,0.436,0.436,0.436,0.435,0.435,0.435,0.435,0.435,0.435,0.435,0.434,0.434,0.434,0.434,0.434,0.433,0.433,0.433,0.433,0.433,0.433,0.433,0.433,0.433,0.433,0.434,0.434,0.434,0.434,0.434,0.435,0.435,0.435,0.435,0.435,0.435,0.435,0.435,0.435,0.435,0.436,0.436,0.436,0.436,0.436,0.436,0.436,0.435,0.435,0.434,0.433,0.433,0.432,0.432,0.431,0.431,0.43,0.43,0.429,0.429,0.429,0.429,0.43,0.431,0.432,0.435,0.0,0.0,0.439,0.441,0.442,0.444,0.444,0.445,0.445,0.445,0.444,0.444,0.444,0.443,0.443,0.443,0.442,0.442,0.441,0.441,0.441,0.441,0.44,0.44,0.439,0.438,0.438,0.437,0.436,0.436,0.435,0.435,0.434,0.434,0.434,0.433,0.433,0.433,0.432,0.432,0.431,0.431,0.431,0.4295,0.429,0.429,0.427,0.427,0.426,0.426,0.425,0.425,0.425,0.424,0.424,0.423,0.423,0.422,0.421,0.421,0.421,0.421,0.421,0.42,0.42,0.42,0.42,0.419,0.419,0.418,0.418,0.417,0.417,0.416,0.416,0.416,0.416,0.416,0.415,0.414,0.414,0.412,0.412,0.411,0.411,0.411,0.411,0.41,0.41,0.41,0.408,0.408,0.407,0.407,0.406,0.406,0.406,0.405,0.405,0.404,0.404,0.403,0.403,0.403,0.402,0.402,0.402,0.402,0.402,0.402,0.402,0.0,0.0
3.933,3.92,3.906,3.893,3.868,3.868,3.855,3.855,3.842,3.829,3.829,3.817,3.817,3.804,3.804,3.792,3.78,3.767,3.743,3.707,3.696,3.661,3.649,3.627,3.593,3.549,3.538,3.528,3.528,3.517,3.506,3.506,3.496,3.496,3.496,3.485,3.485,3.485,3.496,3.485,3.496,3.496,3.496,3.506,3.506,3.496,3.496,3.485,3.465,3.454,3.424,3.298,3.216,3.163,3.07,2.977,2.932,2.903,2.874,2.832,2.792,2.752,2.72,2.689,2.67,2.652,2.628,2.593,2.57,2.547,2.531,2.52,2.514,2.509,2.493,2.482,2.477,2.466,0.0,0.0,0.0,0.0,0.0,0.0,0.0,0.0,0.0,0.0,0.0,0.0,0.0,0.0,0.0,0.678,0.679,0.68,0.68,0.68,0.68,0.68,0.68,0.68,0.68,0.68,0.68,0.68,0.68,0.68,0.68,0.68,0.68,0.679,0.678,0.678,0.677,0.676,0.674,0.672,0.67,0.669,0.668,0.668,0.667,0.666,0.665,0.664,0.663,0.662,0.662,0.661,0.66,0.659,0.658,0.657,0.656,0.655,0.654,0.652,0.649,0.647,0.645,0.644,0.643,0.641,0.638,0.635,0.634,0.633,0.633,0.632,0.632,0.632,0.631,0.631,0.631,0.631,0.631,0.631,0.632,0.632,0.632,0.631,0.631,0.63,0.629,0.627,0.625,0.623,0.622,0.622,0.621,0.621,0.619,0.618,0.617,0.617,0.619,0.619,0.618,0.617,0.614,0.613,0.612,0.611,0.611,0.609,0.608,0.607,0.605,0.604,0.603,0.602,0.601,0.601,0.601,0.601,0.6,0.6,0.599,0.598,0.598,0.597,0.596,0.595,0.594,0.593,0.592,0.592,0.591,0.59,0.589,0.587,0.585,0.584,0.583,0.582,0.582,0.581,0.581,0.58,0.579,0.578,0.578,0.577,0.576,0.575,0.574,0.574,0.573,0.573,0.573,0.573,0.572,0.571,0.571,0.57,0.569,0.567,0.566,0.565,0.564,0.564,0.563,0.563,0.561,0.56,0.559,0.558,0.558,0.557,0.556,0.556,0.556,0.555,0.555,0.555,0.554,0.553,0.552,0.551,0.55,0.548,0.548,0.547,0.547,0.547,0.546,0.545,0.543,0.541,0.54,0.539,0.538,0.536,0.535,0.0,0.0,0.0,0.0,0.0,0.0,0.0,0.0,0.0,0.469,0.469,0.469,0.469,0.468,0.468,0.468,0.467,0.467,0.466,0.466,0.465,0.465,0.465,0.465,0.464,0.464,0.464,0.464,0.464,0.464,0.464,0.464,0.464,0.464,0.464,0.464,0.464,0.464,0.464,0.464,0.463,0.463,0.463,0.46,0.459,0.458,0.458,0.457,0.457,0.456,0.455,0.454,0.453,0.452,0.452,0.451,0.451,0.449,0.448,0.447,0.447,0.446,0.445,0.442,0.442,0.441,0.441,0.44,0.44,0.439,0.439,0.438,0.438,0.438,0.438,0.438,0.439,0.44,0.44,0.44,0.44,0.441,0.441,0.441,0.441,0.441,0.441,0.441,0.441,0.44,0.44,0.44,0.44,0.439,0.439,0.438,0.437,0.437,0.436,0.436,0.436,0.436,0.436,0.436,0.436,0.436,0.435,0.435,0.435,0.435,0.435,0.435,0.435,0.435,0.434,0.434,0.434,0.434,0.434,0.435,0.435,0.435,0.435,0.435,0.436,0.436,0.436,0.436,0.436,0.436,0.436,0.436,0.436,0.436,0.437,0.437,0.437,0.437,0.438,0.438,0.438,0.438,0.438,0.437,0.436,0.436,0.436,0.436,0.436,0.435,0.4335,0.4335,0.4325,0.43174999999999997,0.431,0.431,0.431,0.431,0.431,0.433,0.435,0.436,0.437,0.438,0.439,0.44,0.441,0.442,0.442,0.442,0.442,0.442,0.442,0.441,0.441,0.441,0.441,0.441,0.441,0.44,0.44,0.44,0.44,0.439,0.438,0.437,0.437,0.436,0.436,0.436,0.435,0.434,0.433,0.432,0.432,0.431,0.431,0.431,0.431,0.431,0.431,0.431,0.43,0.429,0.428,0.427,0.427,0.426,0.425,0.425,0.425,0.425,0.423,0.422,0.422,0.421,0.422,0.421,0.421,0.421,0.421,0.42,0.42,0.42,0.42,0.419,0.418,0.418,0.417,0.417,0.417,0.416,0.416,0.416,0.416,0.415,0.415,0.414,0.413,0.412,0.412,0.411,0.411,0.411,0.41,0.41,0.41,0.41,0.409,0.408,0.407,0.407,0.407,0.406,0.406,0.406,0.405,0.405,0.404,0.404,0.403,0.402,0.402,0.402,0.402,0.402,0.402,0.402,0.401,0.402,0.402,0.401,0.402,0.0,0.0
3.893,3.88,3.868,3.855,3.855,3.842,3.829,3.829,3.817,3.817,3.804,3.792,3.78,3.755,3.743,3.731,3.707,3.696,3.649,3.627,3.615,3.593,3.582,3.538,3.528,3.528,3.517,3.506,3.496,3.496,3.496,3.485,3.485,3.485,3.475,3.475,3.475,3.475,3.475,3.475,3.485,3.485,3.485,3.496,3.496,3.496,3.485,3.475,3.465,3.444,3.355,3.27,3.189,3.155,3.0549999999999997,2.955,2.918,2.896,2.867,2.819,2.785,2.746,2.72,2.689,2.676,2.658,2.628,2.604,2.576,2.547,2.531,2.52,2.514,2.504,2.498,0.0,0.0,0.0,0.0,0.0,0.0,0.0,0.0,0.0,0.0,0.0,0.0,0.0,0.0,0.0,0.0,0.676,0.677,0.677,0.678,0.678,0.678,0.679,0.678,0.678,0.678,0.678,0.677,0.677,0.677,0.677,0.676,0.676,0.676,0.676,0.675,0.674,0.673,0.672,0.671,0.67,0.669,0.668,0.667,0.667,0.666,0.665,0.663,0.662,0.661,0.66,0.659,0.658,0.657,0.657,0.656,0.655,0.653,0.651,0.649,0.647,0.646,0.645,0.644,0.643,0.641,0.636,0.635,0.634,0.633,0.632,0.632,0.631,0.631,0.63,0.63,0.629,0.629,0.629,0.629,0.629,0.629,0.629,0.63,0.63,0.629,0.629,0.627,0.626,0.624,0.623,0.622,0.622,0.621,0.62,0.619,0.618,0.616,0.615,0.615,0.614,0.613,0.612,0.612,0.611,0.612,0.611,0.611,0.609,0.608,0.606,0.604,0.603,0.602,0.602,0.601,0.6,0.599,0.599,0.598,0.598,0.597,0.596,0.595,0.594,0.594,0.593,0.592,0.592,0.591,0.591,0.59,0.587,0.586,0.585,0.584,0.583,0.582,0.582,0.581,0.581,0.58,0.579,0.578,0.576,0.574,0.574,0.574,0.573,0.573,0.573,0.573,0.572,0.572,0.572,0.571,0.571,0.57,0.568,0.567,0.566,0.566,0.565,0.564,0.564,0.563,0.561,0.559,0.559,0.558,0.557,0.556,0.556,0.556,0.555,0.555,0.555,0.554,0.554,0.553,0.553,0.551,0.55,0.548,0.548,0.547,0.547,0.547,0.546,0.545,0.544,0.543,0.542,0.54,0.5395000000000001,0.538875,0.538,0.536,0.534,0.534,0.532,0.531,0.53,0.529,0.528,0.0,0.0,0.526,0.525,0.525,0.496,0.496,0.4955,0.494,0.49350000000000005,0.493,0.0,0.0,0.491,0.0,0.49050000000000005,0.465,0.465,0.465,0.0,0.0,0.0,0.0,0.464,0.464,0.464,0.464,0.465,0.465,0.465,0.465,0.465,0.465,0.465,0.464,0.464,0.464,0.463,0.463,0.46,0.459,0.458,0.458,0.457,0.457,0.456,0.455,0.454,0.453,0.452,0.452,0.452,0.451,0.449,0.448,0.447,0.447,0.446,0.445,0.442,0.442,0.441,0.441,0.44,0.44,0.44,0.44,0.439,0.439,0.44,0.44,0.44,0.441,0.441,0.441,0.441,0.441,0.441,0.441,0.441,0.441,0.441,0.441,0.441,0.441,0.441,0.441,0.441,0.44,0.44,0.44,0.44,0.439,0.438,0.438,0.437,0.437,0.437,0.436,0.436,0.436,0.436,0.436,0.436,0.436,0.436,0.435,0.435,0.435,0.435,0.435,0.435,0.435,0.435,0.435,0.436,0.436,0.436,0.436,0.436,0.436,0.437,0.437,0.437,0.437,0.438,0.438,0.438,0.439,0.439,0.44,0.44,0.44,0.441,0.441,0.441,0.441,0.44,0.44,0.44,0.439,0.439,0.438,0.438,0.437,0.436,0.436,0.435,0.433875,0.43371875,0.434,0.4335,0.433,0.434,0.435,0.436,0.436,0.437,0.438,0.439,0.44,0.441,0.441,0.441,0.441,0.441,0.441,0.441,0.44,0.44,0.44,0.44,0.44,0.439,0.439,0.438,0.438,0.437,0.437,0.436,0.436,0.436,0.435,0.434,0.433,0.432,0.432,0.431,0.431,0.431,0.431,0.43,0.43,0.43,0.43,0.429,0.428,0.427,0.427,0.426,0.425,0.425,0.424,0.424,0.423,0.422,0.422,0.421,0.421,0.421,0.421,0.421,0.42,0.42,0.42,0.42,0.419,0.418,0.417,0.417,0.416,0.416,0.416,0.416,0.416,0.415,0.415,0.415,0.414,0.414,0.414,0.412,0.411,0.411,0.411,0.411,0.411,0.41,0.409,0.409,0.408,0.408,0.407,0.407,0.407,0.406,0.406,0.406,0.405,0.404,0.404,0.403,0.403,0.402,0.402,0.402,0.402,0.402,0.401,0.401,0.401,0.401,0.4,0.4,0.4,0.4,0.4,0.4,0.0,0.0
3.868,3.842,3.842,3.829,3.829,3.817,3.817,3.804,3.804,3.792,3.78,3.755,3.731,3.707,3.696,3.672,3.649,3.627,3.615,3.582,3.56,3.549,3.528,3.517,3.506,3.506,3.496,3.496,3.485,3.485,3.485,3.475,3.475,3.465,3.465,3.465,3.454,3.465,3.465,3.465,3.465,3.465,3.475,3.485,3.485,3.485,3.475,3.465,3.454,3.434,3.336,3.243,3.181,3.146,3.05325,2.94,2.91,2.882,2.853,2.812,2.772,2.746,2.726,2.695,2.682,2.664,2.634,2.61,2.576,2.553,2.531,2.525,2.514,2.509,2.504,0.0,0.0,0.0,0.0,0.0,0.0,0.0,0.0,0.0,0.0,0.0,0.0,0.0,0.0,0.0,0.674,0.674,0.676,0.676,0.676,0.676,0.676,0.675,0.676,0.675,0.674,0.673,0.673,0.672,0.672,0.672,0.671,0.671,0.671,0.67,0.669,0.669,0.668,0.668,0.668,0.667,0.666,0.664,0.663,0.662,0.662,0.661,0.659,0.658,0.657,0.657,0.657,0.656,0.655,0.655,0.652,0.649,0.647,0.645,0.644,0.644,0.643,0.641,0.639,0.635,0.634,0.633,0.632,0.632,0.631,0.629,0.628,0.628,0.627,0.627,0.626,0.626,0.626,0.626,0.626,0.627,0.627,0.627,0.627,0.626,0.625,0.624,0.623,0.622,0.622,0.621,0.62,0.618,0.617,0.616,0.615,0.613,0.613,0.612,0.612,0.611,0.611,0.61,0.609,0.608,0.606,0.604,0.603,0.602,0.601,0.602,0.601,0.6,0.6,0.598,0.598,0.596,0.596,0.595,0.594,0.594,0.593,0.593,0.592,0.592,0.592,0.591,0.59,0.589,0.587,0.585,0.584,0.583,0.583,0.582,0.582,0.581,0.581,0.58,0.579,0.577,0.576,0.574,0.574,0.573,0.573,0.573,0.572,0.572,0.572,0.571,0.571,0.57,0.57,0.569,0.568,0.567,0.566,0.566,0.565,0.564,0.564,0.563,0.561,0.56,0.558,0.557,0.556,0.556,0.556,0.555,0.555,0.555,0.554,0.554,0.553,0.553,0.551,0.55,0.55,0.548,0.548,0.547,0.547,0.547,0.546,0.546,0.544,0.543,0.543,0.541,0.541,0.54,0.539,0.538,0.538,0.536,0.534,0.533,0.532,0.0,0.0,0.53,0.528,0.527,0.527,0.526,0.524,0.524,0.523,0.523,0.523,0.522,0.52,0.519,0.518,0.0,0.0,0.516,0.516,0.516,0.515,0.514,0.513,0.0,0.0,0.0,0.0,0.0,0.465,0.465,0.465,0.466,0.467,0.467,0.467,0.467,0.467,0.467,0.466,0.465,0.465,0.464,0.463,0.461,0.46,0.459,0.458,0.457,0.457,0.456,0.456,0.455,0.454,0.453,0.452,0.452,0.452,0.451,0.45,0.449,0.448,0.447,0.446,0.446,0.443,0.442,0.441,0.441,0.441,0.441,0.441,0.441,0.441,0.441,0.441,0.441,0.441,0.442,0.442,0.442,0.442,0.442,0.443,0.442,0.442,0.442,0.442,0.441,0.441,0.441,0.441,0.441,0.441,0.441,0.441,0.441,0.44,0.44,0.44,0.44,0.439,0.439,0.438,0.438,0.437,0.437,0.437,0.436,0.436,0.436,0.436,0.436,0.436,0.436,0.436,0.436,0.436,0.436,0.437,0.437,0.437,0.438,0.438,0.438,0.439,0.439,0.439,0.44,0.44,0.44,0.44,0.441,0.441,0.441,0.441,0.441,0.441,0.442,0.442,0.442,0.442,0.442,0.441,0.441,0.441,0.441,0.441,0.44,0.44,0.439,0.438,0.437,0.436,0.436,0.436,0.436,0.435,0.436,0.436,0.436,0.437,0.437,0.43775,0.438,0.439,0.44,0.44,0.44,0.44,0.44,0.439,0.438,0.438,0.438,0.438,0.437,0.437,0.437,0.437,0.436,0.436,0.436,0.436,0.435,0.433,0.433,0.432,0.431,0.431,0.431,0.431,0.43,0.43,0.43,0.43,0.429,0.429,0.428,0.427,0.427,0.426,0.426,0.425,0.425,0.424,0.422,0.421,0.421,0.421,0.421,0.421,0.42,0.42,0.42,0.42,0.42,0.42,0.419,0.418,0.417,0.416,0.416,0.416,0.416,0.415,0.415,0.415,0.414,0.414,0.413,0.412,0.412,0.411,0.411,0.411,0.411,0.411,0.41,0.41,0.409,0.409,0.408,0.407,0.407,0.407,0.407,0.406,0.406,0.406,0.406,0.405,0.404,0.404,0.403,0.402,0.402,0.402,0.402,0.401,0.401,0.401,0.4,0.4,0.4,0.399,0.399,0.399,0.399,0.399,0.399,0.399,0.399,0.0,0.0
3.829,3.817,3.817,3.817,3.817,3.804,3.792,3.78,3.767,3.755,3.743,3.731,3.696,3.672,3.649,3.627,3.593,3.582,3.56,3.538,3.528,3.517,3.506,3.496,3.496,3.485,3.485,3.485,3.475,3.465,3.465,3.465,3.454,3.454,3.454,3.454,3.444,3.444,3.444,3.454,3.454,3.454,3.465,3.465,3.465,3.475,3.465,3.454,3.444,3.434,3.326,3.261,3.181,3.146,3.072,2.932,2.903,2.874,2.853,2.812,2.785,2.746,2.726,2.695,2.682,2.664,2.646,2.61,2.576,2.547,2.531,2.52,0.0,0.0,0.0,0.0,0.0,0.0,0.0,0.0,0.0,0.0,0.0,0.0,0.0,0.0,0.0,0.0,0.0,0.672,0.6725000000000001,0.673,0.673,0.673,0.674,0.673,0.673,0.673,0.672,0.672,0.67,0.67,0.669,0.669,0.668,0.668,0.668,0.668,0.668,0.667,0.667,0.666,0.666,0.664,0.663,0.662,0.661,0.66,0.659,0.658,0.657,0.657,0.657,0.656,0.655,0.655,0.654,0.651,0.649,0.647,0.646,0.645,0.644,0.643,0.642,0.64,0.636,0.634,0.633,0.633,0.632,0.631,0.629,0.628,0.627,0.626,0.625,0.624,0.623,0.623,0.624,0.624,0.624,0.624,0.625,0.625,0.624,0.624,0.623,0.623,0.622,0.622,0.621,0.619,0.617,0.616,0.614,0.613,0.612,0.612,0.612,0.611,0.611,0.61,0.61,0.609,0.608,0.606,0.605,0.603,0.602,0.601,0.599,0.598,0.597,0.595,0.594,0.593,0.593,0.594,0.594,0.593,0.593,0.592,0.592,0.592,0.591,0.591,0.59,0.59,0.589,0.586,0.585,0.584,0.583,0.582,0.582,0.582,0.581,0.58,0.58,0.579,0.577,0.576,0.575,0.573,0.573,0.573,0.572,0.571,0.571,0.57,0.569,0.569,0.568,0.567,0.566,0.566,0.566,0.566,0.565,0.565,0.565,0.564,0.563,0.563,0.56,0.559,0.557,0.556,0.556,0.555,0.555,0.555,0.554,0.554,0.554,0.553,0.551,0.551,0.55,0.548,0.548,0.547,0.547,0.547,0.546,0.546,0.545,0.544,0.543,0.542,0.541,0.54,0.54,0.54,0.538,0.537,0.53625,0.536,0.534,0.533,0.533,0.0,0.0,0.0,0.0,0.529,0.527,0.526,0.525,0.524,0.524,0.523,0.523,0.522,0.522,0.52,0.519,0.518,0.517,0.516,0.516,0.5155000000000001,0.515,0.515,0.514,0.512,0.511,0.51,0.0,0.0,0.0,0.0,0.0,0.0,0.467,0.0,0.469,0.46950000000000003,0.469125,0.469,0.469,0.468,0.468,0.467,0.466,0.465,0.464,0.463,0.461,0.459,0.458,0.457,0.457,0.456,0.456,0.455,0.455,0.454,0.453,0.452,0.452,0.452,0.451,0.451,0.45,0.448,0.447,0.446,0.446,0.445,0.443,0.442,0.441,0.441,0.441,0.441,0.441,0.441,0.441,0.442,0.442,0.443,0.443,0.443,0.444,0.444,0.444,0.444,0.443,0.443,0.443,0.443,0.443,0.442,0.442,0.442,0.442,0.442,0.441,0.441,0.441,0.441,0.441,0.441,0.441,0.44,0.44,0.44,0.44,0.44,0.439,0.439,0.438,0.438,0.438,0.438,0.438,0.439,0.439,0.439,0.439,0.439,0.43925,0.44,0.44,0.44,0.44,0.44,0.441,0.441,0.441,0.441,0.441,0.441,0.441,0.441,0.44175,0.442,0.442,0.443,0.443,0.444,0.444,0.444,0.444,0.445,0.444,0.443,0.443,0.442,0.442,0.442,0.441,0.441,0.441,0.44,0.44,0.439,0.438,0.437,0.437,0.436,0.436,0.437,0.4375,0.438,0.438,0.438,0.439,0.439,0.439,0.438,0.438,0.437,0.437,0.436,0.436,0.436,0.436,0.436,0.436,0.436,0.436,0.435,0.435,0.435,0.433,0.432,0.431,0.431,0.431,0.43,0.43,0.43,0.43,0.429,0.429,0.429,0.428,0.427,0.427,0.426,0.426,0.425,0.425,0.425,0.424,0.423,0.421,0.421,0.421,0.42,0.42,0.42,0.42,0.42,0.419,0.419,0.418,0.418,0.418,0.417,0.416,0.416,0.415,0.415,0.415,0.414,0.413,0.413,0.411,0.411,0.412,0.41125,0.411,0.411,0.411,0.41,0.41,0.41,0.409,0.409,0.408,0.408,0.407,0.407,0.406,0.406,0.406,0.406,0.405,0.405,0.404,0.404,0.403,0.403,0.402,0.402,0.402,0.401,0.401,0.401,0.4,0.4,0.399,0.399,0.399,0.399,0.398,0.398,0.398,0.398,0.398,0.398,0.398,0.398,0.0,0.0
3.804,3.804,3.792,3.792,3.792,3.78,3.767,3.755,3.755,3.731,3.707,3.696,3.661,3.649,3.615,3.593,3.56,3.549,3.538,3.528,3.506,3.506,3.496,3.496,3.485,3.485,3.485,3.475,3.465,3.465,3.454,3.454,3.444,3.444,3.444,3.434,3.434,3.434,3.434,3.434,3.444,3.444,3.454,3.454,3.465,3.465,3.465,3.454,3.444,3.424,3.336,3.261,3.189,3.146,3.08,2.94,2.91,2.889,2.86,2.819,2.785,2.752,2.726,2.695,2.682,2.67,2.646,2.61,2.587,2.553,2.536,0.0,0.0,0.0,0.0,0.0,0.0,0.0,0.0,0.0,0.0,0.0,0.0,0.0,0.0,0.0,0.67,0.67,0.671,0.671,0.671,0.672,0.671,0.671,0.67,0.67,0.67,0.669,0.669,0.669,0.668,0.668,0.667,0.667,0.667,0.666,0.666,0.665,0.664,0.663,0.662,0.661,0.66,0.659,0.658,0.658,0.657,0.657,0.656,0.655,0.655,0.655,0.655,0.653,0.652,0.649,0.647,0.646,0.644,0.644,0.643,0.642,0.64,0.636,0.635,0.634,0.633,0.632,0.632,0.631,0.629,0.628,0.626,0.625,0.624,0.623,0.622,0.622,0.622,0.622,0.622,0.622,0.622,0.623,0.623,0.623,0.622,0.622,0.622,0.621,0.62,0.6172500000000001,0.615,0.613,0.613,0.611,0.611,0.611,0.61,0.61,0.609,0.608,0.608,0.607,0.605,0.604,0.603,0.602,0.601,0.601,0.598,0.596,0.595,0.594,0.592,0.592,0.592,0.592,0.591,0.591,0.59,0.59,0.589,0.588,0.59,0.59,0.589,0.586,0.585,0.584,0.584,0.583,0.582,0.582,0.581,0.581,0.58,0.579,0.577,0.576,0.575,0.573,0.573,0.573,0.572,0.571,0.571,0.57,0.569,0.568,0.567,0.566,0.566,0.565,0.565,0.565,0.564,0.564,0.564,0.564,0.564,0.564,0.563,0.561,0.559,0.558,0.556,0.556,0.555,0.555,0.554,0.553,0.552,0.551,0.551,0.55,0.549,0.548,0.548,0.547,0.547,0.547,0.547,0.546,0.545,0.544,0.543,0.542,0.5417500000000001,0.541,0.54,0.54,0.539,0.539,0.539,0.538,0.535,0.534,0.533,0.533,0.532,0.532,0.531,0.0,0.0,0.0,0.0,0.528,0.526,0.525,0.525,0.524,0.523,0.523,0.522,0.521,0.52,0.519,0.518,0.517,0.516,0.516,0.516,0.515,0.515,0.514,0.512,0.511,0.51,0.509,0.5085,0.508,0.507,0.0,0.0,0.0,0.0,0.0,0.471,0.472,0.471,0.471,0.471,0.47,0.469,0.469,0.468,0.467,0.465,0.464,0.461,0.46,0.458,0.458,0.457,0.457,0.456,0.455,0.455,0.454,0.453,0.453,0.453,0.452,0.452,0.452,0.452,0.451,0.449,0.448,0.447,0.446,0.446,0.445,0.443,0.442,0.442,0.442,0.442,0.442,0.443,0.443,0.444,0.444,0.4445,0.445,0.445,0.445,0.445,0.445,0.445,0.445,0.444,0.444,0.444,0.444,0.444,0.444,0.443,0.443,0.443,0.442,0.442,0.442,0.442,0.442,0.441,0.441,0.441,0.441,0.441,0.441,0.441,0.441,0.441,0.441,0.441,0.441,0.441,0.441,0.441,0.441,0.441,0.441,0.441,0.441,0.441,0.441,0.441,0.441,0.441,0.441,0.441,0.442,0.442,0.442,0.442,0.442,0.443,0.443,0.444,0.445,0.445,0.446,0.446,0.446,0.446,0.446,0.446,0.445,0.445,0.443,0.443,0.442,0.442,0.442,0.441,0.441,0.441,0.441,0.44,0.44,0.439,0.438,0.438,0.438,0.438,0.438,0.437,0.437,0.437,0.437,0.437,0.436,0.436,0.436,0.436,0.436,0.436,0.436,0.435,0.435,0.435,0.435,0.434,0.434,0.432,0.431,0.431,0.431,0.43,0.43,0.429,0.429,0.428,0.428,0.428,0.427,0.427,0.427,0.426,0.426,0.426,0.425,0.425,0.425,0.424,0.423,0.421,0.421,0.42,0.42,0.42,0.42,0.419,0.419,0.419,0.418,0.418,0.417,0.417,0.416,0.416,0.416,0.415,0.415,0.414,0.413,0.413,0.412,0.411,0.411,0.411,0.41,0.41,0.409,0.409,0.409,0.408,0.408,0.408,0.408,0.407,0.407,0.407,0.406,0.406,0.406,0.406,0.405,0.405,0.404,0.404,0.403,0.403,0.402,0.402,0.402,0.401,0.401,0.4,0.4,0.4,0.399,0.399,0.398,0.398,0.398,0.398,0.398,0.397,0.397,0.397,0.397,0.397,0.397,0.397,0.0,0.0,0.0
3.767,3.767,3.767,3.755,3.755,3.743,3.743,3.731,3.696,3.672,3.661,3.649,3.615,3.593,3.582,3.549,3.538,3.528,3.517,3.506,3.496,3.496,3.496,3.485,3.485,3.475,3.465,3.465,3.454,3.454,3.444,3.444,3.434,3.424,3.414,3.414,3.404,3.404,3.414,3.414,3.424,3.434,3.444,3.444,3.444,3.454,3.444,3.444,3.434,3.414,3.326,3.261,3.189,3.155,3.104,2.955,2.918,2.896,2.867,2.832,2.792,2.765,2.733,2.695,2.682,2.67,2.652,2.616,2.587,0.0,0.0,0.0,0.0,0.0,0.0,0.0,0.0,0.0,0.0,0.0,0.0,0.0,0.0,0.0,0.669,0.669,0.669,0.669,0.67,0.669,0.669,0.669,0.669,0.669,0.669,0.668,0.668,0.668,0.668,0.667,0.667,0.666,0.665,0.664,0.664,0.661,0.66,0.659,0.658,0.658,0.657,0.657,0.656,0.656,0.655,0.655,0.655,0.655,0.654,0.653,0.653,0.651,0.648,0.646,0.645,0.644,0.644,0.643,0.641,0.639,0.638,0.634,0.634,0.633,0.632,0.632,0.631,0.63,0.629,0.627,0.625,0.623,0.623,0.622,0.622,0.621,0.621,0.621,0.621,0.621,0.621,0.621,0.621,0.621,0.621,0.621,0.621,0.62,0.618,0.616,0.614,0.612,0.611,0.61,0.61,0.609,0.608,0.608,0.607,0.606,0.605,0.604,0.603,0.602,0.602,0.601,0.601,0.598,0.597,0.595,0.593,0.592,0.592,0.591,0.591,0.591,0.59,0.59,0.589,0.588,0.587,0.585,0.584,0.584,0.583,0.582,0.582,0.583,0.582,0.582,0.581,0.581,0.58,0.579,0.578,0.576,0.575,0.575,0.573,0.573,0.573,0.572,0.571,0.57,0.569,0.568,0.567,0.566,0.566,0.565,0.565,0.564,0.564,0.564,0.564,0.563,0.563,0.563,0.563,0.562,0.562,0.56,0.559,0.557,0.556,0.555,0.555,0.554,0.552,0.551,0.55,0.549,0.548,0.548,0.548,0.547,0.547,0.547,0.546,0.546,0.545,0.544,0.543,0.542,0.542,0.541,0.54,0.54,0.539,0.539,0.539,0.538,0.537,0.537,0.535,0.534,0.533,0.532,0.532,0.531,0.531,0.531,0.53,0.53,0.53,0.529,0.528,0.526,0.525,0.524,0.524,0.523,0.522,0.522,0.521,0.519,0.519,0.518,0.517,0.516,0.516,0.516,0.515,0.514,0.514,0.512,0.511,0.51,0.509,0.509,0.508,0.507,0.507,0.505,0.504,0.503,0.0,0.0,0.475,0.475,0.4745,0.474375,0.475,0.475,0.473,0.472,0.471,0.4704999999999999,0.469,0.467,0.465,0.46,0.459,0.458,0.458,0.457,0.457,0.456,0.456,0.455,0.454,0.454,0.454,0.453,0.453,0.453,0.452,0.452,0.452,0.451,0.449,0.448,0.447,0.446,0.446,0.445,0.444,0.444,0.444,0.444,0.445,0.445,0.445,0.446,0.446,0.446,0.446,0.446,0.446,0.446,0.446,0.446,0.446,0.446,0.446,0.446,0.446,0.445,0.445,0.445,0.445,0.444,0.444,0.443,0.443,0.443,0.443,0.443,0.443,0.443,0.443,0.443,0.443,0.443,0.443,0.443,0.443,0.442,0.442,0.443,0.44275,0.442,0.443,0.443,0.443,0.443,0.443,0.443,0.443,0.443,0.443,0.443,0.443,0.443,0.443,0.443,0.443,0.444,0.444,0.445,0.445,0.446,0.446,0.446,0.446,0.446,0.446,0.446,0.446,0.446,0.445,0.444,0.443,0.443,0.442,0.442,0.441,0.441,0.441,0.441,0.441,0.44,0.44,0.439,0.439,0.438,0.437,0.437,0.436,0.436,0.436,0.436,0.436,0.436,0.435,0.435,0.435,0.435,0.434,0.434,0.434,0.434,0.433,0.433,0.0,0.432,0.431,0.43,0.43,0.429,0.429,0.428,0.427,0.426,0.426,0.426,0.426,0.0,0.0,0.0,0.425,0.425,0.425,0.424,0.424,0.423,0.421,0.421,0.42,0.42,0.42,0.419,0.418,0.418,0.418,0.417,0.417,0.417,0.416,0.416,0.416,0.415,0.415,0.415,0.414,0.413,0.412,0.411,0.411,0.409,0.408,0.407,0.407,0.407,0.407,0.406,0.406,0.406,0.406,0.406,0.405,0.405,0.404,0.404,0.403,0.403,0.403,0.402,0.402,0.402,0.402,0.402,0.402,0.401,0.4,0.4,0.399,0.399,0.399,0.398,0.398,0.398,0.398,0.397,0.397,0.397,0.396,0.396,0.396,0.396,0.395,0.395,0.395,0.395,0.395,0.395,0.395,0.0,0.0,0.0
3.743,3.731,3.707,3.707,3.707,3.696,3.696,3.672,3.661,3.649,3.627,3.593,3.582,3.549,3.538,3.528,3.517,3.506,3.496,3.496,3.496,3.485,3.485,3.485,3.475,3.465,3.465,3.454,3.454,3.444,3.434,3.424,3.414,3.404,3.394,3.384,3.384,3.384,3.384,3.384,3.404,3.404,3.414,3.424,3.444,3.444,3.444,3.434,3.424,3.414,3.326,3.261,3.198,3.163,3.121,2.977,2.932,2.903,2.874,2.839,2.805,2.752,2.733,2.701,2.689,2.682,0.0,0.0,0.0,0.0,0.0,0.0,0.0,0.0,0.0,0.0,0.0,0.0,0.0,0.0,0.0,0.0,0.0,0.669,0.669,0.669,0.669,0.669,0.669,0.669,0.668,0.668,0.668,0.668,0.668,0.667,0.667,0.666,0.666,0.665,0.664,0.663,0.662,0.66,0.658,0.657,0.657,0.656,0.656,0.655,0.655,0.655,0.654,0.654,0.653,0.653,0.653,0.651,0.65,0.648,0.647,0.645,0.645,0.644,0.643,0.641,0.64,0.638,0.634,0.633,0.633,0.632,0.632,0.631,0.63,0.629,0.627,0.625,0.624,0.623,0.622,0.621,0.621,0.62,0.62,0.619,0.619,0.618,0.618,0.619,0.619,0.619,0.619,0.618,0.618,0.617,0.616,0.614,0.6134999999999999,0.611625,0.61,0.609,0.608,0.607,0.606,0.605,0.604,0.604,0.603,0.602,0.602,0.601,0.601,0.6,0.599,0.596,0.595,0.593,0.592,0.592,0.591,0.591,0.59,0.589,0.589,0.588,0.587,0.586,0.584,0.584,0.583,0.582,0.582,0.582,0.581,0.581,0.579,0.578,0.576,0.575,0.574,0.577,0.576,0.575,0.574,0.573,0.573,0.573,0.572,0.571,0.57,0.568,0.567,0.566,0.566,0.565,0.565,0.564,0.564,0.564,0.563,0.563,0.562,0.562,0.561,0.56,0.56,0.559,0.559,0.559,0.558,0.557,0.556,0.555,0.555,0.553,0.551,0.549,0.549,0.547,0.547,0.547,0.547,0.547,0.546,0.546,0.545,0.544,0.543,0.542,0.541,0.541,0.54,0.539,0.539,0.539,0.538,0.538,0.538,0.538,0.536,0.535,0.534,0.533,0.532,0.532,0.531,0.531,0.531,0.53,0.53,0.53,0.529,0.528,0.528,0.527,0.525,0.524,0.523,0.523,0.523,0.522,0.521,0.52,0.519,0.518,0.517,0.517,0.516,0.516,0.516,0.515,0.514,0.514,0.512,0.511,0.51,0.509,0.509,0.508,0.508,0.507,0.505,0.504,0.503,0.0,0.0,0.0,0.0,0.48,0.478,0.477,0.477,0.477,0.476,0.475,0.475,0.475,0.474,0.472,0.47,0.461,0.46,0.459,0.458,0.458,0.458,0.458,0.457,0.457,0.457,0.457,0.457,0.457,0.457,0.457,0.456,0.455,0.454,0.452,0.452,0.451,0.451,0.45,0.449,0.448,0.448,0.447,0.447,0.447,0.448,0.448,0.448,0.448,0.449,0.449,0.448,0.448,0.448,0.447,0.447,0.447,0.447,0.447,0.446,0.447,0.446,0.446,0.446,0.446,0.446,0.446,0.446,0.446,0.446,0.446,0.446,0.446,0.446,0.446,0.446,0.446,0.446,0.446,0.446,0.446,0.446,0.446,0.445,0.445,0.445,0.445,0.446,0.446,0.445,0.445,0.445,0.445,0.445,0.445,0.445,0.445,0.445,0.444,0.444,0.444,0.444,0.445,0.445,0.445,0.446,0.446,0.446,0.446,0.446,0.446,0.446,0.446,0.446,0.445,0.445,0.443,0.443,0.442,0.442,0.441,0.441,0.441,0.441,0.441,0.44,0.44,0.439,0.438,0.437,0.437,0.436,0.436,0.436,0.436,0.435,0.435,0.435,0.434,0.434,0.433,0.433,0.432,0.432,0.432,0.432,0.431,0.431,0.431,0.4305,0.43,0.429,0.429,0.428,0.428,0.427,0.427,0.426,0.426,0.426,0.425,0.425,0.0,0.0,0.0,0.424,0.424,0.423,0.422,0.422,0.421,0.42,0.419,0.418,0.417,0.416,0.416,0.416,0.416,0.415,0.415,0.415,0.414,0.414,0.413,0.412,0.412,0.411,0.411,0.411,0.409,0.409,0.408,0.407,0.407,0.407,0.406,0.406,0.406,0.406,0.405,0.405,0.404,0.404,0.404,0.404,0.403,0.403,0.403,0.402,0.402,0.402,0.402,0.402,0.401,0.401,0.4,0.4,0.399,0.399,0.398,0.398,0.398,0.398,0.397,0.397,0.397,0.397,0.396,0.396,0.395,0.395,0.394,0.394,0.394,0.394,0.394,0.393,0.393,0.393,0.393,0.393,0.0,0.0,0.0
3.672,3.672,3.672,3.672,3.672,3.661,3.661,3.649,3.627,3.615,3.593,3.582,3.56,3.538,3.528,3.517,3.506,3.496,3.496,3.496,3.485,3.485,3.485,3.475,3.465,3.465,3.454,3.444,3.444,3.424,3.414,3.404,3.384,3.365,3.365,3.355,3.355,3.355,3.355,3.365,3.384,3.394,3.394,3.414,3.424,3.434,3.434,3.424,3.414,3.404,3.336,3.27,3.216,3.181,3.146,2.993,2.94,2.91,2.882,2.839,2.805,2.765,2.733,2.707,0.0,0.0,0.0,0.0,0.0,0.0,0.0,0.0,0.0,0.0,0.0,0.0,0.0,0.0,0.0,0.0,0.0,0.669,0.669,0.669,0.669,0.668,0.668,0.668,0.668,0.668,0.667,0.667,0.667,0.666,0.666,0.665,0.664,0.663,0.663,0.662,0.661,0.658,0.658,0.657,0.657,0.655,0.655,0.655,0.654,0.654,0.653,0.653,0.651,0.65,0.65,0.649,0.647,0.646,0.645,0.644,0.644,0.643,0.642,0.641,0.639,0.636,0.633,0.633,0.632,0.631,0.63,0.629,0.629,0.627,0.626,0.624,0.623,0.623,0.622,0.622,0.62,0.619,0.617,0.616,0.616,0.616,0.615,0.615,0.616,0.616,0.616,0.615,0.615,0.614,0.614,0.613,0.612,0.61025,0.609,0.607,0.606,0.604,0.603,0.603,0.602,0.602,0.602,0.602,0.601,0.601,0.6,0.597,0.596,0.594,0.593,0.592,0.592,0.591,0.591,0.589,0.588,0.588,0.587,0.586,0.584,0.584,0.584,0.583,0.582,0.582,0.581,0.581,0.58,0.579,0.578,0.576,0.575,0.574,0.573,0.573,0.572,0.572,0.571,0.57,0.572,0.571,0.57,0.57,0.568,0.567,0.566,0.565,0.565,0.564,0.564,0.563,0.563,0.563,0.562,0.56,0.56,0.559,0.559,0.558,0.558,0.557,0.557,0.556,0.556,0.556,0.556,0.555,0.554,0.553,0.551,0.549,0.547,0.547,0.547,0.546,0.546,0.545,0.544,0.543,0.543,0.542,0.541,0.54,0.54,0.539,0.539,0.539,0.538,0.538,0.538,0.536,0.535,0.535,0.534,0.533,0.533,0.532,0.532,0.531,0.531,0.531,0.53,0.53,0.529,0.528,0.528,0.527,0.526,0.526,0.525,0.524,0.523,0.522,0.522,0.521,0.52,0.519,0.518,0.517,0.517,0.516,0.516,0.516,0.516,0.515,0.514,0.512,0.511,0.511,0.51,0.509,0.509,0.509,0.508,0.507,0.507,0.506,0.505,0.504,0.502,0.5015000000000001,0.501,0.0,0.0,0.486,0.486,0.481,0.4804999999999999,0.481,0.481,0.478,0.47775,0.477,0.0,0.0,0.0,0.0,0.0,0.458,0.457,0.458,0.457,0.458,0.458,0.458,0.459,0.458,0.459,0.459,0.459,0.458,0.458,0.457,0.457,0.456,0.456,0.454,0.453,0.452,0.452,0.452,0.452,0.451,0.452,0.452,0.452,0.452,0.452,0.452,0.452,0.452,0.452,0.451,0.451,0.45,0.449,0.448,0.448,0.447,0.447,0.447,0.447,0.447,0.447,0.447,0.447,0.447,0.447,0.447,0.447,0.447,0.447,0.447,0.447,0.447,0.447,0.447,0.447,0.447,0.447,0.447,0.447,0.447,0.447,0.447,0.447,0.447,0.447,0.447,0.447,0.447,0.446,0.446,0.446,0.446,0.446,0.446,0.445,0.445,0.445,0.445,0.445,0.445,0.445,0.446,0.446,0.446,0.446,0.446,0.446,0.446,0.446,0.446,0.445,0.445,0.443,0.443,0.442,0.442,0.441,0.441,0.441,0.441,0.44,0.44,0.44,0.439,0.439,0.438,0.436,0.436,0.436,0.435,0.435,0.434,0.434,0.433,0.433,0.432,0.432,0.431,0.431,0.431,0.431,0.431,0.43,0.43,0.43,0.43,0.429,0.428,0.427,0.427,0.426,0.426,0.426,0.425,0.424,0.424,0.424,0.423,0.423,0.422,0.422,0.422,0.421,0.421,0.42,0.42,0.42,0.419,0.418,0.417,0.416,0.416,0.416,0.415,0.415,0.414,0.414,0.414,0.413,0.412,0.412,0.411,0.411,0.411,0.411,0.409,0.408,0.408,0.407,0.407,0.406,0.406,0.406,0.406,0.405,0.405,0.404,0.404,0.404,0.403,0.403,0.403,0.402,0.402,0.402,0.402,0.402,0.401,0.401,0.401,0.4,0.4,0.399,0.399,0.398,0.398,0.398,0.397,0.397,0.397,0.397,0.396,0.395,0.395,0.394,0.394,0.394,0.394,0.394,0.393,0.393,0.393,0.393,0.393,0.0,0.0,0.392,0.392,0.392,0.0,0.0,0.0
3.627,3.627,3.627,3.627,3.627,3.627,3.615,3.593,3.593,3.582,3.56,3.549,3.538,3.528,3.517,3.506,3.496,3.496,3.496,3.496,3.485,3.485,3.485,3.475,3.465,3.454,3.444,3.434,3.424,3.404,3.394,3.365,3.355,3.336,3.326,3.326,3.326,3.326,3.326,3.336,3.336,3.365,3.365,3.394,3.404,3.414,3.414,3.414,3.404,3.404,3.336,3.298,3.234,3.181,3.155,3.104,2.947,2.91,2.882,2.839,2.805,2.765,2.733,2.714,0.0,0.0,0.0,0.0,0.0,0.0,0.0,0.0,0.0,0.0,0.0,0.0,0.0,0.0,0.0,0.669,0.669,0.668,0.668,0.668,0.668,0.668,0.667,0.667,0.667,0.666,0.666,0.665,0.664,0.663,0.663,0.661,0.661,0.66,0.658,0.657,0.657,0.656,0.656,0.655,0.655,0.654,0.653,0.652,0.651,0.65,0.649,0.648,0.647,0.646,0.645,0.645,0.644,0.644,0.643,0.642,0.64,0.639,0.637,0.635,0.634,0.632,0.631,0.63,0.629,0.627,0.626,0.625,0.624,0.623,0.622,0.622,0.621,0.619,0.618,0.616,0.615,0.614,0.614,0.613,0.613,0.613,0.613,0.612,0.613,0.613,0.612,0.612,0.612,0.611,0.611,0.609,0.608,0.606,0.604,0.603,0.602,0.602,0.601,0.601,0.601,0.601,0.601,0.6,0.599,0.596,0.594,0.593,0.592,0.592,0.591,0.59,0.589,0.587,0.586,0.585,0.584,0.584,0.583,0.582,0.582,0.582,0.582,0.581,0.581,0.58,0.579,0.577,0.576,0.575,0.574,0.573,0.573,0.571,0.571,0.57,0.569,0.569,0.567,0.566,0.566,0.565,0.565,0.564,0.565,0.564,0.564,0.564,0.563,0.563,0.562,0.561,0.561,0.559,0.558,0.558,0.557,0.556,0.556,0.556,0.556,0.556,0.555,0.555,0.555,0.555,0.554,0.553,0.551,0.549,0.547,0.547,0.546,0.544,0.543,0.542,0.542,0.541,0.54,0.54,0.54,0.539,0.539,0.538,0.538,0.537,0.537,0.536,0.535,0.534,0.533,0.533,0.533,0.532,0.532,0.531,0.531,0.531,0.531,0.53,0.529,0.529,0.528,0.527,0.527,0.526,0.525,0.525,0.524,0.523,0.523,0.522,0.521,0.52,0.519,0.51825,0.517,0.516,0.516,0.516,0.516,0.515,0.515,0.514,0.514,0.512,0.511,0.51,0.509,0.509,0.509,0.509,0.508,0.508,0.507,0.506,0.505,0.504,0.503,0.502,0.501,0.5,0.499,0.496,0.494,0.492,0.487,0.485,0.483,0.48274999999999996,0.482,0.482,0.481,0.48,0.0,0.0,0.0,0.0,0.0,0.0,0.0,0.0,0.46950000000000003,0.47,0.4675,0.4665,0.0,0.0,0.0,0.463,0.463,0.461,0.461,0.46,0.459,0.458,0.458,0.458,0.457,0.457,0.456,0.456,0.455,0.454,0.454,0.454,0.454,0.455,0.455,0.455,0.455,0.455,0.453,0.453,0.452,0.452,0.451,0.451,0.45,0.449,0.449,0.449,0.449,0.449,0.449,0.449,0.449,0.449,0.449,0.448,0.448,0.448,0.448,0.448,0.448,0.448,0.448,0.449,0.449,0.449,0.449,0.449,0.449,0.449,0.449,0.448,0.448,0.448,0.448,0.448,0.448,0.447,0.447,0.447,0.447,0.446,0.446,0.446,0.446,0.446,0.445,0.445,0.445,0.445,0.445,0.445,0.445,0.445,0.445,0.445,0.446,0.445,0.445,0.445,0.444,0.443,0.442,0.442,0.441,0.441,0.441,0.441,0.44,0.44,0.439,0.439,0.438,0.438,0.436,0.436,0.436,0.436,0.435,0.434,0.434,0.433,0.432,0.432,0.431,0.431,0.431,0.43,0.43,0.43,0.43,0.428,0.427,0.426,0.426,0.426,0.425,0.425,0.425,0.424,0.424,0.424,0.424,0.424,0.423,0.423,0.422,0.421,0.421,0.421,0.421,0.421,0.421,0.42,0.42,0.419,0.418,0.417,0.417,0.416,0.416,0.415,0.414,0.414,0.413,0.412,0.412,0.412,0.412,0.411,0.411,0.411,0.41,0.41,0.408,0.407,0.407,0.407,0.406,0.406,0.406,0.405,0.405,0.405,0.404,0.403,0.403,0.403,0.402,0.402,0.402,0.402,0.402,0.402,0.401,0.401,0.401,0.4,0.399,0.399,0.398,0.398,0.398,0.398,0.398,0.397,0.397,0.397,0.396,0.396,0.395,0.394,0.394,0.394,0.393,0.393,0.393,0.393,0.393,0.393,0.392,0.392,0.391,0.391,0.0,0.0,0.39,0.39,0.0,0.0,0.0,0.0
3.593,3.593,3.582,3.593,3.593,3.582,3.582,3.56,3.549,3.538,3.538,3.528,3.517,3.506,3.506,3.496,3.496,3.496,3.496,3.485,3.485,3.485,3.475,3.465,3.454,3.444,3.434,3.424,3.404,3.384,3.365,3.336,3.326,3.317,3.317,3.298,3.298,3.298,3.317,3.326,3.326,3.336,3.355,3.365,3.384,3.394,3.394,3.404,3.404,3.394,3.336,3.317,3.261,3.198,3.163,3.129,2.962,2.925,2.896,2.86,2.812,0.0,0.0,0.0,0.0,0.0,0.0,0.0,0.0,0.0,0.0,0.0,0.0,0.0,0.0,0.0,0.0,0.0,0.668,0.668,0.668,0.668,0.667,0.667,0.667,0.667,0.666,0.665,0.664,0.664,0.663,0.662,0.661,0.66,0.658,0.658,0.657,0.656,0.656,0.655,0.655,0.655,0.654,0.653,0.652,0.651,0.649,0.648,0.647,0.646,0.645,0.645,0.644,0.644,0.643,0.643,0.642,0.64,0.639,0.637,0.635,0.634,0.633,0.632,0.63,0.629,0.627,0.625,0.624,0.623,0.622,0.622,0.622,0.621,0.618,0.617,0.615,0.614,0.613,0.613,0.612,0.612,0.611,0.611,0.611,0.611,0.611,0.611,0.611,0.611,0.611,0.611,0.61,0.608,0.606,0.604,0.603,0.602,0.601,0.601,0.6,0.599,0.599,0.599,0.599,0.598,0.595,0.594,0.593,0.592,0.592,0.591,0.589,0.588,0.587,0.585,0.584,0.583,0.582,0.582,0.582,0.581,0.581,0.581,0.581,0.58,0.579,0.579,0.577,0.576,0.575,0.574,0.573,0.573,0.571,0.57,0.569,0.568,0.567,0.566,0.565,0.565,0.565,0.564,0.564,0.564,0.563,0.562,0.561,0.559,0.562,0.561,0.559,0.558,0.558,0.558,0.557,0.556,0.556,0.556,0.556,0.555,0.555,0.555,0.555,0.555,0.554,0.554,0.553,0.552,0.55,0.549,0.547,0.546,0.544,0.543,0.542,0.541,0.54,0.54,0.54,0.539,0.539,0.538,0.538,0.537,0.535,0.535,0.533,0.533,0.533,0.532,0.532,0.532,0.531,0.531,0.531,0.531,0.53,0.529,0.529,0.528,0.527,0.527,0.526,0.525,0.525,0.525,0.524,0.524,0.523,0.523,0.523,0.522,0.521,0.52,0.519,0.518,0.517,0.516,0.516,0.515,0.515,0.514,0.512,0.511,0.511,0.51,0.51,0.51,0.509,0.509,0.509,0.508,0.508,0.507,0.507,0.506,0.505,0.504,0.503,0.503,0.502,0.501,0.5,0.499,0.497,0.496,0.495,0.492,0.489,0.488,0.48575,0.485,0.484,0.484,0.483,0.482,0.482,0.482,0.482,0.482,0.483,0.0,0.0,0.0,0.482,0.482,0.477,0.475,0.0,0.0,0.0,0.465,0.465,0.464,0.464,0.463,0.463,0.462,0.461,0.461,0.46,0.459,0.458,0.458,0.458,0.458,0.458,0.458,0.458,0.458,0.458,0.458,0.458,0.457,0.457,0.457,0.456,0.453,0.452,0.452,0.452,0.451,0.451,0.451,0.451,0.451,0.451,0.451,0.451,0.451,0.451,0.45,0.45,0.45,0.45,0.45,0.45,0.451,0.451,0.451,0.451,0.451,0.451,0.451,0.451,0.451,0.451,0.451,0.45,0.45,0.449,0.45,0.448,0.448,0.448,0.447,0.447,0.447,0.446,0.446,0.446,0.445,0.445,0.445,0.444,0.444,0.444,0.444,0.444,0.444,0.444,0.444,0.444,0.444,0.443,0.443,0.442,0.441,0.441,0.441,0.441,0.44,0.44,0.439,0.439,0.438,0.438,0.437,0.437,0.436,0.436,0.436,0.435,0.435,0.434,0.433,0.432,0.431,0.43,0.429,0.429,0.428,0.428,0.427,0.427,0.427,0.426,0.426,0.426,0.425,0.425,0.424,0.424,0.424,0.423,0.423,0.423,0.422,0.422,0.422,0.422,0.421,0.421,0.421,0.421,0.42,0.42,0.42,0.419,0.418,0.417,0.417,0.416,0.416,0.416,0.0,0.0,0.0,0.412,0.412,0.411,0.411,0.411,0.411,0.411,0.41,0.41,0.408,0.407,0.407,0.407,0.406,0.406,0.406,0.405,0.405,0.404,0.403,0.403,0.403,0.403,0.402,0.402,0.402,0.402,0.402,0.402,0.401,0.401,0.4,0.4,0.399,0.399,0.398,0.398,0.398,0.398,0.398,0.397,0.397,0.397,0.397,0.396,0.394,0.394,0.394,0.394,0.393,0.393,0.393,0.393,0.393,0.392,0.392,0.391,0.391,0.391,0.39,0.389,0.3895,0.0,0.0,0.389,0.389,0.0,0.0,0.0,0.0
3.56,3.56,3.549,3.549,3.549,3.538,3.538,3.528,3.517,3.517,3.506,3.496,3.496,3.496,3.496,3.496,3.496,3.485,3.485,3.485,3.475,3.465,3.465,3.454,3.444,3.444,3.414,3.404,3.384,3.365,3.336,3.326,3.317,3.298,3.288,3.288,3.288,3.298,3.298,3.298,3.317,3.326,3.336,3.355,3.365,3.365,3.384,3.384,3.384,3.355,3.355,3.317,3.27,3.216,3.181,3.146,2.993,0.0,0.0,0.0,0.0,0.0,0.0,0.0,0.0,0.0,0.0,0.0,0.0,0.0,0.0,0.0,0.0,0.0,0.0,0.0,0.0,0.666,0.66625,0.667,0.667,0.666,0.666,0.666,0.665,0.664,0.663,0.662,0.661,0.66,0.659,0.658,0.657,0.657,0.656,0.655,0.655,0.655,0.654,0.653,0.653,0.651,0.65,0.649,0.648,0.647,0.646,0.645,0.645,0.644,0.644,0.643,0.642,0.641,0.64,0.638,0.636,0.635,0.634,0.633,0.632,0.631,0.629,0.628,0.625,0.624,0.623,0.622,0.622,0.621,0.62,0.617,0.616,0.615,0.613,0.613,0.612,0.612,0.611,0.611,0.611,0.611,0.61,0.61,0.61,0.61,0.61,0.609,0.609,0.609,0.608,0.606,0.605,0.603,0.602,0.601,0.601,0.6,0.599,0.598,0.596,0.595,0.594,0.594,0.593,0.593,0.592,0.592,0.591,0.59,0.588,0.586,0.585,0.584,0.583,0.582,0.582,0.581,0.581,0.581,0.58,0.579,0.578,0.577,0.577,0.576,0.575,0.574,0.574,0.573,0.572,0.572,0.57,0.568,0.566,0.565,0.565,0.565,0.564,0.564,0.564,0.563,0.563,0.563,0.562,0.561,0.558,0.557,0.556,0.556,0.556,0.555,0.555,0.555,0.556,0.556,0.555,0.555,0.555,0.555,0.554,0.554,0.554,0.554,0.553,0.552,0.551,0.549,0.549,0.548,0.547,0.546,0.543,0.542,0.541,0.54,0.539,0.539,0.538,0.538,0.538,0.537,0.536,0.535,0.533,0.533,0.532,0.532,0.531,0.531,0.531,0.531,0.531,0.53,0.529,0.529,0.527,0.527,0.526,0.525,0.526,0.525,0.524,0.523,0.523,0.523,0.523,0.523,0.522,0.522,0.521,0.521,0.52,0.519,0.518,0.5175000000000001,0.516,0.516,0.516,0.515,0.514,0.512,0.511,0.51,0.51,0.509,0.509,0.509,0.509,0.509,0.508,0.508,0.507,0.507,0.506,0.505,0.504,0.504,0.503,0.502,0.502,0.501,0.5,0.499,0.498,0.497,0.496,0.495,0.494,0.49175,0.489,0.488,0.487,0.487,0.486,0.485,0.484,0.483,0.483,0.483,0.483,0.483,0.483,0.483,0.482,0.482,0.482,0.482,0.48,0.477,0.47,0.47,0.469,0.468,0.468,0.467,0.465,0.465,0.464,0.464,0.463,0.463,0.463,0.463,0.462,0.462,0.461,0.461,0.461,0.46,0.46,0.461,0.46,0.46,0.46,0.459,0.458,0.458,0.457,0.457,0.456,0.453,0.452,0.452,0.452,0.452,0.452,0.452,0.452,0.452,0.452,0.452,0.452,0.452,0.451,0.451,0.451,0.451,0.451,0.452,0.452,0.452,0.452,0.452,0.452,0.452,0.452,0.452,0.452,0.451,0.451,0.451,0.45,0.449,0.449,0.448,0.448,0.447,0.447,0.447,0.446,0.446,0.446,0.445,0.445,0.444,0.444,0.443,0.443,0.443,0.443,0.443,0.442,0.442,0.442,0.442,0.441,0.441,0.441,0.441,0.44,0.44,0.439,0.438,0.438,0.437,0.437,0.436,0.436,0.436,0.434,0.433,0.432,0.434,0.431,0.431,0.431,0.43,0.429,0.429,0.428,0.428,0.427,0.427,0.426,0.426,0.426,0.426,0.425,0.425,0.42424999999999996,0.424,0.423,0.423,0.422,0.422,0.422,0.421,0.421,0.421,0.421,0.421,0.421,0.42,0.42,0.42,0.419,0.418,0.418,0.417,0.417,0.416,0.416,0.416,0.415,0.415,0.414,0.0,0.0,0.0,0.411,0.411,0.411,0.41,0.41,0.409,0.409,0.407,0.407,0.407,0.406,0.406,0.406,0.405,0.405,0.404,0.404,0.403,0.403,0.402,0.402,0.402,0.402,0.402,0.402,0.402,0.402,0.401,0.401,0.4,0.4,0.398,0.398,0.398,0.398,0.397,0.397,0.397,0.397,0.397,0.396,0.396,0.395,0.394,0.394,0.393,0.393,0.393,0.393,0.392,0.392,0.392,0.391,0.391,0.391,0.39,0.389,0.389,0.389,0.389,0.388,0.388,0.388,0.388,0.388,0.388,0.0,0.0,0.0,0.0
3.528,3.528,3.528,3.528,3.517,3.517,3.506,3.506,3.496,3.496,3.496,3.496,3.485,3.485,3.485,3.485,3.485,3.485,3.475,3.465,3.465,3.465,3.454,3.444,3.434,3.424,3.404,3.384,3.365,3.336,3.336,3.326,3.298,3.288,3.288,3.27,3.27,3.27,3.27,3.288,3.288,3.317,3.317,3.326,3.336,3.355,3.355,3.355,3.365,3.355,3.336,3.326,3.298,3.243,3.207,3.172,0.0,0.0,0.0,0.0,0.0,0.0,0.0,0.0,0.0,0.0,0.0,0.0,0.0,0.0,0.0,0.0,0.0,0.0,0.0,0.66,0.662,0.663,0.664,0.664,0.664,0.664,0.663,0.663,0.662,0.661,0.659,0.658,0.658,0.657,0.657,0.656,0.655,0.655,0.654,0.654,0.653,0.651,0.65,0.649,0.648,0.648,0.647,0.646,0.645,0.645,0.644,0.643,0.642,0.641,0.64,0.638,0.636,0.635,0.634,0.633,0.633,0.632,0.63,0.629,0.627,0.626,0.624,0.623,0.622,0.621,0.621,0.62,0.618,0.615,0.614,0.613,0.612,0.612,0.611,0.611,0.611,0.61,0.609,0.609,0.608,0.608,0.608,0.608,0.608,0.608,0.606,0.605,0.605,0.603,0.603,0.602,0.601,0.601,0.599,0.598,0.597,0.596,0.594,0.593,0.593,0.592,0.592,0.592,0.591,0.591,0.59,0.589,0.587,0.586,0.584,0.583,0.582,0.581,0.581,0.58,0.579,0.579,0.578,0.577,0.576,0.575,0.575,0.574,0.574,0.573,0.573,0.572,0.571,0.569,0.568,0.566,0.565,0.565,0.564,0.564,0.563,0.563,0.563,0.562,0.562,0.561,0.56,0.559,0.557,0.556,0.556,0.555,0.555,0.555,0.554,0.554,0.553,0.553,0.553,0.552,0.551,0.553,0.552,0.552,0.551,0.551,0.55,0.549,0.549,0.547,0.547,0.547,0.546,0.544,0.543,0.541,0.54,0.539,0.539,0.538,0.538,0.537,0.536,0.535,0.534,0.533,0.533,0.532,0.531,0.531,0.531,0.531,0.53,0.529,0.528,0.528,0.52775,0.527,0.526,0.525,0.524,0.524,0.523,0.523,0.523,0.522,0.522,0.522,0.522,0.521,0.521,0.52,0.519,0.519,0.518,0.518,0.517,0.516,0.516,0.516,0.515,0.514,0.511,0.511,0.51,0.509,0.509,0.509,0.509,0.508,0.508,0.508,0.507,0.507,0.506,0.505,0.505,0.504,0.504,0.503,0.503,0.502,0.501,0.501,0.5,0.499,0.498,0.497,0.496,0.495,0.495,0.494,0.493,0.492,0.489,0.488,0.488,0.487,0.487,0.487,0.486,0.485,0.485,0.484,0.484,0.484,0.483,0.483,0.482,0.482,0.482,0.481,0.48,0.478,0.476,0.474,0.471,0.47,0.469,0.469,0.468,0.467,0.466,0.465,0.465,0.464,0.464,0.464,0.464,0.463,0.463,0.463,0.463,0.463,0.463,0.463,0.463,0.462,0.462,0.461,0.461,0.46,0.458,0.458,0.457,0.457,0.454,0.453,0.452,0.452,0.452,0.452,0.452,0.452,0.452,0.452,0.452,0.452,0.452,0.452,0.452,0.452,0.452,0.452,0.452,0.452,0.452,0.452,0.452,0.452,0.452,0.452,0.452,0.451,0.451,0.45,0.449,0.448,0.448,0.447,0.447,0.447,0.447,0.446,0.446,0.445,0.445,0.444,0.444,0.443,0.442,0.442,0.442,0.441,0.441,0.441,0.441,0.441,0.441,0.441,0.441,0.44,0.44,0.439,0.438,0.438,0.437,0.435,0.435,0.435,0.434,0.434,0.433,0.432,0.432,0.431,0.0,0.0,0.43,0.429,0.429,0.428,0.427,0.427,0.426,0.426,0.426,0.425,0.425,0.425,0.425,0.425,0.424,0.424,0.422,0.421,0.421,0.421,0.421,0.421,0.421,0.42,0.42,0.42,0.42,0.419,0.419,0.418,0.418,0.417,0.417,0.417,0.416,0.416,0.416,0.415,0.415,0.414,0.414,0.413,0.411,0.411,0.411,0.41,0.409,0.409,0.409,0.408,0.408,0.407,0.407,0.406,0.406,0.406,0.405,0.405,0.404,0.404,0.403,0.403,0.402,0.402,0.402,0.402,0.402,0.402,0.402,0.402,0.401,0.401,0.4,0.4,0.399,0.398,0.398,0.397,0.397,0.397,0.397,0.396,0.396,0.395,0.395,0.394,0.394,0.394,0.393,0.393,0.393,0.392,0.392,0.392,0.391,0.391,0.39,0.39,0.39,0.39,0.389,0.389,0.389,0.388,0.388,0.388,0.387,0.386,0.386,0.386,0.386,0.386,0.0,0.0,0.0,0.0
3.506,3.496,3.496,3.496,3.496,3.496,3.496,3.485,3.485,3.485,3.485,3.485,3.475,3.475,3.475,3.475,3.475,3.465,3.465,3.465,3.454,3.444,3.444,3.434,3.424,3.414,3.394,3.384,3.355,3.355,3.336,3.317,3.288,3.288,3.27,3.27,3.261,3.261,3.27,3.27,3.288,3.288,3.298,3.298,3.317,3.326,3.336,3.336,3.336,3.336,3.326,3.317,3.298,3.261,0.0,0.0,0.0,0.0,0.0,0.0,0.0,0.0,0.0,0.0,0.0,0.0,0.0,0.0,0.0,0.0,0.0,0.0,0.0,0.655,0.657,0.657,0.658,0.66,0.66,0.661,0.661,0.66,0.66,0.658,0.658,0.657,0.657,0.656,0.655,0.655,0.655,0.654,0.653,0.652,0.651,0.65,0.648,0.647,0.646,0.646,0.645,0.645,0.644,0.644,0.643,0.642,0.64,0.639,0.638,0.635,0.634,0.634,0.633,0.632,0.632,0.631,0.628,0.626,0.625,0.624,0.623,0.622,0.622,0.621,0.62,0.618,0.614,0.613,0.612,0.612,0.611,0.611,0.61,0.609,0.608,0.608,0.607,0.607,0.606,0.606,0.605,0.605,0.605,0.604,0.604,0.603,0.603,0.602,0.602,0.601,0.601,0.6,0.598,0.597,0.595,0.593,0.593,0.592,0.592,0.592,0.592,0.591,0.591,0.59,0.589,0.588,0.586,0.584,0.583,0.583,0.581,0.581,0.58,0.579,0.577,0.576,0.575,0.575,0.575,0.574,0.574,0.574,0.573,0.573,0.572,0.571,0.57,0.567,0.566,0.565,0.564,0.564,0.563,0.562,0.561,0.561,0.56,0.56,0.559,0.558,0.557,0.556,0.556,0.556,0.555,0.555,0.554,0.553,0.553,0.552,0.551,0.551,0.55,0.549,0.549,0.549,0.548,0.548,0.548,0.547,0.548,0.548,0.548,0.547,0.547,0.546,0.544,0.543,0.541,0.54,0.539,0.539,0.538,0.538,0.537,0.536,0.534,0.534,0.533,0.532,0.532,0.531,0.531,0.531,0.53,0.53,0.529,0.528,0.527,0.526,0.526,0.525,0.525,0.524,0.523,0.523,0.522,0.522,0.521,0.521,0.52,0.519,0.519,0.518,0.518,0.518,0.518,0.517,0.517,0.516,0.516,0.516,0.516,0.515,0.514,0.511,0.511,0.51,0.509,0.509,0.509,0.508,0.508,0.508,0.507,0.506,0.506,0.505,0.504,0.504,0.503,0.503,0.502,0.502,0.502,0.501,0.501,0.5,0.499,0.499,0.497,0.496,0.496,0.496,0.495,0.495,0.494,0.493,0.492,0.49,0.489,0.488,0.488,0.487,0.487,0.486,0.486,0.485,0.484,0.483,0.483,0.483,0.482,0.482,0.482,0.482,0.48,0.48,0.479,0.477,0.476,0.475,0.475,0.471,0.47,0.47,0.469,0.468,0.468,0.467,0.466,0.466,0.465,0.465,0.465,0.465,0.464,0.464,0.464,0.464,0.464,0.464,0.464,0.463,0.463,0.463,0.463,0.462,0.46,0.459,0.458,0.457,0.457,0.454,0.453,0.453,0.453,0.453,0.453,0.453,0.453,0.453,0.453,0.452,0.452,0.452,0.452,0.452,0.452,0.452,0.452,0.452,0.453,0.452,0.452,0.452,0.452,0.452,0.451,0.45,0.449,0.448,0.447,0.447,0.447,0.447,0.446,0.446,0.446,0.445,0.445,0.444,0.443,0.443,0.442,0.441,0.441,0.441,0.441,0.441,0.441,0.441,0.44,0.44,0.44,0.44,0.437,0.436,0.436,0.436,0.436,0.435,0.434,0.434,0.433,0.432,0.432,0.432,0.431,0.431,0.431,0.43,0.0,0.0,0.428,0.427,0.427,0.426,0.426,0.426,0.425,0.425,0.425,0.425,0.424,0.424,0.423,0.422,0.421,0.4215,0.421,0.42,0.42,0.42,0.42,0.42,0.42,0.419,0.0,0.0,0.417,0.417,0.416,0.416,0.416,0.416,0.416,0.415,0.415,0.415,0.414,0.414,0.412,0.411,0.411,0.411,0.41,0.409,0.409,0.408,0.407,0.407,0.407,0.407,0.406,0.406,0.406,0.405,0.405,0.404,0.404,0.403,0.403,0.402,0.402,0.402,0.402,0.402,0.401,0.401,0.401,0.401,0.401,0.4,0.4,0.399,0.399,0.398,0.397,0.397,0.397,0.396,0.396,0.395,0.395,0.394,0.394,0.394,0.394,0.393,0.393,0.393,0.392,0.392,0.391,0.391,0.39,0.39,0.39,0.389,0.389,0.389,0.389,0.389,0.388,0.388,0.387,0.387,0.386,0.386,0.386,0.385,0.385,0.385,0.385,0.385,0.0,0.0,0.0,0.0
3.485,3.485,3.485,3.485,3.485,3.485,3.475,3.475,3.475,3.475,3.465,3.465,3.465,3.465,3.465,3.465,3.465,3.454,3.454,3.444,3.444,3.434,3.424,3.414,3.404,3.394,3.384,3.365,3.355,3.336,3.326,3.317,3.288,3.288,3.27,3.261,3.261,3.261,3.261,3.261,3.261,3.27,3.28175,3.298,3.298,3.317,3.317,3.317,3.326,3.326,3.326,3.298,0.0,0.0,0.0,0.0,0.0,0.0,0.0,0.0,0.0,0.0,0.0,0.0,0.0,0.0,0.0,0.0,0.0,0.0,0.0,0.0,0.0,0.654,0.655,0.655,0.656,0.657,0.657,0.657,0.657,0.657,0.657,0.656,0.656,0.655,0.655,0.655,0.654,0.653,0.651,0.65,0.649,0.648,0.647,0.646,0.645,0.645,0.644,0.644,0.644,0.643,0.641,0.64,0.639,0.638,0.635,0.634,0.634,0.633,0.632,0.632,0.63,0.628,0.626,0.624,0.623,0.623,0.622,0.622,0.621,0.62,0.619,0.615,0.613,0.612,0.611,0.611,0.61,0.609,0.608,0.607,0.606,0.605,0.604,0.603,0.603,0.603,0.603,0.603,0.602,0.602,0.602,0.602,0.602,0.601,0.601,0.6,0.599,0.598,0.596,0.595,0.593,0.592,0.592,0.591,0.591,0.591,0.591,0.59,0.589,0.589,0.587,0.586,0.585,0.584,0.583,0.582,0.58,0.58,0.578,0.576,0.575,0.575,0.574,0.573,0.573,0.573,0.573,0.573,0.572,0.572,0.571,0.569,0.567,0.566,0.565,0.564,0.563,0.562,0.561,0.56,0.559,0.558,0.557,0.557,0.556,0.556,0.556,0.555,0.555,0.555,0.555,0.554,0.553,0.551,0.551,0.549,0.549,0.548,0.548,0.548,0.548,0.548,0.547,0.547,0.547,0.546,0.546,0.545,0.544,0.543,0.546,0.544,0.543,0.542,0.54,0.539,0.539,0.538,0.537,0.536,0.534,0.534,0.533,0.533,0.532,0.532,0.531,0.531,0.531,0.53,0.529,0.528,0.527,0.526,0.526,0.525,0.525,0.523,0.523,0.523,0.523,0.522,0.521,0.519,0.519,0.518,0.518,0.517,0.517,0.517,0.516,0.516,0.516,0.516,0.516,0.516,0.515,0.515,0.514,0.514,0.511,0.51,0.509,0.509,0.509,0.508,0.508,0.507,0.507,0.506,0.505,0.505,0.504,0.503,0.503,0.502,0.502,0.502,0.502,0.501,0.501,0.5,0.5,0.499,0.49824999999999997,0.497,0.496,0.496,0.496,0.495,0.495,0.495,0.494,0.493,0.492,0.49,0.489,0.489,0.488,0.488,0.487,0.487,0.487,0.486,0.485,0.484,0.483,0.483,0.482,0.482,0.482,0.482,0.482,0.48,0.48,0.478,0.477,0.476,0.476,0.475,0.475,0.474,0.471,0.47,0.47,0.469,0.469,0.468,0.467,0.467,0.466,0.466,0.466,0.465,0.465,0.465,0.465,0.465,0.465,0.464,0.464,0.464,0.464,0.464,0.464,0.463,0.461,0.46,0.458,0.458,0.457,0.454,0.454,0.453,0.453,0.453,0.453,0.453,0.453,0.453,0.453,0.453,0.453,0.453,0.453,0.453,0.453,0.453,0.453,0.452,0.452,0.452,0.452,0.452,0.451,0.45,0.449,0.449,0.447,0.447,0.447,0.446,0.446,0.446,0.446,0.445,0.444,0.444,0.443,0.442,0.442,0.441,0.441,0.441,0.441,0.44,0.44,0.438,0.438,0.437,0.437,0.437,0.436,0.436,0.436,0.435,0.435,0.434,0.433,0.432,0.432,0.431,0.431,0.431,0.431,0.431,0.43,0.43,0.429,0.428,0.427,0.426,0.426,0.426,0.426,0.425,0.425,0.425,0.425,0.424,0.424,0.422,0.422,0.421,0.421,0.421,0.42,0.42,0.42,0.419,0.419,0.418,0.418,0.418,0.417,0.417,0.0,0.0,0.415,0.415,0.415,0.415,0.415,0.414,0.414,0.413,0.413,0.412,0.411,0.411,0.411,0.41,0.41,0.409,0.408,0.407,0.407,0.406,0.406,0.406,0.406,0.406,0.405,0.405,0.404,0.404,0.403,0.403,0.402,0.402,0.402,0.402,0.402,0.401,0.401,0.401,0.4,0.4,0.4,0.399,0.399,0.398,0.398,0.397,0.397,0.397,0.396,0.395,0.394,0.394,0.394,0.394,0.393,0.393,0.393,0.393,0.392,0.392,0.392,0.391,0.391,0.39,0.39,0.389,0.389,0.389,0.389,0.389,0.389,0.388,0.388,0.388,0.387,0.386,0.386,0.385,0.385,0.385,0.385,0.385,0.385,0.385,0.384,0.384,0.0,0.0,0.0,0.0
