0,0,0,0,0,0,0,0,0,0,0,0,0,0,0,0,0,0,0,0,0,0,0,0,0,0,0,0,0,0,0,0,0,0,0,0,0,0,0,0,0,5.624,5.624,5.597,5.597,5.597,5.57,5.57,5.543,5.543,5.517,5.491,5.491,5.491,5.491,5.491,5.517,5.543,5.543,5.543,5.57,5.57,5.597,5.597,5.597,5.597,5.624,5.624,5.624,5.624,5.624,5.624,5.624,5.624,5.624,5.624,5.651,5.651,5.679,5.707,5.735,5.763,5.792,5.85,5.909,5.909,5.909,5.909,5.909,5.85,5.85,5.821,5.792,5.792,5.821,5.85,5.939,6.095,6.225,6.361,6.467,6.54,6.577,6.577,6.614,6.652,6.652,6.69,6.69,6.729,6.729,6.729,6.808,6.808,6.848,6.848,6.888,6.848,6.808,6.729,6.69,0,6.432,0,0,6.032,5.85,5.792,5.792,5.763,5.735,5.763,5.792,5.821,6.001,6.225,6.432,6.54,6.614,6.652,6.69,6.729,6.768,6.768,6.768,6.729,6.729,6.69,6.69,6.614,6.614,6.577,6.54,6.54,6.504,6.504,6.467,6.504,6.614,0,0,0,0,0,0,0,0,0,7.559,7.322,7.098,6.971,6.848,6.69,6.69,6.614,6.614,6.614,6.577,6.577,6.577,6.577,6.577,6.577,6.577,6.577,6.577,6.614,6.614,6.652,6.652,6.69,6.69,6.729,6.768,6.808,6.848,6.888,6.888,6.888,6.848,6.848,6.808,6.768,6.729,6.69,6.652,6.577,6.54,6.54,6.504,6.396,0,0,3.868,3.868,3.855,3.855,3.855,3.855,3.855,3.855,3.855,3.855,3.855,3.855,3.855,3.868,3.88,3.893,3.906,3.933,3.933,3.973,3.973,3.946,3.946,3.946,0,0,0,3.817,3.804,3.804,3.792,3.792,3.767,3.767,3.755,3.743,3.707,3.696,3.672,3.649,3.627,3.615,3.582,3.549,3.528,3.506,3.496,3.485,3.475,3.465,3.454,3.444,3.424,3.404,3.394,3.394,3.404,3.404,3.404,3.414,3.424,3.444,3.444,3.444,0,0,0,0,0,0,0,0,0,5.04,5.174,5.22,5.268,5.316,0,5.389,5.44,5.491,5.543,5.597,5.624,5.651,5.651,5.679,5.679,5.679,5.679,5.679,5.679,5.679,5.679,5.651,5.624,5.57,5.517,5.465,5.389,5.316,5.244,5.151,5.106,5.106,5.084,5.084,5.084,5.106,5.151,5.22,5.268,5.34,5.415,5.491,5.543,5.57,5.597,5.651,5.651,5.651,5.651,5.651,5.597,5.57,5.543,5.517,5.465,5.415,5.34,5.316,5.268,5.268,0,5.34,5.34,5.389,5.415,5.415,5.389,5.34,5.316,5.244,5.22,5.151,5.04,5.018,4.996,4.975,4.975,4.954,4.933,4.933,4.954,4.954,4.954,4.954,4.954,4.954,4.954,4.954,4.933,4.933,4.933,4.933,4.933,4.933,4.933,4.933,4.912,4.912,4.912,4.933,4.933,4.954,4.954,4.954,4.975,4.975,4.975,4.975,4.975,4.975,4.975,4.975,4.975,4.975,4.996,5.04,5.174,5.34,0,5.543,5.624,5.792,6.095,6.432,6.577,6.614,6.69,6.69,6.729,6.729,6.729,6.729,6.729,6.729,6.729,6.729,6.729,6.69,6.69,6.652,6.652,6.614,6.614,6.614,6.614,6.577,6.577,6.577,6.54,0,0,0,0,0,0,0,0,0,0,0,0,0,0,0,0,0,0,0,0,0,0,0,0,6.614,6.614,6.652,6.69,6.69,6.729,6.768,6.848,6.929,7.055,7.186,7.368,7.415,7.559,7.709,7.813,7.866,7.973,7.973,8.028,8.084,8.141,8.198,8.256,8.256,8.315,0,0,0,0,0,0,0,0,0,0,0,0,0,0,0,0,0,0,0,0,0,0,0,0,0,0,0,0,4.891,4.891,4.891,4.891,4.891,4.912,4.912,4.912,4.912,4.912,4.912,4.912,4.891,4.912,0,0,0,0,0,0,0,0,0,0,0,0,0,0,0,0,0,0,0,0,0,0,0,0,0,0,0,0,0,0,0,0,0,0,0,0,0,0,0,0,0,0,3.946,3.92,3.906,3.893,3.88,3.868,3.868,3.855,3.855,3.855,3.855,3.855,3.855,3.855,3.855,3.855,3.855,0,0,0,0,0,0,0,0,0,0,0,0,0
0,0,0,0,0,0,0,0,0,0,0,0,0,0,0,0,0,0,0,0,0,0,5.517,5.517,5.517,0,0,0,0,0,0,0,0,0,0,0,0,0,0,0,5.597,5.597,5.57,5.57,5.543,5.543,5.517,5.491,5.465,5.465,5.44,5.415,5.44,5.415,5.415,5.44,5.44,5.491,5.491,5.491,5.543,5.543,5.543,5.57,5.57,5.57,5.57,5.597,5.597,5.597,5.597,5.597,5.597,5.597,5.597,5.597,5.624,5.624,5.651,5.651,5.679,5.679,5.707,5.735,5.763,5.763,5.763,5.763,5.735,5.707,5.707,5.679,5.707,5.707,5.763,0,5.821,5.939,6.095,6.259,6.396,6.504,6.54,6.577,6.614,6.652,6.652,6.69,6.69,6.729,6.729,6.768,6.808,6.848,6.888,6.888,6.929,6.848,6.848,6.768,6.729,6.614,6.54,6.432,6.259,6.127,6.001,5.821,5.792,5.763,5.735,5.735,5.792,5.763,5.909,6.127,6.396,6.504,6.577,6.652,6.69,6.729,6.729,6.729,6.729,6.729,6.69,6.69,6.69,6.614,6.577,6.577,6.54,6.54,6.467,6.467,6.432,6.504,6.614,6.768,0,0,0,0,0,0,8.028,7.866,7.659,7.368,7.186,6.929,6.848,6.69,6.614,6.614,6.577,6.577,6.577,6.54,6.54,6.54,6.54,6.54,6.54,6.577,6.577,6.577,6.614,6.614,6.652,6.69,6.69,6.69,6.729,6.768,6.808,6.848,6.848,6.848,6.808,6.808,6.768,6.729,6.69,6.652,6.614,6.577,6.54,6.504,6.467,6.225,0,3.92,3.868,3.868,3.868,3.855,3.855,3.855,3.855,3.855,3.855,3.855,3.855,3.855,3.868,3.868,3.88,3.893,3.906,3.933,3.973,3.987,4.028,4.056,4.085,4.128,4.114,4.07,3.973,3.933,3.868,3.855,3.842,3.829,3.817,3.804,3.792,3.78,3.755,3.743,3.707,3.696,3.672,3.649,3.627,3.593,3.56,3.538,3.517,3.496,3.485,3.465,3.454,3.444,3.434,3.404,3.394,3.394,3.404,3.404,3.404,3.414,3.424,3.444,3.444,3.444,3.454,3.454,0,0,0,0,0,0,0,0,5.106,5.244,5.316,0,5.34,5.415,5.44,5.491,5.543,5.57,5.624,5.651,5.651,5.651,5.651,5.651,5.679,5.679,5.651,5.651,5.651,5.651,5.57,5.543,5.465,5.389,5.244,5.174,5.106,5.04,5.018,5.018,5.018,5.018,5.04,5.084,5.151,5.22,5.316,5.389,5.465,5.543,5.57,5.597,5.651,5.679,5.679,5.679,5.679,5.651,5.651,5.597,5.57,5.517,5.465,5.415,5.316,5.268,5.244,5.244,5.268,5.316,5.34,0,5.389,5.389,5.389,5.34,5.34,5.268,5.244,5.151,5.084,5.04,5.018,4.996,4.975,4.954,4.954,4.954,4.954,4.954,4.954,4.975,4.975,4.975,4.975,4.975,4.975,4.975,4.954,4.954,4.954,4.933,4.933,4.933,4.933,4.912,4.933,4.933,4.954,4.954,4.954,4.975,4.975,4.975,4.975,4.975,4.975,4.975,4.975,4.975,4.975,4.975,4.996,5.018,5.151,5.268,0,5.491,5.57,5.679,5.909,6.225,6.504,6.577,6.614,6.652,6.69,6.729,6.729,6.729,6.729,6.729,6.729,6.729,6.729,6.69,6.69,6.652,6.614,6.614,6.614,6.577,6.577,6.54,6.54,6.54,0,0,0,0,0,0,0,0,0,0,0,0,0,0,0,0,0,0,0,0,0,0,0,6.577,6.577,6.614,6.614,6.652,6.69,6.69,6.729,6.768,6.848,6.888,6.971,7.098,7.322,7.368,7.511,7.659,7.761,7.866,7.919,7.973,8.028,8.084,8.141,8.198,8.256,8.315,8.315,8.375,8.497,8.497,0,0,0,0,0,0,0,0,0,0,0,0,0,0,0,0,0,0,0,0,0,0,0,4.891,4.891,4.891,4.891,4.891,4.891,4.891,4.891,4.912,4.912,4.891,4.912,4.891,4.912,4.891,4.891,4.891,0,0,0,0,0,0,0,0,0,0,0,0,0,0,0,0,0,0,0,0,0,0,0,0,0,0,0,0,0,3.893,3.893,0,3.906,3.933,3.933,3.946,3.973,3.987,3.987,3.987,3.973,3.92,3.906,3.893,3.88,3.868,3.868,3.855,3.855,3.855,3.855,3.855,3.855,3.855,3.855,3.855,3.855,3.855,0,0,0,0,0,0,0,0,0,0,0,0,0
0,0,0,0,0,0,0,0,0,0,0,0,0,0,0,0,0,0,0,0,0,5.517,5.517,5.517,5.543,5.543,5.543,5.543,5.543,5.543,5.57,0,0,0,0,5.57,5.57,5.597,5.57,5.57,5.57,5.57,5.543,5.543,5.517,5.491,5.44,5.415,5.415,5.389,5.389,5.389,5.34,5.34,5.389,5.415,5.44,5.44,5.44,5.465,5.465,5.491,5.517,5.543,5.543,5.543,5.543,5.57,5.57,5.57,5.57,5.57,5.57,5.57,5.57,5.57,5.57,5.57,5.597,5.597,5.624,5.651,5.651,5.679,5.679,5.679,5.651,5.651,5.651,5.651,5.651,5.651,5.651,5.651,5.679,5.763,0,5.85,6.001,6.127,6.327,6.432,6.504,6.577,6.577,6.614,6.652,6.69,6.69,6.729,6.729,6.768,6.808,6.848,6.888,6.888,6.929,6.929,6.888,6.848,6.848,6.768,6.729,6.69,0,0,0,0,5.821,5.792,5.707,5.707,5.735,5.735,5.821,6.032,6.327,6.467,6.54,6.614,6.69,6.729,6.768,6.768,6.768,6.729,6.729,6.729,6.729,6.652,6.614,6.577,6.54,6.54,6.504,6.467,6.432,6.467,0,0,0,0,0,0,8.084,8.084,8.028,7.919,7.709,7.415,7.186,6.929,6.808,6.652,6.614,6.577,6.54,6.54,6.54,6.54,6.504,6.504,6.504,6.54,6.54,6.54,6.577,6.577,6.577,6.614,6.652,6.652,6.69,6.69,6.729,6.729,6.768,6.808,6.808,6.808,6.768,6.768,6.729,6.69,6.69,6.614,6.577,6.504,6.504,6.432,6.095,5.651,0,3.92,3.868,3.868,3.855,3.855,3.855,3.855,3.855,3.855,3.855,3.855,3.855,3.855,3.855,3.868,3.868,3.88,3.893,3.933,3.946,3.973,3.987,4.014,4.028,4.07,4.085,4.028,3.946,3.92,3.88,3.868,3.855,3.829,3.817,3.817,3.817,3.792,3.78,3.755,3.743,3.731,3.707,3.672,3.661,3.627,3.593,3.549,3.528,3.506,3.485,3.465,3.454,3.444,3.434,3.404,3.394,3.394,3.394,3.404,3.404,3.414,3.424,3.444,3.444,3.454,3.454,3.454,0,0,0,0,0,0,0,0,0,5.22,0,5.34,5.389,5.415,5.465,5.491,5.543,5.57,5.597,5.624,5.624,5.651,5.651,5.651,5.651,5.651,5.651,5.651,5.651,5.624,5.57,5.517,5.44,5.316,5.174,5.106,5.04,4.996,4.996,4.996,4.996,5.018,5.04,5.106,5.174,5.244,5.34,5.44,5.517,5.543,5.597,5.651,5.679,5.707,5.707,5.735,5.707,5.679,5.651,5.624,5.57,5.543,5.465,5.415,5.316,5.22,5.174,5.174,5.22,5.244,5.268,5.34,5.34,5.389,5.389,5.389,5.34,5.316,5.268,5.244,5.151,5.084,5.084,5.018,4.996,4.975,4.975,4.954,4.954,4.975,4.975,4.996,4.996,4.996,4.996,4.996,4.996,4.996,4.996,4.975,4.975,4.975,4.954,4.933,4.954,4.933,4.933,4.933,4.954,4.954,4.954,4.954,4.975,4.975,4.975,4.975,4.975,4.975,4.975,4.975,4.975,4.996,4.996,5.04,5.106,5.244,0,5.44,5.543,5.651,5.792,6.032,6.327,6.467,6.54,6.577,6.614,6.69,6.69,6.69,6.69,6.729,6.69,6.69,6.69,6.69,6.652,6.614,6.614,6.577,6.54,6.54,6.504,6.432,6.432,6.396,0,0,0,0,0,0,0,0,0,0,0,0,0,0,0,0,0,0,0,0,0,0,0,0,0,0,0,0,0,0,0,0,0,6.848,6.929,7.055,7.231,7.322,7.415,7.511,7.659,7.761,7.866,7.973,8.028,8.084,8.141,8.198,8.256,8.256,8.315,8.375,8.436,8.436,8.497,0,0,0,0,0,0,0,0,0,0,0,0,0,0,0,0,0,0,4.975,4.933,4.912,4.912,4.891,4.891,4.891,4.891,4.891,4.891,4.891,4.891,4.891,4.912,4.912,4.912,4.912,4.891,4.891,4.891,4.891,4.871,0,0,0,0,0,0,0,0,0,0,0,0,0,0,0,0,0,0,0,0,0,0,0,0,0,0,0,0,3.88,0,3.906,0,3.933,3.946,3.973,3.987,3.987,3.987,3.987,3.973,3.92,3.893,3.88,3.868,3.868,3.855,3.855,3.842,3.842,3.842,3.855,3.855,3.855,3.855,3.855,3.855,3.855,0,0,0,0,0,0,0,0,0,0,0,0,0
0,0,0,0,0,0,0,0,0,0,0,0,0,0,0,0,0,0,5.543,5.543,5.543,5.517,5.517,5.517,5.517,5.517,5.543,5.543,5.543,5.543,5.57,5.57,5.57,5.57,5.57,5.57,5.57,5.57,5.57,5.543,5.543,5.517,5.491,5.491,5.44,5.415,5.34,5.34,5.316,5.316,5.316,5.268,5.268,5.316,5.316,5.34,5.389,5.415,5.415,5.415,5.44,5.465,5.491,5.491,5.517,5.543,5.543,5.543,5.543,5.543,5.543,5.543,5.543,5.543,5.543,5.543,5.543,5.57,5.57,5.57,5.597,5.597,5.597,5.624,5.624,5.597,5.597,5.597,5.597,5.597,5.597,5.597,5.624,5.651,5.679,5.707,5.792,0,5.85,6.032,6.159,6.327,6.432,6.54,6.577,6.614,6.652,6.69,6.69,6.729,6.729,6.768,6.848,6.848,6.888,6.888,6.929,6.929,6.929,6.929,0,0,0,0,0,0,0,5.939,5.821,5.735,5.679,5.679,5.651,5.651,5.707,5.792,6.095,6.361,6.504,6.614,6.69,6.768,6.848,6.848,6.848,6.848,6.808,6.768,6.729,6.69,6.69,6.614,6.577,6.54,6.54,6.504,6.467,0,0,0,0,7.322,7.709,7.919,7.973,8.028,7.973,7.866,7.659,7.415,7.186,6.929,6.808,6.614,6.577,6.577,6.54,6.54,6.504,6.504,6.504,6.504,6.504,6.504,6.54,6.54,6.54,6.577,6.577,6.614,6.614,6.652,6.69,6.69,6.69,6.729,6.729,6.729,6.729,6.729,6.729,6.729,6.69,6.69,6.614,6.577,6.54,6.467,6.396,6.396,5.909,0,0,3.906,3.868,3.855,3.855,3.855,3.855,3.855,3.855,3.842,3.855,3.842,3.855,3.855,3.855,3.855,3.868,3.868,3.893,3.906,3.92,3.933,3.933,3.973,3.987,4.014,4.028,3.987,3.946,3.92,3.893,3.868,3.855,3.842,3.829,3.817,3.817,3.804,3.792,3.78,3.767,3.755,3.743,3.707,3.696,3.661,3.627,3.582,3.538,3.506,3.496,3.475,3.465,3.444,3.434,3.404,3.394,3.394,3.394,3.394,3.404,3.414,3.434,3.444,3.444,3.454,3.454,3.465,3.465,0,0,0,0,0,0,0,0,5.151,0,5.34,5.415,5.415,5.465,5.491,5.543,5.57,5.597,5.597,5.597,5.624,5.624,5.651,5.624,5.624,5.624,5.624,5.624,5.597,5.543,5.465,5.389,5.268,5.151,5.084,4.996,4.975,4.975,4.996,4.996,4.996,5.04,5.106,5.174,5.316,5.389,5.491,5.543,5.57,5.651,5.679,5.707,5.735,5.763,5.735,5.707,5.679,5.651,5.624,5.597,5.543,5.491,5.389,5.316,5.174,5.151,5.151,5.174,5.174,5.22,5.316,5.316,5.34,5.389,5.389,5.389,5.389,5.34,5.316,5.22,5.174,5.151,5.106,5.04,5.018,4.996,4.996,4.996,4.996,5.018,5.018,5.018,5.018,5.018,5.018,5.018,5.018,5.018,4.996,4.996,4.996,4.975,4.954,4.954,4.933,4.933,4.933,4.933,4.954,4.954,4.954,4.954,4.975,4.975,4.975,4.975,4.975,4.975,4.975,4.996,4.996,5.018,5.04,5.151,5.244,0,5.415,5.517,5.597,5.679,5.85,6.127,6.327,6.432,6.54,6.577,6.614,6.614,6.652,6.652,6.69,6.652,6.652,6.652,6.614,6.614,6.577,6.54,6.504,6.467,6.432,6.396,6.327,6.159,0,0,0,0,0,0,0,0,0,0,0,0,0,0,0,0,0,0,0,0,0,0,0,0,0,0,0,6.614,6.614,6.652,6.69,6.69,6.729,6.729,6.768,6.848,6.971,7.098,7.186,7.322,7.415,7.559,7.761,7.813,7.866,7.973,8.028,8.084,8.198,8.256,8.256,8.315,8.375,8.375,8.436,8.436,8.436,0,0,0,0,0,0,0,0,0,5.316,5.316,5.268,5.244,5.174,5.106,5.04,5.018,4.996,4.954,4.954,4.912,4.912,4.912,4.891,4.891,4.891,4.891,4.891,4.891,4.891,4.912,4.912,4.912,4.912,4.891,4.891,4.891,4.891,4.891,4.871,4.871,4.83,4.83,0,0,0,0,0,0,0,0,0,0,0,0,0,0,0,0,0,0,0,0,0,0,0,0,3.893,3.906,3.906,0,3.92,3.946,3.946,3.973,3.987,3.973,3.946,3.906,3.893,3.88,3.868,3.868,3.855,3.855,3.842,3.842,3.842,3.842,3.842,3.855,3.855,3.855,3.855,3.855,3.855,0,0,0,0,0,0,0,0,0,0,0,0,0
5.624,5.597,5.57,5.543,5.543,0,0,0,0,0,0,0,0,0,0,5.543,5.543,5.543,5.543,5.543,5.517,5.517,5.517,5.517,5.517,5.517,5.517,5.543,5.543,5.543,5.543,5.57,5.57,5.57,5.57,5.57,5.57,5.57,5.543,5.517,5.517,5.465,5.465,5.415,5.389,5.34,5.268,5.244,5.244,5.244,5.244,5.244,5.244,5.244,5.268,5.316,5.316,5.34,5.34,5.34,5.415,5.415,5.44,5.465,5.465,5.491,5.491,5.517,5.517,5.517,5.543,5.543,5.543,5.543,5.543,5.543,5.543,5.543,5.543,5.543,5.57,5.57,5.57,5.57,5.57,5.57,5.57,5.57,5.57,5.57,5.57,5.597,5.597,5.624,5.651,5.679,5.707,5.792,0,5.909,6.032,6.159,6.361,6.467,6.54,6.577,6.614,6.652,6.69,6.729,6.729,6.729,6.768,6.848,6.848,6.848,6.929,6.929,6.929,6.888,6.929,0,0,0,0,0,0,0,0,5.651,5.597,5.597,5.57,5.597,5.624,0,5.85,6.159,0,6.577,6.652,6.729,6.848,6.888,6.888,6.888,6.808,6.808,6.768,6.729,6.69,6.652,6.614,6.577,6.54,6.504,6.467,0,0,0,0,0,7.322,7.659,7.761,7.866,7.866,7.709,7.559,7.322,7.098,6.888,6.69,6.614,6.577,6.54,6.54,6.504,6.504,6.467,6.467,6.467,6.504,6.504,6.54,6.54,6.54,6.577,6.577,6.614,6.614,6.652,6.652,6.69,6.69,6.69,6.69,6.729,6.729,6.729,6.69,6.69,6.69,6.614,6.614,6.577,6.504,6.432,6.361,6.327,5.792,5.491,0,0,3.855,3.855,3.855,3.855,3.842,3.842,3.842,3.842,3.842,3.842,3.842,3.842,3.855,3.855,3.855,3.868,3.868,3.88,3.88,3.906,3.906,3.92,3.933,3.946,3.973,3.973,3.933,3.933,3.906,3.88,3.868,3.855,3.842,3.829,3.829,3.804,3.804,3.792,3.78,3.78,3.755,3.743,3.731,3.696,3.649,3.615,3.56,3.517,3.496,3.475,3.465,3.444,3.424,3.394,3.384,3.384,3.394,3.394,3.404,3.414,3.434,3.444,3.454,3.454,3.465,3.465,3.465,3.485,0,0,0,0,0,0,0,0,0,0,5.389,5.44,5.44,5.491,5.543,5.57,5.597,5.597,5.597,5.624,5.597,5.624,5.624,5.624,5.597,5.597,5.597,5.597,5.543,5.465,5.34,5.22,5.106,5.084,4.996,4.975,4.975,4.975,5.018,5.04,5.106,5.174,5.244,5.34,5.44,5.543,5.57,5.597,5.651,5.707,5.735,5.763,5.763,5.763,5.735,5.707,5.679,5.651,5.597,5.57,5.491,5.44,5.34,5.22,5.174,5.151,5.174,5.174,5.22,5.268,5.316,5.34,5.34,5.415,5.415,5.415,5.415,5.389,5.316,5.268,5.244,5.174,5.151,5.106,5.04,5.04,5.04,5.04,5.04,5.04,5.04,5.04,5.04,5.04,5.04,5.084,5.04,5.018,5.018,5.018,4.996,4.975,4.954,4.954,4.933,4.933,4.933,4.933,4.933,4.954,4.954,4.954,4.975,4.975,4.975,4.975,4.975,4.975,4.996,5.018,5.04,5.106,5.151,5.244,5.34,0,5.44,5.543,5.624,5.707,5.85,6.032,6.225,6.361,6.467,6.54,6.577,6.577,6.577,6.577,6.577,6.577,6.577,6.577,6.54,6.504,6.432,6.432,6.396,6.327,6.259,6.127,6.032,0,0,0,0,0,0,0,0,0,0,0,0,0,0,0,0,0,0,0,0,0,0,0,0,0,0,6.614,6.614,6.614,6.614,6.614,6.69,6.69,6.729,6.729,6.808,6.848,6.971,7.098,7.186,7.322,7.415,7.659,7.761,7.866,7.973,8.028,8.084,8.198,8.256,8.256,8.315,8.375,8.436,0,0,0,0,0,0,0,0,0,0,5.389,5.34,5.316,5.316,5.268,5.268,5.174,5.151,5.084,5.04,5.018,4.996,4.954,4.954,4.933,4.933,4.912,4.912,4.912,4.912,4.912,4.912,4.912,4.912,4.912,4.912,4.912,4.912,4.912,4.891,4.891,4.891,4.891,4.871,4.851,4.851,4.851,0,0,0,0,0,0,0,0,0,0,0,0,0,0,0,0,0,0,0,0,0,0,0,3.893,3.906,3.906,0,3.92,3.946,3.946,3.973,3.973,3.933,3.92,3.893,3.893,3.868,3.868,3.855,3.842,3.842,3.842,3.829,3.842,3.842,3.842,3.842,3.855,3.855,3.855,3.868,3.88,3.933,0,0,0,0,0,0,0,0,0,0,0,0
5.597,5.597,5.57,5.543,5.543,5.543,5.543,0,0,0,0,0,0,5.543,5.543,5.543,5.543,5.543,5.543,5.517,5.517,5.517,5.517,5.491,5.491,5.491,5.517,5.517,5.543,5.543,5.543,5.543,5.57,5.57,5.57,5.543,5.57,5.543,5.543,5.491,5.491,5.44,5.415,5.389,5.34,5.268,5.22,5.174,5.174,5.174,5.174,5.174,5.174,5.174,5.22,5.244,5.268,5.268,5.316,5.316,5.34,5.34,5.415,5.415,5.415,5.44,5.44,5.44,5.465,5.465,5.491,5.491,5.491,5.491,5.491,5.491,5.491,5.491,5.491,5.517,5.517,5.517,5.517,5.517,5.543,5.543,5.543,5.543,5.543,5.57,5.57,5.57,5.57,5.57,5.597,5.624,5.651,5.707,5.763,5.85,0,6.032,6.159,6.361,6.467,6.54,6.577,6.614,6.614,6.69,6.69,6.729,6.729,6.768,6.808,6.848,6.848,6.848,6.848,6.848,6.848,6.848,0,0,0,0,0,0,0,0,0,0,0,0,0,0,0,0,0,0,6.614,6.729,6.848,6.929,6.929,6.888,6.848,6.848,6.808,6.729,6.729,6.69,6.614,6.614,6.577,6.577,6.54,6.54,6.614,0,0,6.929,7.186,7.368,7.511,7.659,7.659,7.559,7.368,7.231,6.971,6.848,6.652,6.614,6.577,6.54,6.54,6.504,6.504,6.504,6.504,6.504,6.504,6.504,6.54,6.54,6.577,6.577,6.577,6.614,6.614,6.652,6.652,6.652,6.652,6.69,6.69,6.69,6.69,6.69,6.652,6.652,6.614,6.614,6.577,6.54,6.467,6.361,6.259,6.159,5.707,0,0,3.893,3.855,3.855,3.855,3.842,3.842,3.829,3.829,3.829,3.829,3.829,3.829,3.829,3.829,3.842,3.842,3.855,3.855,3.855,3.868,3.868,3.868,3.88,3.893,3.906,3.92,3.92,3.92,3.92,3.893,3.88,3.868,3.855,3.842,3.829,3.829,3.817,3.804,3.804,3.792,3.78,3.767,3.767,3.743,3.707,3.672,3.627,3.582,3.538,3.496,3.485,3.465,3.444,3.424,3.384,3.365,3.365,3.384,3.394,3.394,3.414,3.424,3.444,3.454,3.454,3.465,3.465,3.465,3.475,3.496,0,0,0,0,0,0,0,0,0,5.415,5.44,5.465,5.517,5.543,5.57,5.597,5.597,5.597,5.597,5.597,5.597,5.597,5.597,5.597,5.597,5.597,5.57,5.543,5.44,5.34,5.22,5.106,5.04,4.996,4.975,4.975,4.996,5.04,5.106,5.174,5.22,5.316,5.415,5.465,5.543,5.57,5.624,5.651,5.679,5.707,5.763,5.763,5.735,5.735,5.679,5.651,5.651,5.597,5.543,5.491,5.44,5.34,5.22,5.174,5.151,5.151,5.174,5.174,5.244,5.316,5.34,5.389,5.44,5.465,5.465,5.465,5.465,5.415,5.389,5.34,5.316,5.244,5.174,5.151,5.106,5.106,5.106,5.106,5.106,5.106,5.106,5.084,5.084,5.084,5.084,5.084,5.04,5.04,5.018,4.996,4.996,4.975,4.954,4.933,4.933,4.933,4.933,4.933,4.954,4.954,4.954,4.975,4.975,4.975,4.975,4.996,4.996,5.018,5.04,5.04,5.106,5.174,5.268,5.34,0,5.44,5.517,5.57,5.651,5.735,5.85,6.001,6.127,6.259,6.432,6.504,6.54,6.54,6.54,6.54,6.54,6.54,6.504,6.467,6.396,6.361,6.259,6.259,6.225,6.032,6.001,5.909,0,0,0,0,0,0,0,0,0,0,0,0,0,0,0,0,0,0,0,0,0,0,0,0,0,6.577,6.577,6.614,6.577,6.577,6.614,6.614,6.652,6.69,6.729,6.729,6.768,6.848,6.929,7.055,7.186,7.322,7.511,7.659,7.761,7.919,8.028,8.084,8.198,8.256,8.315,8.315,8.436,8.436,0,0,0,0,0,0,0,0,5.44,5.415,5.389,5.389,5.34,5.316,5.316,5.268,5.244,5.174,5.106,5.084,5.04,5.018,4.996,4.996,4.975,4.954,4.954,4.954,4.954,4.954,4.954,4.954,4.954,4.954,4.954,4.954,4.933,4.933,4.933,4.912,4.912,4.912,4.891,4.891,4.871,4.851,4.851,4.851,0,0,0,0,0,0,0,0,0,0,0,0,0,0,0,0,0,0,0,0,0,3.88,3.893,3.906,3.906,3.92,0,3.946,3.946,3.973,3.933,3.92,3.906,3.893,3.88,3.868,3.855,3.842,3.842,3.829,3.829,3.829,3.829,3.829,3.842,3.842,3.855,3.855,3.855,3.88,3.933,0,4.028,0,0,0,0,0,0,0,0,0,0,0
5.597,5.57,5.57,5.57,5.543,5.543,5.543,0,0,0,0,0,5.543,5.543,5.543,5.543,5.543,5.543,5.543,5.543,5.517,5.517,5.517,5.491,5.491,5.491,5.517,5.517,5.517,5.543,5.543,5.543,5.57,5.543,5.543,5.543,5.543,5.543,5.517,5.517,5.465,5.44,5.415,5.389,5.316,5.268,5.22,5.174,5.151,5.151,5.151,5.151,5.174,5.174,5.22,5.244,5.268,5.268,5.268,5.316,5.34,5.34,5.34,5.389,5.389,5.415,5.415,5.415,5.415,5.415,5.44,5.44,5.44,5.44,5.44,5.44,5.44,5.465,5.465,5.465,5.465,5.465,5.491,5.491,5.517,5.517,5.543,5.543,5.543,5.543,5.543,5.543,5.543,5.543,5.57,5.57,5.597,5.651,5.679,5.763,5.909,0,6.032,6.225,6.361,6.504,6.54,6.577,6.614,6.614,6.652,6.69,6.69,6.729,6.729,6.768,6.768,6.768,6.768,6.768,6.768,6.729,6.729,0,0,0,0,0,0,0,0,0,0,0,5.597,0,0,0,0,0,6.614,6.729,6.808,6.888,6.888,6.888,6.848,6.848,6.808,6.729,6.729,6.69,6.652,6.614,6.614,6.577,6.54,6.577,6.614,6.69,6.729,6.888,0,0,7.322,7.415,7.415,7.368,7.231,7.055,6.929,6.768,6.652,6.614,6.54,6.54,6.54,6.504,6.504,6.54,6.54,6.54,6.54,6.54,6.54,6.577,6.577,6.614,6.614,6.614,6.652,6.652,6.652,6.652,6.652,6.652,6.652,6.652,6.652,6.614,6.614,6.614,6.577,6.577,6.54,6.54,6.432,6.327,6.159,6.095,5.679,0,0,3.893,3.855,3.855,3.842,3.842,3.829,3.829,3.829,3.829,3.817,3.817,3.817,3.817,3.829,3.829,3.829,3.829,3.829,3.842,3.842,3.842,3.855,3.855,3.855,3.868,3.868,3.868,3.88,3.88,3.868,3.868,3.868,3.855,3.842,3.829,3.829,3.817,3.804,3.804,3.804,3.792,3.78,3.767,3.755,3.743,3.696,3.649,3.582,3.538,3.506,3.485,3.465,3.444,3.394,3.365,3.355,3.355,3.365,3.384,3.394,3.404,3.424,3.444,3.454,3.465,3.465,3.465,3.475,3.475,3.475,3.528,0,0,0,0,0,0,0,0,5.517,5.543,5.543,5.57,5.57,5.597,5.597,5.624,5.624,5.597,5.624,5.624,5.597,5.597,5.597,5.597,5.624,5.597,5.57,5.543,5.465,5.389,5.34,5.268,5.22,5.174,5.174,5.174,5.22,5.268,5.316,5.389,5.415,5.491,5.543,5.57,5.597,5.651,5.679,5.707,5.763,5.792,5.792,5.763,5.735,5.707,5.679,5.651,5.624,5.57,5.543,5.517,5.44,5.389,5.34,5.244,5.244,5.244,5.244,5.316,5.34,5.389,0,5.44,5.465,5.491,5.517,5.517,5.491,5.465,5.44,5.415,5.34,5.268,5.244,5.22,5.174,5.174,5.174,5.174,5.151,5.106,5.106,5.106,5.106,5.106,5.106,5.084,5.04,5.04,5.018,4.996,4.975,4.975,4.954,4.933,4.933,4.933,4.933,4.954,4.954,4.954,4.975,4.975,4.975,4.996,4.996,5.018,5.018,5.04,5.084,5.151,5.22,5.268,5.316,0,5.415,5.465,5.543,5.597,5.651,5.707,5.792,5.939,6.127,6.327,6.396,6.396,6.432,6.432,6.432,6.432,6.432,6.361,6.327,6.259,6.159,6.127,6.032,6.001,5.909,5.85,5.821,5.763,5.792,5.763,5.735,5.707,0,0,0,0,0,0,0,0,0,0,0,0,0,0,0,0,0,6.54,6.54,6.54,6.54,6.577,6.54,6.54,6.577,6.577,6.577,6.614,6.614,6.652,6.69,6.729,6.729,6.808,6.888,6.929,7.055,7.186,7.415,7.659,7.761,8.028,8.084,8.198,8.256,8.315,8.436,8.436,8.497,8.497,8.315,8.028,0,0,0,0,5.491,5.415,5.415,5.389,5.34,5.34,5.316,5.316,5.268,5.244,5.174,5.151,5.106,5.084,5.04,5.04,5.018,5.018,5.018,4.996,4.996,4.996,5.018,5.018,4.996,4.996,4.996,4.996,4.975,4.975,4.975,4.954,4.954,4.933,4.912,4.912,4.891,4.891,4.891,4.871,4.851,0,0,0,0,0,0,0,0,0,0,0,0,0,0,0,0,0,0,0,0,0,0,0,0,0,0,0,3.946,3.946,3.933,3.92,3.906,3.893,3.88,3.868,3.855,3.842,3.829,3.829,3.829,3.829,3.829,3.829,3.829,3.829,3.829,3.842,3.855,3.868,3.906,0,3.973,0,0,0,0,0,0,0,0,0,0,0,0
5.57,5.57,5.57,5.543,5.543,5.543,5.543,5.517,5.517,5.543,5.543,5.543,5.543,5.543,5.543,5.543,5.543,5.543,5.543,5.543,5.517,5.517,5.491,5.491,5.491,5.491,5.491,5.517,5.517,5.543,5.543,5.543,5.543,5.543,5.543,5.543,5.543,5.517,5.491,5.465,5.44,5.415,5.389,5.389,5.316,5.244,5.174,5.151,5.151,5.151,5.151,5.151,5.151,5.174,5.22,5.22,5.268,5.268,5.268,5.268,5.316,5.316,5.316,5.316,5.316,5.316,5.316,5.34,5.34,5.34,5.34,5.34,5.34,5.34,5.389,5.389,5.389,5.389,5.389,5.415,5.415,5.44,5.465,5.465,5.465,5.491,5.491,5.491,5.491,5.491,5.491,5.491,5.491,5.517,5.517,5.543,5.543,5.597,5.651,5.679,5.763,5.85,0,6.032,6.225,6.396,6.467,6.54,6.577,6.577,6.614,6.652,6.69,6.69,6.729,6.729,6.729,6.729,6.729,6.729,6.729,6.729,6.614,0,0,0,0,0,0,0,0,5.597,5.597,5.597,5.651,5.679,5.85,0,0,0,6.577,6.69,6.729,6.808,6.808,6.848,6.808,6.808,6.768,6.729,6.729,6.69,6.652,6.614,6.614,6.614,6.577,6.577,6.614,6.69,6.729,6.768,6.848,6.929,7.055,7.186,7.186,7.098,6.971,6.888,6.808,6.69,6.614,6.577,6.577,6.54,6.54,6.54,6.54,6.54,6.54,6.54,6.54,6.577,6.577,6.577,6.614,6.614,6.614,6.614,6.652,6.652,6.652,6.652,6.652,6.652,6.614,6.614,6.614,6.614,6.577,6.577,6.577,6.54,6.54,6.467,6.396,6.259,6.159,6.001,5.597,0,0,3.868,3.855,3.842,3.842,3.829,3.829,3.817,3.817,3.817,3.817,3.817,3.817,3.817,3.817,3.817,3.817,3.817,3.817,3.817,3.817,3.817,3.829,3.829,3.829,3.829,3.855,3.855,3.855,3.868,3.855,3.855,3.855,3.842,3.842,3.829,3.829,3.817,3.804,3.804,3.804,3.792,3.792,3.78,3.767,3.743,3.707,3.661,3.593,3.549,3.506,3.485,3.465,3.444,3.384,3.365,3.336,3.336,3.336,3.355,3.384,3.404,3.414,3.434,3.454,3.465,3.465,3.475,3.475,3.485,3.485,3.485,0,0,0,0,0,0,0,5.597,5.651,5.651,5.651,5.679,5.651,5.679,5.679,5.679,5.651,5.651,5.651,5.651,5.651,5.651,5.651,5.651,5.679,5.679,5.679,5.679,5.679,5.651,5.651,5.597,5.597,5.597,5.57,5.57,5.57,5.57,5.597,5.517,5.543,5.543,5.57,5.597,5.651,5.651,5.679,5.707,5.763,5.792,5.792,5.763,5.735,5.707,5.679,5.679,5.624,5.597,5.543,5.543,5.465,5.44,5.389,5.34,5.316,5.316,5.316,5.34,5.389,5.415,5.465,5.491,5.543,5.543,5.543,5.543,5.543,5.543,5.491,5.465,5.44,5.389,5.316,5.268,5.268,5.244,5.244,5.22,5.174,5.174,5.151,5.151,5.151,5.106,5.106,5.084,5.084,5.04,5.018,4.996,4.996,4.975,4.954,4.954,4.954,4.933,4.933,4.954,4.954,4.954,4.975,4.975,4.975,4.996,5.018,5.018,5.04,5.084,5.106,5.174,5.22,5.268,5.316,5.34,5.415,0,5.491,5.543,5.57,5.624,5.679,5.763,5.85,6.095,6.159,6.159,6.225,6.225,6.225,6.225,6.225,6.225,6.127,6.095,5.939,5.909,5.85,5.821,5.792,5.735,5.707,5.735,5.735,5.735,5.707,5.707,0,0,0,0,0,0,0,0,0,0,0,0,0,0,0,0,0,6.504,6.54,6.54,6.54,6.54,6.54,6.54,6.54,6.577,6.577,6.577,6.614,6.614,6.614,6.652,6.69,6.729,6.729,6.808,6.888,6.971,7.098,7.322,7.559,7.919,8.084,8.198,8.256,8.375,8.436,8.497,8.56,8.623,8.375,8.028,6.888,0,0,5.491,5.44,5.415,5.389,5.389,5.34,5.316,5.316,5.268,5.244,5.244,5.174,5.151,5.106,5.106,5.106,5.084,5.084,5.084,5.04,5.04,5.084,5.084,5.084,5.106,5.084,5.084,5.084,5.084,5.084,5.084,5.04,5.018,5.018,4.996,4.954,4.954,4.912,4.912,4.891,4.891,4.871,0,0,0,0,0,0,0,0,0,0,0,0,0,0,0,0,0,0,0,0,0,0,0,0,0,0,3.933,3.933,0,3.92,3.906,3.893,3.88,3.868,3.855,3.842,3.829,3.829,3.829,3.817,3.817,3.817,3.829,3.829,3.829,3.829,3.855,3.855,3.88,3.92,0,4.028,0,0,0,0,0,0,0,0,0,0,0,0
5.543,5.543,5.543,5.543,5.543,5.543,5.543,5.517,5.517,5.517,5.517,5.543,5.543,5.543,5.543,5.543,5.543,5.543,5.543,5.543,5.543,5.517,5.517,5.517,5.517,5.517,5.517,5.517,5.543,5.543,5.543,5.543,5.543,5.543,5.543,5.517,5.517,5.491,5.491,5.465,5.44,5.44,5.415,5.389,5.316,5.244,5.22,5.174,5.174,5.174,5.151,5.151,5.174,5.174,5.22,5.244,5.244,5.244,5.268,5.268,5.268,5.268,5.268,5.268,5.268,5.244,5.244,5.244,5.244,5.244,5.244,5.244,5.268,5.268,5.268,5.316,5.316,5.316,5.34,5.389,5.389,5.415,5.44,5.44,5.44,5.465,5.465,5.465,5.465,5.465,5.465,5.44,5.465,5.44,5.465,5.491,5.517,5.543,5.57,5.597,5.679,5.735,5.85,6.032,0,6.259,6.361,6.432,6.504,6.54,6.577,6.577,6.614,6.652,6.69,6.69,6.69,6.69,6.69,6.69,6.69,6.652,6.577,6.504,6.396,6.159,5.939,5.821,5.763,5.679,5.679,5.651,5.651,5.679,5.679,5.735,5.909,6.095,6.259,6.467,6.577,6.614,6.729,6.729,6.729,6.729,6.729,6.729,6.729,6.729,6.729,6.69,6.652,6.652,6.614,6.614,6.577,6.577,6.614,6.614,6.652,6.69,6.729,6.768,6.848,6.888,6.888,6.888,6.848,6.768,6.729,6.614,6.614,6.577,6.54,6.54,6.54,6.54,6.54,6.54,6.577,6.577,6.577,6.577,6.577,6.614,6.614,6.614,6.614,6.652,6.652,6.652,6.652,6.652,6.614,6.614,6.614,6.614,6.577,6.577,6.577,6.577,6.54,6.54,6.504,6.467,6.396,6.327,6.159,6.032,5.651,5.268,0,3.88,3.842,3.842,3.829,3.829,3.817,3.817,3.817,3.804,3.804,3.804,3.804,3.804,3.804,3.804,3.804,3.804,3.804,3.804,3.804,3.804,3.804,3.817,3.817,3.817,3.817,3.829,3.842,3.842,3.855,3.842,3.842,3.829,3.829,3.829,3.829,3.817,3.804,3.804,3.804,3.792,3.792,3.78,3.767,3.755,3.707,3.661,3.615,3.549,3.506,3.485,3.465,3.444,3.384,3.355,3.336,3.336,3.336,3.355,3.365,3.394,3.414,3.434,3.444,3.454,3.465,3.475,3.475,3.475,3.475,3.475,0,0,0,0,0,0,0,5.679,5.735,5.707,5.679,5.707,5.707,5.707,5.707,5.679,5.679,5.679,5.679,5.651,5.651,5.651,5.651,5.679,0,5.735,5.763,5.792,5.792,5.821,5.792,5.792,5.763,5.735,5.707,5.679,5.679,5.679,5.679,5.651,5.651,5.651,5.651,5.651,5.679,5.679,5.679,5.679,5.707,5.735,5.735,5.707,5.707,5.679,5.679,5.651,5.651,5.597,5.57,5.543,5.517,5.491,5.465,5.44,5.415,5.415,5.389,5.415,5.415,5.465,5.491,5.517,5.543,5.543,5.57,5.57,5.57,5.543,5.543,5.517,5.491,5.44,5.389,5.34,5.316,5.316,5.268,5.244,5.22,5.22,5.174,5.151,5.106,5.106,5.106,5.084,5.04,5.04,5.018,5.018,4.996,4.975,4.975,4.954,4.954,4.954,4.954,4.954,4.954,4.975,4.975,4.975,4.996,4.996,5.018,5.04,5.084,5.084,5.106,5.151,5.22,5.244,5.316,5.316,5.389,5.44,5.465,0,5.517,5.57,5.597,5.651,5.679,5.792,5.909,5.909,5.909,5.909,5.909,5.909,5.85,5.821,5.821,5.792,5.763,5.735,5.735,5.707,5.679,5.679,5.679,5.679,5.679,5.679,5.679,5.679,0,0,0,0,0,0,0,0,0,0,0,0,0,0,0,0,0,0,6.504,6.504,6.504,6.54,6.504,6.504,6.54,6.54,6.54,6.577,6.577,6.577,6.614,6.614,6.652,6.69,6.69,6.729,6.768,6.848,6.971,7.186,7.511,7.866,8.028,8.198,8.315,8.375,0,8.497,8.623,8.753,8.497,0,0,0,5.543,5.491,5.44,5.44,5.415,5.389,5.34,5.316,5.268,5.244,5.244,5.22,5.174,5.151,5.151,5.151,5.106,5.151,5.151,5.106,5.106,5.106,5.151,5.151,5.174,5.174,5.174,5.174,5.174,5.151,5.151,5.151,5.106,5.084,5.084,5.04,5.018,4.996,4.954,4.933,4.912,4.891,4.871,0,0,0,0,0,0,0,0,0,0,0,0,0,0,0,0,0,0,0,0,0,0,0,0,0,0,0,0,3.933,3.92,3.893,3.88,3.868,3.855,3.855,3.842,3.829,3.817,3.817,3.817,3.817,3.817,3.817,3.817,3.829,3.829,3.855,3.855,3.88,3.933,0,4.028,4.158,4.203,4.249,4.249,4.264,0,0,0,0,0,0,0
5.543,5.543,5.543,5.543,5.543,5.543,5.517,5.517,5.517,5.517,5.517,5.517,5.517,5.543,5.543,5.543,5.543,5.543,5.543,5.543,5.543,5.543,5.517,5.517,5.517,5.517,5.517,5.517,5.543,5.543,5.543,5.543,5.543,5.543,5.517,5.517,5.491,5.491,5.465,5.44,5.44,5.415,5.389,5.389,5.316,5.268,5.22,5.174,5.174,5.174,5.151,5.151,5.174,5.22,5.22,5.244,5.244,5.244,5.244,5.244,5.244,5.244,5.22,5.22,5.22,5.22,5.174,5.174,5.174,5.174,5.174,5.22,5.22,5.22,5.244,5.244,5.268,5.268,5.316,5.34,5.389,5.415,5.415,5.44,5.44,5.465,5.44,5.465,5.44,5.44,5.415,5.415,5.415,5.415,5.415,5.415,5.44,5.465,5.491,5.543,5.597,5.624,5.707,5.821,6.001,0,6.127,6.259,6.361,6.432,6.504,6.54,6.577,6.614,6.614,6.652,6.652,6.69,6.69,6.69,6.69,6.614,6.577,6.504,6.396,6.259,6.127,6.001,5.939,5.821,5.792,5.763,5.792,5.792,5.85,5.939,6.127,6.259,6.396,6.54,6.577,6.652,6.69,6.729,6.729,6.729,6.729,6.729,6.729,6.69,6.69,6.69,6.69,6.614,6.614,6.614,6.577,6.614,6.614,6.614,6.614,6.652,6.69,6.69,6.729,6.729,6.729,6.729,6.729,6.729,6.652,6.614,6.577,6.577,6.577,6.577,6.577,6.577,6.577,6.577,6.577,6.577,6.614,6.614,6.614,6.614,6.614,6.614,6.652,6.652,6.652,6.69,6.652,6.614,6.614,6.614,6.577,6.577,6.577,6.577,6.577,6.577,6.54,6.54,6.504,6.504,6.432,6.361,6.327,6.127,5.679,0,0,3.906,3.842,3.829,3.829,3.817,3.817,3.817,3.817,3.804,3.804,3.804,3.804,3.804,3.804,3.804,3.792,3.792,3.78,3.78,3.792,3.792,3.804,3.804,3.804,3.804,3.817,3.817,3.829,3.829,3.829,3.829,3.829,3.829,3.829,3.829,3.817,3.817,3.804,3.804,3.804,3.804,3.792,3.78,3.767,3.755,3.731,3.672,3.627,3.56,3.517,3.485,3.465,3.444,3.384,3.355,3.336,3.326,3.336,3.336,3.365,3.394,3.404,3.424,3.444,3.454,3.465,3.475,3.475,3.475,3.485,3.485,0,0,0,0,0,0,0,5.763,5.792,5.763,5.735,5.735,5.735,5.735,5.735,5.735,5.707,5.679,5.679,5.679,5.679,5.679,5.679,5.679,5.735,5.792,5.85,5.909,5.939,6.001,6.032,6.032,6.032,6.032,5.939,5.939,5.909,5.821,5.792,5.763,5.707,5.679,5.679,5.679,5.679,5.679,5.679,5.679,5.679,5.679,5.679,5.679,5.679,5.679,5.651,5.651,5.624,5.597,5.57,5.57,5.543,5.543,5.543,5.543,5.543,5.44,5.44,5.465,5.491,5.517,5.517,5.543,5.543,5.57,5.57,5.597,5.597,5.57,5.543,5.543,5.543,5.491,5.465,5.415,5.389,5.34,5.316,5.268,5.244,5.22,5.174,5.174,5.151,5.106,5.106,5.084,5.084,5.04,5.04,5.018,5.018,4.996,4.975,4.975,4.954,4.954,4.954,4.954,4.954,4.975,4.996,4.996,4.996,5.018,5.04,5.04,5.084,5.106,5.151,5.174,5.22,5.244,5.268,5.268,5.316,5.34,5.389,5.44,5.465,5.543,5.57,5.597,5.624,0,5.679,5.679,5.679,5.679,5.679,5.707,5.707,5.707,5.707,5.707,5.679,5.679,5.679,5.651,0,5.651,5.651,5.651,5.679,5.679,5.679,5.679,0,0,0,0,0,0,0,0,0,0,0,0,0,0,0,0,0,0,6.467,6.467,6.504,6.504,6.467,6.504,6.504,6.54,6.54,6.54,6.577,6.577,6.577,6.614,6.614,6.652,6.69,6.69,6.729,6.808,6.929,7.186,7.659,7.973,8.198,0,8.375,8.56,8.623,8.819,8.955,8.955,9.166,0,0,5.651,5.543,5.491,5.44,5.44,5.415,5.389,5.34,5.316,5.268,5.244,5.244,5.244,5.22,5.174,5.174,5.174,5.151,5.174,5.174,5.174,5.174,5.22,5.22,5.244,5.244,5.244,5.244,5.244,5.244,5.244,5.244,5.22,5.22,5.174,5.151,5.151,5.106,5.084,5.04,4.996,4.975,0,0,0,0,0,0,0,0,0,0,0,0,0,0,0,0,0,0,0,0,0,0,0,0,0,0,0,0,0,0,0,3.92,3.893,3.868,3.868,3.855,3.842,3.829,3.829,3.817,3.817,3.817,3.817,3.817,3.817,3.829,3.829,3.842,3.855,3.868,3.893,3.946,0,4.056,4.128,4.188,4.203,4.218,4.249,0,0,0,0,0,0,0
5.517,5.517,5.517,5.517,5.543,5.543,5.517,5.517,5.517,5.517,5.491,5.491,5.517,5.517,5.517,5.517,5.517,5.543,5.543,5.543,5.543,5.543,5.543,5.543,5.543,5.517,5.543,5.543,5.543,5.543,5.543,5.543,5.543,5.517,5.491,5.491,5.465,5.465,5.44,5.44,5.44,5.415,5.415,5.389,5.34,5.268,5.244,5.22,5.22,5.174,5.174,5.174,5.174,5.22,5.22,5.244,5.244,5.22,5.22,5.22,5.22,5.174,5.174,5.151,5.106,5.106,5.106,5.084,5.106,5.106,5.106,5.106,5.151,5.174,5.174,5.22,5.244,5.268,5.316,5.316,5.389,5.415,5.44,5.44,5.465,5.465,5.465,5.44,5.44,5.415,5.415,5.389,5.389,5.34,5.34,5.34,5.389,5.415,5.44,5.491,5.543,5.57,5.624,5.679,5.792,5.909,6.032,0,6.225,6.327,6.432,6.504,6.54,6.577,6.614,6.614,6.614,6.614,6.614,6.614,6.614,6.614,6.54,6.504,6.396,6.259,6.159,6.032,6.001,5.939,5.85,5.85,5.85,5.909,5.939,6.032,6.159,6.327,6.432,6.54,6.577,6.614,6.69,6.69,6.69,6.69,6.69,6.69,6.729,6.69,6.69,6.69,6.652,6.652,6.614,6.614,6.614,6.614,6.614,6.614,6.577,6.614,6.614,6.614,6.652,6.652,6.652,6.652,6.69,6.614,6.614,6.614,6.577,6.577,6.577,6.577,6.577,6.577,6.577,6.614,6.614,6.614,6.614,6.614,6.614,6.614,6.652,6.652,6.652,6.652,6.69,6.652,6.652,6.614,6.614,6.614,6.577,6.577,6.577,6.577,6.577,6.577,6.577,6.54,6.54,6.504,6.467,6.432,6.432,6.396,5.85,5.57,0,3.92,3.829,3.829,3.829,3.817,3.817,3.817,3.804,3.804,3.804,3.792,3.792,3.78,3.767,3.78,3.767,3.755,3.755,3.743,3.755,3.767,3.78,3.792,3.792,3.804,3.804,3.817,3.817,3.829,3.829,3.829,3.829,3.829,3.829,3.829,3.817,3.817,3.804,3.804,3.804,3.804,3.792,3.78,3.767,3.755,3.731,3.672,3.627,3.56,3.517,3.485,3.465,3.444,3.384,3.355,3.336,3.326,3.326,3.336,3.355,3.384,3.404,3.424,3.444,3.454,3.465,3.465,3.475,3.475,3.485,3.485,0,0,0,0,0,0,0,5.85,5.821,5.821,5.792,5.792,5.792,5.792,5.763,5.763,5.735,5.707,5.707,5.707,5.679,5.679,5.679,5.707,5.763,5.821,5.909,5.939,6.032,6.095,6.127,6.159,6.225,6.225,6.159,6.127,6.127,6.001,5.939,5.85,5.792,5.735,5.707,5.707,5.679,5.679,5.679,5.679,5.679,5.679,5.679,5.679,5.651,5.651,5.624,5.624,5.597,5.597,5.57,5.57,5.57,5.57,5.57,5.57,5.57,5.57,5.57,5.57,5.57,5.57,5.57,5.597,5.597,5.597,5.597,5.597,5.597,5.597,5.597,5.57,5.57,5.543,5.517,5.465,5.44,5.415,5.389,5.34,5.268,5.244,5.22,5.174,5.151,5.106,5.106,5.106,5.084,5.084,5.04,5.018,5.018,4.996,4.996,4.975,4.975,4.975,4.975,4.975,4.975,4.996,4.996,5.018,5.018,5.018,5.04,5.084,5.084,5.106,5.151,5.174,5.174,5.22,5.244,5.244,5.268,5.268,5.316,5.34,5.415,5.44,5.491,5.517,5.543,5.57,5.57,5.57,5.57,5.597,5.597,5.624,5.624,5.624,5.624,5.651,5.651,5.651,5.624,5.624,5.624,5.624,5.624,5.651,5.679,5.679,5.679,5.679,0,0,0,0,0,0,0,0,0,0,0,0,0,0,0,0,0,0,6.467,6.467,6.467,6.504,6.467,6.467,6.504,6.504,6.54,6.54,6.577,6.577,6.577,6.577,6.614,6.614,6.652,6.69,6.729,6.808,6.971,7.231,7.761,8.028,8.256,0,8.497,8.753,8.955,9.166,9.313,9.239,0,0,0,5.763,5.597,5.491,5.44,5.44,5.415,5.389,5.34,5.316,5.268,5.244,5.22,5.22,5.174,5.174,5.22,5.174,5.22,5.22,5.244,5.244,5.268,5.268,5.316,5.316,5.34,5.34,5.34,5.34,5.34,5.316,5.316,5.316,5.316,5.268,5.244,5.244,5.174,5.151,5.106,5.084,0,0,0,0,0,0,0,0,0,0,0,0,0,0,0,0,0,0,0,0,0,0,0,0,0,0,0,0,0,0,0,3.946,3.92,3.868,3.868,3.855,3.855,3.829,3.829,3.829,3.817,3.817,3.817,3.817,3.817,3.817,3.817,3.829,3.829,3.855,3.868,3.893,3.946,0,4.028,4.114,4.128,4.173,4.158,4.173,4.173,4.158,0,4.07,3.973,3.946,0
5.491,5.491,5.491,5.517,5.517,5.517,5.517,5.491,5.491,5.491,5.491,5.491,5.491,5.491,5.491,5.517,5.517,5.517,5.543,5.543,5.543,5.543,5.543,5.543,5.543,5.543,5.543,5.543,5.543,5.543,5.543,5.543,5.543,5.517,5.491,5.491,5.44,5.44,5.44,5.415,5.415,5.415,5.389,5.389,5.34,5.316,5.268,5.244,5.22,5.22,5.174,5.174,5.174,5.22,5.22,5.22,5.22,5.22,5.174,5.174,5.151,5.151,5.106,5.084,5.04,5.04,5.04,5.04,5.04,5.04,5.04,5.084,5.084,5.106,5.151,5.174,5.22,5.268,5.268,5.316,5.389,5.415,5.44,5.465,5.465,5.465,5.465,5.44,5.415,5.415,5.389,5.34,5.316,5.316,5.316,5.268,5.316,5.34,5.34,5.415,5.465,5.517,5.57,5.624,5.679,5.792,5.909,6.095,0,6.225,6.327,6.396,6.467,6.54,6.54,6.577,6.577,6.577,6.577,6.577,6.577,6.577,6.54,6.467,6.396,6.327,6.159,6.127,6.095,6.001,5.939,5.939,6.001,6.001,6.095,6.159,6.259,6.361,6.467,6.54,6.577,6.614,6.614,6.652,6.69,6.69,6.652,6.69,6.69,6.652,6.652,6.652,6.652,6.614,6.614,6.614,6.614,6.614,6.614,6.614,6.614,6.614,6.614,6.614,6.614,6.614,6.614,6.614,6.614,6.577,6.577,6.577,6.577,6.577,6.577,6.577,6.577,6.577,6.614,6.614,6.614,6.614,6.614,6.614,6.652,6.652,6.652,6.69,6.69,6.69,6.69,6.652,6.652,6.614,6.614,6.614,6.577,6.577,6.577,6.577,6.577,6.577,6.577,6.577,6.54,6.54,6.54,6.504,6.504,6.504,6.467,0,0,3.933,3.829,3.829,3.817,3.817,3.817,3.804,3.804,3.804,3.792,3.792,3.78,0,0,0,0,0,3.731,3.731,3.743,3.755,3.767,3.78,3.792,3.792,3.804,3.817,3.817,3.817,3.829,3.829,3.829,3.829,3.829,3.817,3.817,3.817,3.804,3.804,3.804,3.792,3.792,3.78,3.767,3.755,3.731,3.672,3.627,3.56,3.528,3.496,3.465,3.444,3.394,3.365,3.336,3.326,3.326,3.336,3.355,3.365,3.394,3.414,3.444,3.454,3.454,3.465,3.475,3.475,3.485,3.485,3.496,0,0,0,0,0,0,0,5.44,5.909,5.909,5.792,5.85,5.85,5.821,5.821,5.763,5.763,5.735,5.735,5.707,5.707,5.707,5.763,5.763,5.909,5.939,6.001,6.095,6.127,6.159,6.259,6.327,6.327,6.327,6.259,6.259,6.225,6.159,6.001,5.909,5.792,5.763,5.735,5.707,5.679,5.679,5.679,5.651,5.651,5.651,5.651,5.624,5.624,5.597,5.597,5.597,5.597,5.57,5.57,5.57,5.57,5.57,5.597,5.597,5.597,5.597,5.597,5.624,5.597,5.597,5.597,5.597,5.597,5.597,5.624,5.624,5.624,5.624,5.624,5.597,5.57,5.543,5.517,5.491,5.44,5.415,5.389,5.316,5.244,5.22,5.174,5.151,5.106,5.106,5.084,5.084,5.04,5.04,5.018,5.018,5.018,4.996,4.996,4.996,4.975,4.975,4.975,4.996,4.996,5.018,5.018,5.018,5.04,5.04,5.084,5.084,5.106,5.151,5.151,5.174,5.174,5.22,5.22,5.244,5.244,5.268,5.316,5.316,5.389,5.415,5.415,5.44,5.465,5.465,5.465,5.491,5.517,5.517,5.543,5.57,5.57,0,0,0,0,0,0,0,0,0,0,0,5.651,5.679,0,0,0,0,0,0,0,0,0,0,0,0,0,0,0,0,0,0,0,0,6.467,6.467,6.467,6.467,6.467,6.467,6.504,6.54,6.54,6.54,6.577,6.577,6.577,6.577,6.614,6.614,6.652,6.69,6.768,0,7.231,7.866,8.084,0,8.315,8.623,9.024,9.239,9.464,9.542,9.542,0,0,0,0,0,5.517,5.465,5.44,5.389,5.34,5.316,5.268,5.244,5.22,5.174,5.22,5.174,5.174,5.22,5.244,5.244,5.316,5.316,5.316,5.316,5.389,5.389,5.415,5.44,5.44,5.44,5.44,5.44,5.44,5.44,5.389,5.389,5.34,5.34,5.316,5.244,5.244,5.22,5.174,0,0,0,0,0,0,0,0,0,0,0,0,0,0,0,0,0,0,0,0,0,0,0,0,0,0,0,0,0,0,3.946,3.933,3.893,3.88,3.868,3.855,3.855,3.842,3.829,3.817,3.817,3.817,3.817,3.804,3.804,3.817,3.804,3.817,3.829,3.842,3.855,3.868,3.906,3.973,0,4.056,4.07,4.085,4.114,4.114,4.114,4.07,4.056,3.933,3.92,3.893,3.893
5.465,5.465,5.491,5.491,5.491,5.491,5.465,5.491,5.465,5.465,5.465,5.465,5.465,5.491,5.491,5.491,5.491,5.517,5.543,5.543,5.543,5.543,5.543,5.543,5.543,5.543,5.543,5.543,5.543,5.543,5.543,5.543,5.517,5.517,5.491,5.465,5.44,5.44,5.44,5.415,5.415,5.389,5.389,5.389,5.389,5.34,5.316,5.268,5.244,5.244,5.22,5.22,5.22,5.22,5.22,5.22,5.22,5.174,5.174,5.151,5.151,5.106,5.04,5.04,5.018,5.018,4.996,4.996,4.996,4.996,5.018,5.018,5.04,5.084,5.106,5.151,5.22,5.244,5.268,5.34,5.389,5.415,5.465,5.465,5.491,5.465,5.465,5.44,5.415,5.389,5.389,5.34,5.316,5.268,5.268,5.268,5.316,5.34,5.34,5.389,5.44,5.465,5.543,5.57,5.651,5.679,5.763,5.909,6.032,6.225,0,6.327,6.396,6.467,6.504,6.54,6.54,6.577,6.577,6.577,6.577,6.54,6.504,6.467,6.396,6.327,6.225,6.159,6.127,6.127,6.095,6.095,6.127,6.159,6.225,6.327,6.396,6.467,6.504,6.54,6.577,6.577,6.614,6.614,6.614,6.614,6.614,6.614,6.614,6.614,6.614,6.614,6.614,6.614,6.614,6.614,6.614,6.614,6.614,6.614,6.614,6.614,6.614,6.614,6.577,6.577,6.577,6.577,6.577,6.577,6.577,6.577,6.577,6.577,6.577,6.577,6.577,6.577,6.614,6.614,6.614,6.614,6.614,6.652,6.652,6.652,6.69,6.69,6.69,6.69,6.69,6.652,6.652,6.614,6.614,6.614,6.614,6.614,6.577,6.577,6.577,6.577,6.577,6.577,6.577,6.577,6.577,6.614,6.614,6.652,6.652,6.614,6.54,0,0,3.829,0,0,0,0,0,0,0,0,0,0,0,0,0,0,3.696,3.707,3.731,3.743,3.767,3.78,3.792,3.804,3.804,3.817,3.817,3.817,3.829,3.829,3.817,3.817,3.817,3.817,3.817,3.817,3.804,3.804,3.804,3.792,3.792,3.78,3.767,3.755,3.731,3.696,3.649,3.582,3.528,3.496,3.475,3.454,3.394,3.365,3.355,3.336,3.326,3.336,3.336,3.365,3.394,3.414,3.434,3.444,3.454,3.465,3.475,3.475,3.485,3.485,3.485,0,0,0,0,0,0,0,5.084,0,5.543,5.57,5.57,5.624,5.651,5.679,5.679,5.707,5.763,5.735,5.707,5.707,5.707,5.735,5.821,5.909,5.939,6.032,6.095,6.159,6.225,6.327,6.361,6.361,6.361,6.361,6.361,6.361,6.327,6.225,6.032,5.939,5.909,5.821,5.763,5.735,5.679,5.679,5.651,5.651,5.651,5.624,5.624,5.597,5.597,5.597,5.597,5.597,5.57,5.57,5.57,5.597,5.597,5.624,5.624,5.624,5.651,5.651,5.651,5.651,5.651,5.651,5.651,5.651,5.624,5.624,5.624,5.624,5.624,5.624,5.597,5.597,5.57,5.543,5.517,5.465,5.415,5.389,5.268,5.22,5.22,5.174,5.151,5.106,5.084,5.084,5.04,5.04,5.04,5.04,5.018,5.018,5.018,4.996,4.996,4.996,4.996,4.996,4.996,5.018,5.018,5.018,5.018,5.04,5.04,5.084,5.084,5.106,5.106,5.151,5.151,5.174,5.174,5.174,5.174,5.174,5.174,5.22,5.22,5.244,5.268,5.268,5.268,5.34,5.34,5.34,5.34,5.389,5.415,5.465,5.491,5.543,5.543,5.597,5.597,0,0,0,0,0,5.624,5.651,5.651,5.651,5.651,0,0,0,0,0,0,0,0,0,0,0,0,0,0,0,0,0,0,0,0,6.396,6.432,6.432,6.432,6.432,6.467,6.467,6.504,6.54,6.54,6.54,6.577,6.577,6.577,6.614,6.614,6.652,6.69,6.729,6.888,7.231,7.813,8.141,0,8.375,8.819,9.239,9.464,9.701,9.865,0,0,0,0,0,0,5.491,5.44,5.415,5.389,5.316,5.268,5.244,5.22,5.151,5.151,5.174,5.151,5.174,5.174,5.244,5.244,5.268,5.316,5.34,0,5.389,0,5.415,5.44,5.44,5.44,5.44,5.465,5.465,5.465,5.44,5.44,5.415,5.415,5.415,5.34,5.34,5.316,5.268,0,0,0,0,0,0,0,0,0,0,0,0,0,0,0,0,0,0,0,0,0,0,0,0,0,0,4.085,4.07,4.056,4.014,3.946,3.92,3.893,3.88,3.868,3.855,3.855,3.842,3.829,3.817,3.817,3.817,3.804,3.804,3.804,3.804,3.804,3.804,3.817,3.829,3.829,3.855,3.88,3.933,3.973,0,4.014,4.028,4.028,4.056,4.056,3.987,3.946,3.906,3.893,3.88,3.88
5.44,5.44,5.465,5.465,5.465,5.44,5.44,5.44,5.415,5.44,5.44,5.44,5.44,5.44,5.465,5.465,5.491,5.517,5.517,5.543,5.543,5.543,5.543,5.543,5.543,5.543,5.543,5.543,5.543,5.543,5.543,5.543,5.517,5.491,5.465,5.465,5.44,5.44,5.415,5.415,5.415,5.415,5.415,5.415,5.389,5.389,5.34,5.34,5.316,5.316,5.268,5.268,5.268,5.268,5.268,5.244,5.244,5.22,5.174,5.151,5.106,5.04,5.04,5.018,4.996,4.975,4.975,4.975,4.975,4.975,4.975,4.996,5.018,5.04,5.084,5.151,5.22,5.244,5.316,5.34,5.415,5.44,5.465,5.491,5.491,5.491,5.465,5.465,5.415,5.415,5.34,5.316,5.316,5.268,5.268,5.244,5.268,5.316,5.34,5.415,5.44,5.465,5.517,5.57,5.597,5.651,5.707,5.792,5.939,6.095,6.225,0,6.327,6.396,6.432,6.504,6.54,6.54,6.54,6.54,6.54,6.54,6.504,6.467,6.396,6.361,6.327,6.259,6.259,6.225,6.259,6.259,6.327,6.361,6.396,6.467,6.504,6.54,6.54,6.577,6.577,6.577,6.577,6.577,6.577,6.577,6.577,6.577,6.614,6.577,6.577,6.614,6.614,6.614,6.614,6.614,6.614,6.614,6.614,6.614,6.614,6.614,6.614,6.614,6.614,6.614,6.577,6.577,6.577,6.577,6.577,6.577,6.577,6.577,6.577,6.577,6.577,6.614,6.614,6.614,6.614,6.652,6.652,6.652,6.652,6.652,6.652,6.652,6.69,6.69,6.69,6.652,6.652,6.614,6.614,6.614,6.614,6.614,6.614,6.614,6.614,6.652,6.614,6.614,6.652,6.652,6.652,6.69,6.69,6.729,6.729,6.729,6.888,7.055,7.231,7.559,0,0,0,0,0,0,0,7.973,7.973,7.973,7.973,0,0,0,0,0,3.731,3.743,3.767,3.78,3.792,3.804,3.804,3.804,3.817,3.817,3.817,3.817,3.817,3.817,3.817,3.817,3.804,3.804,3.804,3.804,3.804,3.804,3.78,3.78,3.767,3.755,3.731,3.696,3.649,3.582,3.538,3.496,3.475,3.454,3.404,3.384,3.355,3.336,3.326,3.336,3.355,3.365,3.394,3.404,3.434,3.444,3.454,3.465,3.465,3.475,3.485,3.485,3.485,0,0,0,0,0,0,0,4.713,4.851,5.018,5.174,5.34,5.44,0,5.517,5.57,5.651,5.707,5.735,5.707,5.707,5.707,5.763,5.792,5.909,5.939,6.032,6.095,6.225,6.225,6.327,6.396,6.432,6.432,6.432,6.396,6.396,6.396,6.361,6.259,6.225,6.001,5.909,5.85,5.792,5.763,5.679,5.679,5.651,5.624,5.597,5.597,5.597,5.597,5.597,5.597,5.57,5.57,5.57,5.597,5.597,5.597,5.651,5.651,5.651,5.651,5.679,5.679,5.679,5.679,5.679,5.651,5.651,5.651,5.624,5.624,5.624,5.597,5.597,5.597,5.57,5.543,5.517,5.491,5.44,5.389,5.34,5.268,5.22,5.174,5.151,5.106,5.084,5.04,5.04,5.04,5.04,5.04,5.018,5.018,5.018,5.018,5.018,4.996,4.996,4.996,4.996,5.018,5.018,5.018,5.04,5.04,5.04,5.084,5.084,5.084,5.106,5.106,5.106,5.151,5.151,5.151,5.151,5.106,5.106,5.084,5.106,5.106,5.106,5.151,5.174,5.174,5.22,5.244,5.316,5.268,0,0,0,0,0,0,0,0,0,0,0,0,0,0,0,0,0,0,0,0,0,0,0,0,0,0,0,0,0,0,0,0,0,0,0,0,0,0,0,0,0,6.361,6.396,6.432,0,0,0,6.54,6.54,6.577,6.577,6.577,6.577,6.614,6.652,6.69,6.729,6.929,7.415,7.866,0,8.198,8.56,8.955,9.464,9.783,10.036,10.123,0,0,0,0,0,0,0,5.44,5.415,5.389,5.316,5.268,5.244,5.22,5.151,5.151,5.151,5.151,5.106,5.151,5.174,5.22,5.244,5.244,5.268,5.268,5.316,5.34,5.389,5.415,5.44,5.415,5.44,5.44,5.44,5.44,5.44,5.44,5.44,5.44,5.44,5.44,5.44,0,0,0,0,0,0,0,0,0,0,0,0,0,0,0,0,0,0,0,0,0,0,0,0,0,4.158,4.158,4.128,4.114,4.07,4.028,3.987,3.933,3.92,3.893,3.88,3.868,3.855,3.855,3.829,3.829,3.817,3.817,3.817,3.804,3.804,3.804,3.792,3.78,3.792,3.804,3.804,3.817,3.829,3.855,3.88,3.906,3.933,3.946,3.973,3.973,3.973,3.973,3.933,3.906,3.893,3.88,3.868,3.868
5.44,5.44,5.44,5.44,5.44,5.44,5.415,5.415,5.389,5.389,5.415,5.415,5.415,5.415,5.44,5.465,5.465,5.491,5.517,5.517,5.543,5.543,5.543,5.543,5.543,5.543,5.543,5.543,5.543,5.517,5.517,5.517,5.517,5.491,5.465,5.465,5.44,5.44,5.44,5.44,5.44,5.44,5.415,5.415,5.415,5.415,5.389,5.389,5.34,5.34,5.34,5.34,5.316,5.316,5.316,5.316,5.268,5.244,5.22,5.174,5.151,5.04,5.018,4.996,4.996,4.996,4.975,4.954,4.975,4.975,4.975,4.996,5.018,5.04,5.084,5.106,5.174,5.268,5.316,5.389,0,5.44,5.465,5.491,5.517,5.517,5.517,5.491,5.44,5.415,5.389,5.34,5.316,5.316,5.316,5.316,5.34,5.34,5.389,5.415,5.465,5.491,5.543,5.57,5.597,5.624,5.679,5.735,5.821,6.001,6.095,6.159,6.259,6.361,6.396,6.467,6.504,6.54,6.54,6.54,6.504,6.504,6.504,6.432,6.396,6.361,6.361,6.327,6.361,6.361,6.361,6.396,6.432,6.467,6.504,6.54,6.577,6.577,6.577,6.577,6.614,6.577,6.577,6.577,6.577,6.577,6.577,6.577,6.577,6.577,6.577,6.577,6.577,6.577,6.577,6.614,6.614,6.614,6.614,6.614,6.614,6.652,6.614,6.614,6.614,6.614,6.614,6.614,6.614,6.614,6.614,6.614,6.614,6.614,6.614,6.614,6.614,6.614,6.614,6.614,6.614,6.614,6.614,6.652,6.652,6.652,6.652,6.652,6.652,6.652,6.652,6.652,6.652,6.652,6.652,6.652,6.652,6.652,6.652,6.652,6.69,6.69,6.69,6.69,6.69,6.69,6.69,6.729,6.768,6.848,6.848,6.971,7.098,7.231,7.559,7.761,7.866,7.761,7.813,7.973,7.973,7.973,7.973,7.973,7.973,7.973,7.973,7.919,7.919,7.919,0,0,0,0,3.78,3.792,3.804,3.804,3.804,3.817,3.817,3.817,3.817,3.817,3.817,3.817,3.817,3.817,3.817,3.804,3.804,3.804,3.804,3.792,3.792,3.78,3.767,3.755,3.731,3.696,3.649,3.593,3.538,3.496,3.485,3.454,3.444,3.384,3.365,3.336,3.336,3.336,3.355,3.365,3.394,3.404,3.424,3.444,3.454,3.465,3.475,3.485,3.485,3.485,3.496,3.517,3.538,0,0,0,0,0,0,0,0,0,0,0,5.04,5.22,5.415,0,5.543,5.651,5.651,5.707,5.679,5.735,5.792,5.85,5.909,6.001,6.095,6.127,6.225,6.327,6.361,6.432,6.432,6.432,6.432,6.432,6.432,6.396,6.361,6.259,6.095,6.032,5.939,5.85,5.792,5.735,5.707,5.679,5.651,5.624,5.597,5.57,5.57,5.57,5.57,5.57,5.57,5.57,5.57,5.597,5.624,5.624,5.651,5.651,5.679,5.679,5.679,5.679,5.679,5.651,5.651,5.651,5.651,5.624,5.597,5.597,5.597,5.57,5.543,5.543,5.491,5.465,5.44,5.415,5.34,5.316,5.244,5.22,5.151,5.106,5.084,5.084,5.018,5.04,5.018,5.018,5.018,5.018,5.018,5.018,5.018,5.018,5.018,4.996,5.018,5.018,5.018,5.018,5.04,5.04,5.04,5.04,5.084,5.084,5.106,5.106,5.106,5.106,5.106,5.106,5.106,5.084,5.084,5.04,5.018,5.018,5.018,5.018,5.04,5.018,5.04,5.084,0,0,0,0,0,0,0,0,0,0,0,0,0,0,0,0,0,0,0,0,0,0,0,0,0,0,0,0,0,0,0,0,0,0,0,0,0,0,0,0,0,0,0,0,0,0,0,0,0,0,0,0,0,0,6.577,6.577,6.577,6.614,6.652,6.729,6.848,7.368,7.919,0,8.198,8.56,9.024,9.701,10.123,10.212,0,0,0,10.212,9.542,0,0,0,5.415,5.389,5.389,5.316,5.268,5.22,5.174,5.106,5.106,5.106,5.084,5.084,5.084,5.106,5.151,5.174,5.174,5.22,5.22,5.244,5.268,5.316,5.34,5.34,5.34,5.389,5.415,5.415,5.415,5.44,5.44,5.44,0,0,0,0,0,0,0,0,0,0,0,0,0,0,0,0,0,0,0,0,0,0,0,0,0,0,0,0,4.188,4.173,4.158,4.114,4.085,4.07,4.028,3.946,3.933,3.92,3.893,3.88,3.868,3.855,3.855,3.842,3.829,3.817,3.817,3.817,3.804,3.804,3.804,3.792,3.78,3.78,3.792,3.804,3.804,3.817,3.829,3.855,3.868,3.88,3.906,3.906,3.92,3.92,3.906,3.906,3.88,3.868,3.868,3.868,3.868
5.415,5.415,5.415,5.415,5.415,5.389,5.389,5.389,5.34,5.34,5.34,5.34,5.389,5.389,5.415,5.44,5.44,5.465,5.491,5.517,5.517,5.543,5.543,5.543,5.543,5.517,5.543,5.517,5.517,5.517,5.517,5.517,5.491,5.491,5.465,5.465,5.465,5.465,5.44,5.44,5.44,5.44,5.44,5.44,5.415,5.415,5.389,5.389,5.389,5.389,5.34,5.34,5.34,5.34,5.316,5.316,5.268,5.244,5.22,5.151,5.106,5.04,5.018,4.996,4.975,4.975,4.975,4.954,4.975,4.975,4.975,4.996,5.018,5.04,5.084,5.151,5.22,5.268,5.34,0,5.415,5.465,5.491,5.517,5.517,5.517,5.517,5.491,5.465,5.44,5.415,5.389,5.389,5.34,5.34,5.34,5.34,5.389,5.415,5.465,5.491,5.517,5.543,5.57,5.597,5.651,5.679,5.707,5.821,5.909,6.001,6.127,6.225,6.259,6.361,6.432,6.467,6.504,6.504,6.467,6.467,6.467,6.467,6.432,6.396,6.361,6.361,6.361,6.396,6.361,6.396,6.432,6.467,6.504,6.54,6.577,6.577,6.577,6.577,6.577,6.614,6.614,6.577,6.577,6.577,6.577,6.577,6.577,6.577,6.577,6.577,6.577,6.577,6.577,6.577,6.577,6.614,6.614,6.614,6.614,6.652,6.652,6.652,6.652,6.614,6.614,6.614,6.614,6.614,6.614,6.614,6.614,6.614,6.614,6.614,6.614,6.614,6.614,6.614,6.614,6.614,6.614,6.652,6.652,6.652,6.652,6.652,6.652,6.69,6.69,6.69,6.69,6.69,6.69,6.69,6.69,6.69,6.69,6.69,6.69,6.69,6.69,6.729,6.729,6.729,6.729,6.768,6.808,6.848,6.929,7.055,7.231,7.368,7.511,7.659,7.761,7.866,7.919,7.973,7.973,7.973,7.919,7.919,7.919,7.919,7.919,7.866,7.866,7.866,7.866,7.866,0,0,0,3.78,3.804,3.804,3.804,3.817,3.817,3.817,3.829,3.817,3.817,3.817,3.817,3.817,3.817,3.804,3.804,3.804,3.804,3.804,3.792,3.792,3.78,3.767,3.755,3.743,3.696,3.661,3.615,3.549,3.506,3.485,3.465,3.444,3.404,3.384,3.355,3.355,3.355,3.355,3.365,3.394,3.404,3.424,3.444,3.454,3.465,3.475,3.485,3.485,3.496,3.496,3.517,0,3.582,3.649,3.731,0,0,0,0,0,0,0,0,0,0,0,5.018,5.244,5.415,5.543,5.597,0,5.651,5.763,5.821,5.85,5.939,6.032,6.127,6.159,6.259,6.396,6.432,6.432,6.432,6.467,6.467,6.467,6.432,6.396,6.327,6.225,6.127,6.001,5.939,5.85,5.792,5.763,5.679,5.651,5.624,5.597,5.597,5.597,5.57,5.57,5.57,5.57,5.597,5.597,5.624,5.624,5.651,5.679,5.679,5.707,5.679,5.707,5.707,5.679,5.679,5.679,5.679,5.651,5.651,5.597,5.597,5.543,5.543,5.517,5.491,5.44,5.415,5.389,5.389,5.316,5.268,5.244,5.22,5.151,5.106,5.084,5.04,5.018,5.04,5.018,5.04,5.04,5.018,5.018,5.04,5.04,5.04,5.018,5.018,5.018,5.018,5.018,5.04,5.04,5.04,5.04,5.084,5.084,5.106,5.106,5.106,5.106,5.106,5.151,5.151,5.106,5.084,5.04,4.996,4.975,4.975,4.975,4.954,4.954,4.954,0,0,0,0,0,0,0,0,0,0,0,0,0,0,0,0,0,0,0,0,0,0,0,0,0,0,0,0,0,0,0,0,0,0,0,0,0,0,0,0,0,0,0,0,0,0,0,0,0,0,0,0,0,0,0,0,6.54,6.577,6.577,6.614,6.614,6.69,6.768,7.186,0,0,0,0,8.56,8.955,0,0,0,0,0,0,0,0,0,0,5.465,5.415,5.389,5.34,5.316,5.244,5.22,5.106,5.106,5.084,5.084,5.04,5.084,5.084,5.084,5.084,5.084,5.106,5.106,5.106,5.151,5.22,5.22,5.22,5.244,5.268,5.268,5.316,5.34,5.389,5.415,5.415,5.44,5.465,0,0,0,0,0,0,0,0,0,0,0,0,0,0,0,0,0,0,0,0,0,0,0,0,0,4.218,4.188,4.173,4.128,4.114,4.085,4.028,3.987,3.933,3.92,3.906,3.893,3.88,3.868,3.855,3.855,3.842,3.829,3.829,3.829,3.817,3.817,3.804,3.804,3.792,3.792,3.792,3.792,3.804,3.804,3.817,3.817,3.829,3.842,3.855,3.868,3.868,3.868,3.868,3.868,3.868,3.855,3.855,3.855,3.855,3.855
5.389,5.389,5.389,5.389,5.389,5.34,5.34,5.34,5.34,5.316,5.316,5.34,5.34,5.34,5.389,5.415,5.415,5.44,5.465,5.491,5.491,5.491,5.491,5.491,5.491,5.517,5.517,5.517,5.491,5.491,5.491,5.491,5.491,5.491,5.465,5.465,5.465,5.465,5.465,5.465,5.465,5.465,5.465,5.465,5.465,5.44,5.415,5.415,5.415,5.389,5.389,5.34,5.34,5.34,5.268,5.268,5.244,5.174,5.151,5.106,5.084,5.018,4.996,4.975,4.975,4.975,4.954,4.954,4.975,4.975,4.975,5.018,5.018,5.084,5.106,5.174,5.244,5.316,5.34,0,5.415,5.465,5.517,5.543,5.543,5.543,5.543,5.517,5.491,5.465,5.44,5.44,5.415,5.415,5.415,5.389,5.415,5.44,5.465,5.491,5.517,5.543,5.57,5.597,5.624,5.651,5.679,5.735,5.792,5.909,6.001,6.032,6.127,6.225,6.327,6.361,6.432,6.432,6.467,6.467,6.467,6.467,6.432,6.396,6.361,6.361,6.327,6.327,6.361,6.396,6.396,6.432,6.467,6.54,6.54,6.577,6.577,6.577,6.614,6.614,6.614,6.577,6.577,6.577,6.577,6.577,6.577,6.54,6.54,6.54,6.54,6.54,6.54,6.54,6.577,6.577,6.614,6.614,6.614,6.652,6.69,6.69,6.69,6.69,6.652,6.652,6.652,6.69,6.69,6.69,6.69,6.652,6.652,6.652,6.614,6.614,6.614,6.614,6.614,6.652,6.652,6.652,6.652,6.652,6.652,6.652,6.652,6.652,6.69,6.69,6.69,6.69,6.69,6.69,6.69,6.69,6.69,6.69,6.69,6.69,6.729,6.729,6.729,6.729,6.768,6.768,6.808,6.848,6.929,6.971,7.186,7.322,7.415,7.559,7.709,7.813,7.866,7.919,7.919,7.919,7.919,7.919,7.866,7.866,7.866,7.866,7.866,7.866,7.813,7.813,7.761,7.761,0,0,0,3.804,3.817,3.817,3.817,3.817,3.817,3.817,3.829,3.817,3.817,3.817,3.817,3.804,3.804,3.804,3.804,3.804,3.792,3.792,3.792,3.78,3.767,3.755,3.743,3.707,3.661,3.615,3.56,3.517,3.496,3.465,3.454,3.414,3.394,3.384,3.365,3.365,3.365,3.384,3.394,3.404,3.424,3.444,3.454,3.465,3.475,3.485,3.485,3.496,3.496,3.506,3.56,0,3.627,3.707,3.829,3.868,3.92,4.028,4.173,4.233,0,0,0,0,0,0,0,4.83,4.954,5.106,5.415,5.57,5.651,0,5.763,5.909,5.939,6.001,6.127,6.159,6.259,6.361,6.361,6.396,6.396,6.432,6.432,6.432,6.396,6.361,6.259,6.127,6.032,6.001,5.909,5.821,5.763,5.707,5.679,5.651,5.651,5.597,5.597,5.597,5.57,5.57,5.57,5.57,5.597,5.624,5.651,5.651,5.679,5.679,5.707,5.707,5.735,5.707,5.707,5.707,5.679,5.679,5.651,5.624,5.597,5.57,5.517,5.491,5.44,5.44,5.389,5.389,5.34,5.316,5.316,5.244,5.244,5.22,5.174,5.106,5.084,5.084,5.04,5.04,5.04,5.04,5.04,5.04,5.018,5.04,5.04,5.04,5.04,5.018,5.04,5.04,5.04,5.04,5.04,5.04,5.084,5.084,5.106,5.106,5.106,5.106,5.151,5.151,5.151,5.106,5.106,5.084,5.04,4.996,4.975,4.954,4.933,4.912,4.891,0,0,0,0,0,0,0,0,0,0,0,0,0,0,0,0,0,0,0,0,0,0,0,0,0,0,0,0,0,0,0,0,0,0,0,0,0,0,0,0,0,0,0,0,0,0,0,0,0,0,0,0,0,0,0,0,0,0,0,0,0,0,0,0,0,0,0,0,0,0,0,0,0,0,0,0,0,0,0,0,0,5.517,5.465,5.44,5.389,5.34,5.268,5.244,5.174,5.106,5.106,5.084,5.018,5.04,5.018,5.018,5.018,5.018,0,5.018,5.04,5.084,5.084,5.106,5.151,5.174,5.174,5.22,5.244,5.268,5.316,5.34,0,0,0,0,0,0,0,0,0,0,0,0,0,0,0,0,0,0,0,0,0,0,0,0,0,0,0,0,4.203,4.173,4.158,4.128,4.07,4.028,4.014,3.946,3.933,3.906,3.893,3.88,3.868,3.868,3.855,3.855,3.855,3.842,3.829,3.829,3.817,3.817,3.804,3.804,3.804,3.804,3.78,3.78,3.792,3.792,3.804,3.804,3.817,3.817,3.829,3.842,3.842,3.842,3.842,3.842,3.829,3.829,3.842,3.829,3.829,3.829
5.389,5.389,5.34,5.34,5.34,5.34,5.316,5.316,5.316,5.316,5.316,5.316,5.316,5.34,5.34,5.389,5.415,5.415,5.44,5.465,5.465,5.465,5.465,5.465,5.465,5.465,5.465,5.465,5.465,5.465,5.465,5.465,5.465,5.465,5.491,5.491,5.491,5.491,5.491,5.491,5.491,5.491,5.491,5.491,5.465,5.465,5.44,5.44,5.415,5.389,5.389,5.34,5.34,5.316,5.268,5.244,5.22,5.151,5.106,5.084,5.018,4.975,4.975,4.954,4.954,4.954,4.954,4.954,4.954,4.954,4.975,4.996,5.018,5.084,5.106,5.151,5.244,5.316,0,5.389,5.44,5.491,5.517,5.543,5.543,5.543,5.543,5.543,5.517,5.465,5.465,5.44,5.465,5.44,5.44,5.44,5.465,5.491,5.517,5.543,5.57,5.57,5.597,5.597,5.651,5.679,5.679,5.735,5.763,5.821,5.909,6.001,6.032,6.127,6.159,6.327,6.361,6.396,6.432,6.432,6.432,6.432,6.396,6.361,6.327,6.259,6.259,6.327,6.327,6.361,6.396,6.396,6.467,6.504,6.54,6.577,6.577,6.577,6.577,6.614,6.614,6.614,6.577,6.577,6.577,6.54,6.54,6.54,6.54,6.54,6.504,6.504,6.54,6.54,6.54,6.577,6.577,6.614,6.614,6.652,6.69,6.69,6.69,6.69,6.69,6.69,6.69,6.69,6.69,6.69,6.69,6.69,6.69,6.69,6.69,6.69,6.652,6.652,6.652,6.652,6.652,6.652,6.652,6.652,6.652,6.652,6.652,6.652,6.69,6.69,6.69,6.69,6.69,6.69,6.69,6.69,6.729,6.729,6.729,6.729,6.729,6.729,6.729,6.768,6.768,6.808,6.848,6.888,6.971,7.098,7.231,7.368,7.511,7.559,7.709,7.761,7.813,7.866,7.866,7.866,7.866,7.813,7.866,7.813,7.813,7.813,7.813,7.761,7.761,7.761,7.709,7.709,7.709,0,0,0,3.817,3.817,3.817,3.829,3.829,3.829,3.817,3.817,3.817,3.817,3.817,3.804,3.804,3.804,3.804,3.804,3.792,3.792,3.792,3.78,3.767,3.767,3.743,3.707,3.672,3.627,3.582,3.528,3.496,3.485,3.465,3.444,3.404,3.394,3.384,3.384,3.384,3.384,3.394,3.414,3.424,3.444,3.454,3.465,3.475,3.485,3.496,3.496,3.496,3.517,3.549,0,3.593,3.672,3.743,3.792,3.817,3.829,3.868,3.906,3.946,0,0,0,0,0,0,0,0,4.771,4.851,5.106,5.415,5.57,5.679,0,5.792,5.939,6.001,6.095,6.159,6.225,6.259,6.327,6.361,6.361,6.396,6.396,6.361,6.327,6.225,6.127,6.095,6.001,5.909,5.821,5.763,5.735,5.679,5.651,5.624,5.597,5.597,5.597,5.57,5.57,5.597,5.57,5.597,5.624,5.651,5.651,5.679,5.707,5.735,5.735,5.763,5.763,5.735,5.735,5.707,5.679,5.679,5.624,5.597,5.491,5.465,5.44,5.389,5.34,5.316,5.316,5.268,5.268,5.244,5.244,5.22,5.174,5.151,5.106,5.106,5.084,5.084,5.084,5.084,5.084,5.084,5.084,5.084,5.084,5.106,5.084,5.084,5.04,5.04,5.04,5.084,5.084,5.04,5.04,5.084,5.084,5.106,5.106,5.151,5.174,5.174,5.22,5.244,5.22,5.151,5.106,5.084,5.018,4.996,4.975,4.933,4.912,0,0,0,0,0,0,0,0,0,0,0,0,0,0,0,0,0,0,0,0,0,0,0,0,0,0,0,0,0,0,0,0,0,0,0,0,0,0,0,0,0,0,0,0,0,0,0,0,0,0,0,0,0,0,0,0,0,0,0,0,0,0,0,0,0,6.848,0,0,0,0,0,0,0,0,0,0,0,0,0,0,0,0,5.543,5.543,5.465,5.44,5.415,5.34,5.316,5.244,5.174,5.106,5.084,5.04,5.018,4.996,4.975,4.975,4.975,4.975,4.975,4.975,4.996,5.018,5.018,5.084,5.084,5.106,5.151,5.174,5.22,5.244,5.268,5.316,0,0,0,0,0,0,0,0,0,0,0,0,0,0,0,0,0,0,0,0,0,0,0,0,0,0,4.218,4.203,4.188,4.128,4.085,4.056,4.014,3.946,3.92,3.906,3.893,3.893,3.88,3.868,3.868,3.855,3.855,3.855,3.842,3.829,3.829,3.829,3.817,3.817,3.804,3.804,3.792,3.792,3.792,3.792,3.792,3.804,3.804,3.804,3.817,3.817,3.829,3.829,3.829,3.829,3.829,3.829,3.817,3.817,3.817,3.829,3.829
5.389,5.389,5.34,5.34,5.316,5.316,5.316,5.316,5.316,5.316,5.34,5.316,5.34,5.34,5.389,5.389,5.389,5.415,5.415,5.44,5.44,5.44,5.44,5.44,5.44,5.415,5.415,5.415,5.415,5.415,5.44,5.465,5.465,5.465,5.491,5.517,5.517,5.517,5.517,5.543,5.543,5.543,5.543,5.543,5.517,5.491,5.491,5.465,5.44,5.415,5.389,5.34,5.316,5.268,5.244,5.22,5.174,5.151,5.084,5.04,4.996,4.975,4.954,4.933,4.933,4.933,4.933,4.933,4.954,4.954,4.975,4.996,5.018,5.04,5.084,5.151,5.244,5.316,0,5.389,5.44,5.491,5.517,5.517,5.543,5.543,5.543,5.517,5.517,5.491,5.491,5.465,5.465,5.491,5.491,5.491,5.517,5.543,5.57,5.597,5.597,5.597,5.651,5.651,5.679,5.707,5.735,5.763,5.792,5.821,5.85,5.939,6.001,6.032,6.127,6.225,6.327,6.327,6.396,6.396,6.396,6.396,6.361,6.259,6.259,6.225,6.225,6.225,6.259,6.327,6.327,6.361,6.432,6.467,6.504,6.54,6.577,6.577,6.577,6.577,6.577,6.577,6.577,6.577,6.54,6.54,6.54,6.504,6.504,6.467,6.467,6.467,6.467,6.504,6.504,6.54,6.54,6.577,6.614,6.614,6.69,6.69,6.69,6.69,6.69,6.69,6.69,6.69,6.729,6.729,6.729,6.729,6.729,6.69,6.69,6.69,6.69,6.69,6.69,6.69,6.652,6.652,6.652,6.652,6.652,6.652,6.652,6.652,6.69,6.69,6.69,6.69,6.69,6.729,6.729,6.729,6.729,6.729,6.768,6.768,6.768,6.808,6.808,6.808,6.848,6.848,6.888,6.971,6.971,7.098,7.231,7.368,7.511,7.559,7.709,7.761,7.761,7.813,7.813,7.813,7.813,7.813,7.761,7.761,7.761,7.709,7.709,7.709,7.709,7.659,7.659,7.559,7.559,7.559,0,0,3.829,3.829,3.829,3.829,3.829,3.829,3.829,3.817,3.817,3.817,3.804,3.804,3.804,3.804,3.804,3.804,3.792,3.792,3.792,3.792,3.78,3.767,3.755,3.731,3.696,3.661,3.593,3.549,3.517,3.485,3.465,3.454,3.424,3.404,3.394,3.394,3.394,3.404,3.404,3.414,3.434,3.444,3.454,3.465,3.475,3.485,3.496,3.496,3.506,3.528,3.538,3.549,3.582,0,3.615,3.661,3.672,3.731,3.755,3.792,3.804,3.829,3.855,0,0,0,0,0,0,0,0,4.81,4.933,5.22,5.491,5.597,5.763,0,5.909,5.939,6.032,6.127,6.159,6.225,6.225,6.259,6.259,6.327,6.327,6.259,6.159,6.095,6.032,5.939,5.85,5.792,5.763,5.707,5.679,5.651,5.624,5.624,5.597,5.597,5.597,5.597,5.597,5.597,5.597,5.624,5.651,5.651,5.679,5.707,5.735,5.763,5.763,5.763,5.792,5.763,5.763,5.707,5.679,5.624,5.57,5.491,5.44,5.389,5.316,5.316,5.268,5.244,5.244,5.244,5.22,5.22,5.22,5.174,5.174,5.151,5.151,5.106,5.106,5.106,5.151,5.151,5.151,5.151,5.151,5.151,5.151,5.151,5.106,5.106,5.084,5.084,5.084,5.084,5.084,5.084,5.084,5.084,5.106,0,5.151,5.174,0,5.22,5.244,5.268,5.244,5.244,5.22,5.151,5.151,5.106,5.151,5.018,0,0,0,0,0,0,0,0,0,0,0,0,0,0,0,0,0,0,0,0,0,0,0,0,0,0,0,0,0,0,0,0,0,0,0,0,0,0,0,0,0,0,0,0,0,0,0,0,0,0,0,0,0,0,0,0,0,0,6.614,6.614,6.614,6.614,6.614,6.614,6.652,6.69,6.768,0,0,0,0,0,0,0,0,0,0,0,0,0,0,0,5.597,5.57,5.543,5.517,5.465,5.415,5.389,5.34,5.268,5.174,5.106,5.04,4.996,4.975,4.954,4.933,4.933,4.933,4.933,4.933,4.933,4.954,4.975,4.996,5.018,5.018,5.04,5.106,5.151,5.174,5.174,5.22,0,0,0,0,0,0,0,0,0,0,0,0,0,0,0,0,0,0,0,0,0,0,0,0,0,4.233,4.203,4.173,4.158,4.114,4.07,4.028,3.946,3.92,3.92,3.893,3.88,3.88,3.868,3.868,3.868,3.868,3.855,3.855,3.855,3.829,3.829,3.829,3.829,3.817,3.817,3.804,3.804,3.804,3.792,3.792,3.792,3.792,3.804,3.804,3.817,3.817,3.817,3.817,3.817,3.817,3.817,3.817,3.817,3.817,3.817,3.817,3.817
5.44,5.415,5.389,5.34,5.34,5.34,5.316,5.34,5.34,5.34,5.389,5.34,5.389,5.389,5.389,5.415,5.415,5.415,5.44,5.44,5.44,5.415,5.415,5.389,5.389,5.389,5.389,5.389,5.389,5.415,5.415,5.44,5.491,5.517,5.543,5.543,5.543,5.57,5.57,5.57,5.57,5.57,5.57,5.57,5.543,5.543,5.517,5.491,5.465,5.44,5.389,5.34,5.316,5.268,5.22,5.22,5.174,5.106,5.084,5.04,4.996,4.954,4.954,4.954,4.933,4.933,4.933,4.933,4.933,4.954,4.975,4.975,5.018,5.04,5.084,5.151,5.244,5.316,5.389,0,5.44,5.465,5.517,5.543,5.543,5.543,5.517,5.517,5.517,5.517,5.491,5.491,5.491,5.517,5.517,5.517,5.543,5.57,5.597,5.624,5.651,5.651,5.679,5.679,5.735,5.763,5.763,5.763,5.821,5.85,5.909,5.909,6.001,6.095,6.127,6.159,6.259,6.327,6.327,6.361,6.361,6.361,6.259,6.225,6.159,6.159,6.159,6.225,6.225,6.259,6.327,6.327,6.396,6.467,6.504,6.54,6.54,6.577,6.577,6.577,6.577,6.577,6.577,6.577,6.54,6.54,6.504,6.504,6.467,6.467,6.467,6.432,6.432,6.467,6.467,6.54,6.54,6.577,6.614,6.614,6.652,6.69,6.729,6.729,6.729,6.729,6.729,6.729,6.729,6.729,6.729,6.729,6.729,6.729,6.69,6.69,6.69,6.69,6.69,6.69,6.652,6.652,6.652,6.652,6.652,6.652,6.652,6.652,6.652,6.69,6.69,6.69,6.69,6.729,6.729,6.729,6.729,6.768,6.768,6.768,6.808,6.808,6.808,6.848,6.848,6.888,6.929,6.971,7.055,7.186,7.231,7.322,7.415,7.511,7.659,7.709,7.709,7.761,7.761,7.761,7.761,7.709,7.709,7.659,7.659,7.659,7.559,7.559,7.559,7.511,7.511,7.511,7.511,7.511,7.415,0,0,3.829,3.829,3.829,3.829,3.829,3.817,3.817,3.817,3.804,3.804,3.804,3.804,3.804,3.804,3.804,3.804,3.804,3.792,3.792,3.78,3.78,3.767,3.743,3.731,3.672,3.627,3.582,3.528,3.496,3.485,3.465,3.444,3.424,3.414,3.414,3.414,3.414,3.414,3.424,3.444,3.444,3.454,3.465,3.475,3.485,3.496,3.506,3.517,3.528,3.538,3.582,3.593,0,3.627,3.649,3.672,3.707,3.731,3.743,3.78,3.792,3.817,3.829,3.855,3.893,0,0,0,0,0,0,0,0,0,5.44,5.597,5.735,0,5.85,5.939,6.032,6.095,6.095,6.127,6.159,6.225,6.225,6.225,6.159,6.095,6.032,6.001,5.909,5.85,5.821,5.763,5.735,5.679,5.679,5.651,5.651,5.624,5.597,5.597,5.597,5.597,5.597,5.624,5.651,5.651,5.679,5.679,5.707,5.763,5.763,5.792,5.792,5.792,5.792,5.763,5.735,5.679,5.624,5.57,5.465,5.44,5.34,5.268,5.268,5.244,5.22,5.244,5.22,5.174,5.22,5.174,5.22,5.174,5.174,5.174,5.174,5.174,5.174,5.22,5.22,5.22,5.22,5.22,5.22,5.22,5.22,5.174,5.151,5.151,5.151,5.106,5.106,5.106,5.106,5.084,5.106,5.106,5.151,5.151,5.174,5.22,5.244,5.268,5.316,5.316,5.316,5.268,5.22,5.22,5.244,5.316,5.415,0,0,0,0,0,0,0,0,0,0,0,0,0,0,0,0,0,0,0,0,0,0,0,0,0,0,0,0,0,0,0,0,0,0,0,0,0,0,0,0,0,0,0,0,0,0,0,0,0,0,0,0,0,0,0,0,6.614,6.614,6.614,6.614,6.614,6.577,6.577,6.577,6.54,6.54,6.577,6.54,6.54,6.504,0,6.504,6.504,6.54,6.504,6.361,6.361,6.159,6.001,5.821,5.763,5.679,5.624,5.597,5.57,5.57,5.543,5.517,5.491,5.44,5.389,5.268,5.106,5.04,4.996,4.954,4.933,4.912,4.912,4.912,4.912,4.912,4.912,4.912,4.912,4.954,4.954,4.975,4.996,5.018,5.04,0,0,0,0,0,0,0,0,0,0,0,0,0,0,0,0,0,0,0,0,0,0,0,0,0,0,4.249,4.249,4.203,4.173,4.173,4.114,4.085,4.056,4.014,3.933,3.92,3.906,3.893,3.88,3.868,3.868,3.868,3.868,3.868,3.868,3.855,3.855,3.842,3.842,3.829,3.829,3.829,3.817,3.817,3.804,3.804,3.804,3.804,3.792,3.792,3.804,3.804,3.804,3.804,3.804,3.804,3.804,3.804,3.804,3.804,3.804,3.804,3.804,3.804,3.804
5.44,5.415,5.389,5.389,5.34,5.389,5.34,5.389,5.389,5.415,5.389,5.415,5.415,5.415,5.415,5.44,5.44,5.44,5.44,5.44,5.415,5.415,5.389,5.389,5.34,5.316,5.316,5.34,5.34,5.389,5.44,5.465,5.517,5.543,5.543,5.57,5.57,5.597,5.597,5.597,5.597,5.597,5.597,5.597,5.57,5.57,5.543,5.517,5.491,5.44,5.389,5.34,5.316,5.244,5.244,5.174,5.151,5.106,5.04,4.996,4.975,4.954,4.954,4.954,4.933,4.933,4.933,4.933,4.954,4.954,4.975,4.975,5.018,5.04,5.084,5.174,5.244,5.316,5.389,0,5.465,5.491,5.517,5.543,5.543,5.543,5.543,5.543,5.517,5.517,5.491,5.517,5.517,5.543,5.543,5.543,5.57,5.597,5.624,5.651,5.679,5.707,5.735,5.763,5.792,5.792,5.792,5.821,5.821,5.85,5.909,5.939,6.001,6.032,6.127,6.159,6.259,6.327,6.327,6.327,6.327,6.327,6.259,6.159,6.127,6.127,6.127,6.127,6.159,6.225,6.259,6.327,6.361,6.432,6.467,6.54,6.54,6.54,6.577,6.577,6.577,6.577,6.54,6.54,6.54,6.504,6.504,6.467,6.432,6.432,6.432,6.396,6.432,6.432,6.467,6.504,6.54,6.577,6.614,6.614,6.69,6.69,6.729,6.729,6.729,6.768,6.768,6.768,6.768,6.768,6.768,6.768,6.729,6.729,6.729,6.69,6.69,6.69,6.69,6.69,6.652,6.652,6.652,6.652,6.652,6.652,6.652,6.652,6.652,6.69,6.69,6.69,6.69,6.729,6.729,6.729,6.768,6.768,6.808,6.808,6.808,6.848,6.848,6.888,6.888,6.888,6.929,6.971,7.055,7.098,7.231,7.322,7.368,7.415,7.559,7.559,7.659,7.659,7.659,7.659,7.659,7.659,7.559,7.559,7.511,7.511,7.511,7.415,7.415,7.368,7.368,7.368,7.368,7.368,7.322,0,0,3.829,3.829,3.829,3.829,3.817,3.817,3.817,3.817,3.804,3.804,3.804,3.804,3.804,3.804,3.804,3.804,3.804,3.804,3.804,3.792,3.792,3.78,3.767,3.743,3.707,3.661,3.593,3.549,3.517,3.496,3.475,3.454,3.434,3.424,3.424,3.424,3.424,3.424,3.434,3.444,3.454,3.465,3.465,3.485,3.485,3.496,3.506,3.517,3.538,3.549,3.56,3.593,0,3.627,3.661,3.672,3.707,3.731,3.743,3.767,3.78,3.792,3.804,3.817,3.842,3.868,3.906,3.987,0,0,0,0,0,0,4.996,5.415,5.597,5.735,0,5.85,5.939,5.939,6.001,6.032,6.095,6.127,6.127,6.127,6.127,6.032,6.032,5.939,5.909,5.821,5.792,5.735,5.707,5.679,5.651,5.651,5.651,5.624,5.597,5.624,5.624,5.624,5.624,5.624,5.651,5.651,5.679,5.679,5.735,5.735,5.763,5.792,5.792,5.792,5.792,5.792,5.735,5.679,5.624,5.57,5.465,5.389,5.316,5.244,5.22,5.22,5.22,5.174,5.22,5.174,5.22,5.22,5.22,5.22,5.22,5.22,5.22,5.22,5.244,5.244,5.268,5.268,5.268,5.268,5.268,5.268,5.268,5.244,5.22,5.22,5.174,5.174,5.151,5.151,5.106,5.106,5.106,5.106,5.151,5.151,5.174,5.244,5.268,5.316,5.34,5.389,5.389,5.389,5.316,5.34,5.389,0,5.465,5.543,0,0,0,0,0,0,0,0,0,0,0,0,0,0,0,0,0,0,0,0,0,0,0,0,0,0,0,0,0,0,0,0,0,0,0,0,0,0,0,0,0,0,0,0,0,0,0,0,0,0,0,0,0,0,0,0,6.652,6.614,6.614,6.614,6.614,6.577,6.577,6.54,6.54,6.504,6.467,6.432,6.396,6.361,6.361,6.361,6.361,6.361,6.361,6.259,0,6.032,5.909,5.792,5.707,5.679,5.651,5.597,5.597,5.57,5.543,5.517,5.465,5.415,5.316,5.151,5.04,4.996,4.954,4.912,4.891,4.891,4.891,4.891,4.891,4.891,4.891,4.891,4.912,0,0,0,0,0,0,0,0,0,0,0,0,0,0,0,0,0,0,0,0,0,0,0,0,0,0,0,0,4.249,4.249,4.249,4.233,4.218,4.203,4.173,4.158,4.114,4.07,4.028,3.946,3.92,3.92,3.893,3.893,3.88,3.88,3.868,3.868,3.868,3.868,3.868,3.855,3.855,3.855,3.855,3.855,3.855,3.842,3.829,3.829,3.817,3.817,3.817,3.804,3.804,3.804,3.804,3.804,3.804,3.804,3.804,3.804,3.804,3.804,3.804,3.792,3.792,3.792,3.792,3.792,3.792
5.465,5.44,5.415,5.389,5.389,5.389,5.389,5.415,5.415,5.44,5.44,5.44,5.44,5.465,5.465,5.465,5.465,5.491,5.491,5.465,5.44,5.415,5.389,5.316,5.268,5.268,5.268,5.316,5.316,5.389,5.44,5.491,5.543,5.57,5.597,5.597,5.624,5.651,5.651,5.651,5.651,5.651,5.624,5.624,5.597,5.57,5.57,5.543,5.491,5.44,5.415,5.34,5.316,5.268,5.22,5.174,5.151,5.106,5.04,5.04,4.996,4.975,4.975,4.975,4.933,4.933,4.954,4.954,4.975,4.975,4.975,4.996,5.018,5.084,5.106,5.174,5.268,5.34,0,5.415,5.465,5.491,5.517,5.517,5.517,5.517,5.543,5.543,5.517,5.517,5.517,5.517,5.543,5.543,5.543,5.543,5.57,5.597,5.651,5.679,5.707,5.763,5.792,5.821,5.821,5.85,5.85,5.85,5.909,5.909,5.939,6.001,6.001,6.095,6.127,6.225,6.225,6.259,6.259,6.259,6.259,6.259,6.225,6.159,6.127,6.095,6.095,6.095,6.127,6.159,6.225,6.259,6.327,6.396,6.432,6.504,6.54,6.54,6.54,6.577,6.577,6.54,6.54,6.54,6.504,6.504,6.467,6.467,6.432,6.396,6.396,6.396,6.396,6.432,6.432,6.504,6.54,6.577,6.614,6.652,6.69,6.729,6.729,6.768,6.808,6.808,6.808,6.808,6.808,6.808,6.808,6.768,6.768,6.729,6.729,6.729,6.69,6.69,6.69,6.69,6.69,6.652,6.652,6.652,6.652,6.652,6.652,6.652,6.652,6.652,6.69,6.69,6.729,6.729,6.729,6.768,6.768,6.768,6.808,6.808,6.808,6.848,6.848,6.848,6.888,6.929,6.971,6.971,7.055,7.098,7.186,7.231,7.322,7.415,7.415,7.511,7.511,7.511,7.511,7.511,7.511,7.415,7.415,7.415,7.368,7.368,7.368,7.322,7.322,7.322,7.322,7.322,7.322,7.322,7.322,0,0,3.829,3.829,3.829,3.829,3.829,3.817,3.817,3.817,3.804,3.804,3.792,3.792,3.804,3.804,3.804,3.804,3.804,3.804,3.804,3.804,3.804,3.792,3.78,3.767,3.743,3.696,3.649,3.593,3.538,3.506,3.485,3.465,3.454,3.434,3.434,3.434,3.434,3.434,3.444,3.444,3.454,3.465,3.475,3.485,3.485,3.496,3.506,3.528,3.538,3.549,3.582,0,3.615,3.649,3.661,3.696,3.707,3.731,3.755,3.767,3.767,3.78,3.792,3.804,3.817,3.829,3.842,3.868,3.893,3.987,0,0,0,0,0,4.933,5.389,5.57,5.679,5.792,0,5.909,5.939,5.939,6.001,6.001,0,6.001,6.001,5.939,5.909,5.85,5.821,5.792,5.735,5.735,5.679,5.679,5.679,5.651,5.651,5.624,5.624,5.624,5.651,5.651,5.651,5.651,5.651,5.679,5.679,5.707,5.763,5.792,5.792,5.821,5.85,5.821,5.85,5.821,5.763,5.707,5.651,5.597,5.465,5.415,5.316,5.244,5.22,5.22,5.174,5.174,5.22,5.22,5.174,5.22,5.22,5.244,5.244,5.244,5.244,5.268,5.316,5.316,5.34,5.34,5.34,5.34,5.34,5.389,5.34,5.316,5.268,5.244,5.22,5.22,5.174,5.174,5.151,5.151,5.151,5.151,5.151,5.174,5.22,5.244,5.268,5.34,5.389,5.415,5.415,5.415,5.415,5.415,5.44,5.491,5.57,5.624,0,0,6.225,6.54,0,0,0,0,0,0,0,0,0,0,0,0,0,0,0,0,0,0,0,0,0,0,0,0,0,0,0,0,0,0,0,0,0,0,0,0,0,0,0,0,0,0,0,0,0,0,0,0,0,0,0,0,6.652,6.652,6.652,6.652,6.614,6.614,6.614,6.577,6.577,6.54,6.504,6.467,6.432,6.396,6.396,6.361,6.361,6.396,6.361,6.259,6.225,6.095,6.001,5.85,5.763,5.707,5.679,5.651,5.624,5.597,5.57,5.57,5.543,5.465,5.389,5.174,5.084,5.018,4.954,4.912,4.891,4.891,4.891,4.891,4.891,4.891,4.891,4.891,4.891,4.871,0,0,0,0,0,0,0,0,0,0,0,0,0,0,0,0,0,0,0,0,0,0,0,0,0,0,0,0,4.233,4.233,4.218,4.203,4.173,4.158,4.114,4.085,4.056,4.014,3.933,3.92,3.906,3.893,3.88,3.88,3.88,3.868,3.868,3.868,3.868,3.868,3.868,3.855,3.855,3.855,3.855,3.855,3.842,3.842,3.829,3.829,3.829,3.817,3.817,3.817,3.817,3.817,3.817,3.804,3.804,3.804,3.804,3.804,3.792,3.78,3.78,3.767,3.767,3.767,3.767,3.767
5.543,5.465,5.44,5.415,5.415,5.415,5.44,5.465,5.465,5.465,5.491,5.491,5.491,5.517,5.517,5.517,5.517,5.517,5.517,5.517,5.465,5.44,5.415,5.34,5.268,5.268,5.268,5.268,5.316,5.389,5.465,5.517,5.543,5.597,5.624,5.651,5.679,5.679,5.679,5.679,5.679,5.679,5.679,5.651,5.624,5.597,5.57,5.543,5.517,5.465,5.415,5.34,5.316,5.268,5.22,5.174,5.174,5.151,5.106,5.106,5.084,5.04,5.018,5.018,4.996,4.975,4.975,4.996,4.996,4.975,5.018,5.018,5.084,5.106,5.174,5.22,5.268,0,5.389,5.44,5.465,5.491,5.491,5.517,5.517,5.517,5.517,5.517,5.517,5.543,5.543,5.543,5.543,5.543,5.543,5.57,5.597,5.624,5.679,5.707,5.763,5.792,5.821,5.85,5.939,5.939,6.001,5.939,6.001,6.001,6.001,6.032,6.032,6.095,6.159,6.159,6.225,6.259,6.259,6.259,6.259,6.225,6.159,6.127,6.095,6.095,6.095,6.095,6.127,6.159,6.159,6.225,6.327,6.361,6.396,6.432,6.467,6.504,6.54,6.54,6.54,6.54,6.54,6.504,6.504,6.467,6.432,6.432,6.396,6.396,6.396,6.396,6.396,6.432,6.467,6.504,6.54,6.577,6.614,6.69,6.69,6.729,6.768,6.808,6.848,6.848,6.808,6.808,6.848,6.808,6.808,6.808,6.768,6.768,6.729,6.729,6.729,6.69,6.69,6.69,6.652,6.652,6.614,6.614,6.614,6.614,6.652,6.652,6.652,6.652,6.69,6.69,6.729,6.729,6.729,6.729,6.768,6.768,6.808,6.808,6.848,6.848,6.848,6.888,6.888,6.929,6.929,6.971,7.055,7.098,7.098,7.186,7.231,7.322,7.368,7.415,7.415,7.415,7.415,7.415,7.368,7.368,7.322,7.322,7.231,7.231,7.231,7.186,7.186,7.186,7.186,7.186,7.186,7.231,7.231,0,0,3.829,3.829,3.829,3.829,3.817,3.817,3.804,3.804,3.792,3.792,3.78,3.792,3.804,3.804,3.804,3.804,3.817,3.817,3.817,3.817,3.804,3.804,3.804,3.78,3.767,3.731,3.672,3.627,3.582,3.528,3.496,3.485,3.465,3.444,3.444,3.444,3.444,3.444,3.444,3.454,3.454,3.465,3.475,3.485,3.496,3.496,3.517,3.528,3.549,3.56,3.582,0,3.615,3.649,3.661,3.696,3.707,3.731,3.755,3.767,3.78,3.78,3.78,3.792,3.792,3.804,3.817,3.829,3.829,3.868,3.92,0,0,0,0,0,4.933,5.34,5.57,5.651,5.792,5.85,5.85,5.909,5.909,5.909,5.909,5.909,5.85,5.85,5.821,5.792,5.763,5.735,5.707,5.679,5.679,5.679,5.651,5.651,5.651,5.651,5.651,5.651,5.651,5.679,5.679,5.679,5.679,5.679,5.735,5.735,5.763,5.821,5.821,5.821,5.821,5.85,5.909,5.85,5.821,5.707,5.651,5.597,5.543,5.415,5.316,5.268,5.22,5.22,5.174,5.22,5.22,5.22,5.22,5.22,5.244,5.244,5.268,5.268,5.316,5.316,5.389,5.389,5.415,5.415,5.415,5.415,5.44,5.44,5.415,5.389,5.34,5.316,5.268,5.244,5.22,5.174,5.151,5.151,5.151,5.151,5.151,5.174,5.22,5.244,5.316,5.34,5.389,5.44,5.465,5.465,5.491,5.491,5.543,5.57,5.624,5.679,5.821,6.032,6.361,6.577,6.729,6.888,0,0,0,0,0,0,0,0,0,6.095,6.095,6.032,6.001,0,0,0,0,0,0,0,0,0,0,0,0,0,0,0,0,0,0,0,0,0,0,0,0,0,0,0,0,0,0,0,0,0,0,0,0,0,6.69,6.69,6.69,6.69,6.652,6.614,6.614,6.614,6.577,6.577,6.54,6.467,6.432,6.432,6.396,6.396,6.361,6.396,6.361,6.327,6.225,6.095,6.001,5.909,5.792,5.735,5.679,5.651,5.651,5.624,5.597,5.597,5.57,5.517,5.44,5.34,5.151,5.04,4.975,4.933,4.912,4.891,4.891,4.891,4.891,4.891,4.851,4.83,4.83,4.81,0,0,0,0,0,0,0,0,0,0,0,0,0,0,0,0,0,0,0,0,4.233,4.233,4.249,4.249,4.249,4.233,4.233,4.233,4.218,4.218,4.203,4.188,4.158,4.128,4.085,4.07,4.028,3.946,3.933,3.906,3.906,3.88,3.88,3.88,3.88,3.868,3.868,3.868,3.868,3.868,3.868,3.868,3.855,3.855,3.855,3.855,3.855,3.842,3.842,3.829,3.829,3.829,3.817,3.817,3.817,3.817,3.804,3.804,3.804,3.792,3.792,3.78,3.767,3.767,3.755,3.743,3.743,3.743,3.743,3.743
5.543,5.465,5.44,5.44,5.415,5.44,5.465,5.491,5.491,5.491,5.517,5.517,5.543,5.543,5.543,5.543,5.543,5.543,5.543,5.543,5.491,5.465,5.44,5.389,5.316,5.316,5.316,5.34,5.415,5.465,5.491,5.543,5.597,5.651,5.651,5.679,5.735,5.735,5.763,5.763,5.735,5.707,5.707,5.679,5.651,5.624,5.597,5.57,5.543,5.491,5.415,5.34,5.316,5.268,5.244,5.22,5.22,5.22,5.174,5.174,5.174,5.151,5.151,5.106,5.04,5.04,5.04,5.018,5.018,5.04,5.04,5.084,5.106,5.174,5.22,5.268,5.34,0,5.415,5.465,5.465,5.517,5.491,5.517,5.517,5.517,5.517,5.517,5.517,5.543,5.543,5.543,5.543,5.543,5.57,5.57,5.597,5.624,5.679,5.707,5.792,5.821,5.85,5.939,5.939,6.001,6.001,6.001,6.001,6.032,6.001,6.032,6.095,6.127,6.159,6.159,6.225,6.225,6.225,6.259,6.225,6.225,6.127,6.127,6.095,6.032,6.032,6.095,6.095,6.127,6.159,6.159,6.259,6.327,6.361,6.396,6.432,6.467,6.504,6.504,6.54,6.54,6.504,6.504,6.467,6.467,6.467,6.432,6.432,6.432,6.432,6.396,6.432,6.432,6.467,6.504,6.54,6.577,6.614,6.69,6.729,6.768,6.808,6.848,6.888,6.888,6.888,6.848,6.848,6.848,6.808,6.808,6.768,6.768,6.729,6.729,6.729,6.69,6.69,6.69,6.652,6.614,6.614,6.614,6.614,6.614,6.614,6.614,6.652,6.652,6.69,6.69,6.69,6.729,6.729,6.729,6.768,6.768,6.808,6.808,6.848,6.848,6.848,6.888,6.888,6.929,6.929,6.971,6.971,7.055,7.098,7.186,7.186,7.231,7.322,7.322,7.368,7.368,7.322,7.322,7.322,7.231,7.231,7.186,7.186,7.098,7.098,7.098,6.929,6.848,6.808,6.768,6.729,6.614,0,0,0,3.829,3.829,3.829,3.817,3.817,3.817,3.804,3.804,3.792,3.792,3.792,3.804,3.804,3.804,3.804,3.804,3.817,3.817,3.817,3.817,3.817,3.817,3.804,3.804,3.78,3.755,3.707,3.661,3.593,3.549,3.517,3.496,3.475,3.465,3.454,3.444,3.444,3.444,3.454,3.454,3.465,3.465,3.485,3.485,3.496,3.506,3.517,3.538,3.549,3.56,0,3.593,3.627,3.649,3.661,3.696,3.707,3.743,3.755,3.767,3.78,3.78,3.792,3.792,3.804,3.804,3.804,3.804,3.804,3.817,3.855,3.906,0,0,0,0,4.771,0,5.389,5.57,5.679,5.763,5.821,5.821,5.85,5.85,5.85,5.821,5.821,5.792,5.763,5.735,5.735,5.707,5.679,5.679,5.679,5.679,5.651,5.651,5.651,5.651,5.651,5.679,5.679,5.679,5.707,5.707,5.707,5.763,5.763,5.821,5.85,5.85,5.909,5.909,5.939,6.001,5.939,5.909,5.85,5.763,5.679,5.624,5.57,5.465,5.389,5.316,5.268,5.244,5.244,5.22,5.244,5.22,5.244,5.244,5.268,5.268,5.316,5.34,5.389,5.415,5.44,5.465,5.465,5.491,5.491,5.491,5.491,5.491,5.465,5.44,5.415,5.34,5.34,5.316,5.268,5.22,5.22,5.151,5.151,5.151,5.174,5.174,5.22,5.268,5.316,5.34,5.415,5.44,5.465,5.491,5.517,5.543,5.57,5.597,5.679,5.763,5.939,6.159,6.432,6.577,6.729,6.808,6.888,6.848,6.768,0,6.69,6.614,6.54,6.467,6.327,6.225,6.225,6.159,6.001,5.85,5.735,5.679,0,0,0,0,0,0,0,0,0,0,0,0,0,0,0,0,0,0,0,0,0,0,0,0,0,0,0,0,0,0,0,0,0,0,0,6.729,6.729,6.729,6.69,6.69,6.69,6.69,6.614,6.614,6.577,6.54,6.504,6.432,6.432,6.396,6.396,6.396,6.396,6.361,6.327,0,0,0,5.821,5.763,5.707,5.679,5.679,5.651,5.624,5.597,5.57,5.517,5.465,5.389,5.174,5.04,4.975,4.912,4.891,4.891,4.871,4.851,4.83,4.83,0,4.771,0,0,0,0,0,0,0,0,0,0,0,0,4.296,4.28,4.28,4.264,4.264,4.249,4.249,4.249,4.233,4.233,4.233,4.218,4.233,4.249,4.249,4.233,4.233,4.233,4.203,4.218,4.203,4.173,4.158,4.114,4.07,4.028,4.014,3.946,3.92,3.906,3.893,3.893,3.88,3.88,3.88,3.868,3.868,3.868,3.868,3.868,3.868,3.868,3.855,3.855,3.855,3.855,3.855,3.855,3.842,3.842,3.829,3.829,3.829,3.817,3.804,3.804,3.804,3.804,3.792,3.78,3.767,3.755,3.743,3.731,3.707,3.707,3.696,3.696,3.696,3.707
5.543,5.543,5.491,5.465,5.465,5.465,0,5.517,5.517,0,5.543,5.543,5.543,0,5.57,5.57,5.57,5.57,5.57,5.543,5.543,5.491,5.465,5.415,5.34,5.34,5.34,5.389,5.44,5.517,5.543,5.597,5.651,5.679,5.707,5.763,5.792,5.821,5.821,5.821,5.792,5.763,5.735,5.707,5.679,5.651,5.597,5.57,5.543,5.491,5.44,5.389,5.34,5.316,5.268,5.268,5.244,5.244,5.244,5.244,5.244,5.244,5.22,5.22,5.174,5.106,0,5.106,5.106,5.106,5.151,5.174,5.22,5.244,0,5.316,5.34,5.415,5.44,5.491,5.517,5.517,5.517,5.517,5.517,5.543,5.543,5.517,5.543,5.543,5.543,5.543,5.57,5.57,5.57,5.57,5.597,5.651,5.679,5.707,5.763,5.821,5.85,5.909,5.939,6.001,6.001,6.001,6.001,6.032,6.032,6.032,6.095,6.127,6.159,6.159,6.159,6.225,6.225,6.225,6.225,6.159,6.127,6.095,6.032,6.032,6.095,6.095,6.127,6.127,6.127,6.225,6.259,6.327,6.361,6.396,6.432,6.467,6.504,6.504,6.504,6.504,6.504,6.504,6.504,6.504,6.467,6.467,6.467,6.467,6.467,6.467,6.467,6.467,6.504,6.54,6.54,6.577,6.614,6.69,6.729,6.768,6.848,6.888,6.888,6.888,6.888,6.888,6.848,6.848,6.808,6.808,6.768,6.768,6.729,6.729,6.69,6.69,6.69,6.652,6.652,6.614,6.614,6.614,6.614,6.614,6.614,6.614,6.614,6.652,6.652,6.69,6.69,6.69,6.729,6.729,6.729,6.768,6.768,6.808,6.808,6.848,6.848,6.888,6.888,6.929,6.929,6.929,6.971,6.971,7.055,7.098,7.186,7.186,7.231,7.231,7.231,7.231,7.231,7.231,7.231,7.186,7.186,7.098,7.098,7.055,6.848,6.729,6.614,6.54,6.327,6.327,6.159,5.85,0,0,3.855,3.829,3.829,3.829,3.817,3.817,3.804,3.804,3.78,3.78,3.78,3.78,3.792,3.804,3.804,3.804,3.817,3.817,3.829,3.829,3.829,3.817,3.817,3.817,3.804,3.792,3.767,3.731,3.696,3.627,3.582,3.538,3.506,3.485,3.465,3.454,3.454,3.454,3.454,3.454,3.465,3.465,3.475,3.485,3.496,3.496,3.506,3.528,3.538,3.549,0,3.582,3.593,3.627,3.649,3.661,3.696,3.707,3.731,3.743,3.767,3.78,3.78,3.792,3.792,3.804,3.804,3.804,3.804,3.804,3.817,3.829,3.868,3.92,0,0,0,0,0,0,5.44,5.597,5.679,5.792,5.792,5.792,5.792,5.792,5.792,5.763,5.763,5.735,5.707,5.679,5.679,5.679,5.679,5.651,5.651,5.651,5.651,5.679,5.679,5.679,5.679,5.707,5.735,5.735,5.763,5.763,5.792,5.821,5.85,5.909,5.939,5.939,6.001,5.939,6.001,6.001,5.939,5.909,5.763,5.679,5.651,5.597,5.543,5.44,5.34,5.316,5.268,5.268,5.268,5.268,5.244,5.268,5.268,5.316,5.34,5.34,5.389,5.415,5.44,5.465,5.491,5.517,5.517,5.543,5.543,5.543,5.543,5.517,5.491,5.465,5.415,5.389,5.34,5.316,5.268,5.22,5.22,5.174,5.174,5.174,5.22,5.244,5.268,5.316,5.34,5.415,5.465,5.491,5.543,5.543,5.57,5.597,5.651,5.707,5.85,6.032,6.225,6.432,6.54,6.652,6.729,6.768,6.768,6.768,6.768,6.729,6.69,6.652,6.577,6.54,6.432,6.327,6.225,5.909,5.763,5.679,5.651,5.597,0,0,0,0,0,0,0,0,0,0,0,0,0,0,0,0,0,0,0,0,0,0,0,0,0,0,0,0,0,0,0,0,0,0,6.808,6.808,6.808,6.768,6.729,6.729,6.729,6.69,6.652,6.614,6.577,6.54,6.504,6.467,6.432,6.432,6.432,6.396,6.361,6.159,6.095,6.001,5.909,5.821,5.763,5.707,5.679,5.679,5.651,5.624,5.57,5.543,5.517,5.44,5.389,5.174,5.084,4.954,4.912,4.891,4.851,4.83,4.83,4.81,4.791,4.713,4.601,4.565,0,0,0,0,0,0,0,0,0,0,4.296,4.28,4.28,4.28,4.264,4.264,4.249,4.249,4.249,4.233,4.233,4.233,4.218,4.233,4.233,4.233,4.218,4.218,4.218,4.203,4.203,4.188,4.158,4.128,4.085,4.07,4.028,3.973,3.933,3.933,3.92,3.893,3.893,3.88,3.88,3.88,3.868,3.868,3.868,3.868,3.868,3.868,3.868,3.868,3.855,3.855,3.855,3.855,3.855,3.842,3.842,3.829,3.829,3.817,3.817,3.804,3.792,3.792,3.78,3.78,3.755,3.743,3.731,3.731,3.707,3.696,3.672,3.661,3.661,3.672,3.661
5.57,5.543,5.517,5.491,5.491,5.491,5.491,5.517,5.543,5.543,5.543,5.57,5.57,5.57,5.57,5.57,5.597,5.597,5.57,5.57,5.543,5.517,5.491,5.44,5.415,5.389,5.389,5.415,5.465,5.543,5.57,5.597,5.679,5.707,5.792,5.821,5.85,0,5.85,5.85,5.85,5.792,5.763,5.707,5.679,5.651,5.624,5.57,5.543,5.517,5.465,5.415,5.389,5.389,5.34,5.316,5.34,5.34,5.34,5.34,5.34,5.34,5.34,5.316,5.268,5.244,5.244,5.244,5.174,0,5.22,5.244,5.244,5.316,5.34,5.34,5.415,5.44,5.465,5.517,5.517,5.543,5.543,5.543,5.543,5.543,5.543,5.543,5.543,5.543,5.543,5.57,5.57,5.57,5.57,5.597,5.597,5.651,5.651,5.679,5.735,5.792,5.821,5.85,5.85,5.909,5.939,5.939,6.001,6.001,6.001,6.032,6.032,6.127,6.127,6.127,6.127,6.159,6.159,6.159,6.159,6.159,6.127,6.127,6.095,6.095,6.127,6.127,6.127,6.159,6.159,6.225,6.259,6.327,6.361,6.396,6.396,6.432,6.467,6.504,6.504,6.504,6.54,6.504,6.504,6.504,6.504,6.504,6.504,6.504,6.504,6.504,6.504,6.504,6.54,6.54,6.577,6.614,6.614,6.69,6.729,6.729,6.808,6.848,6.888,6.929,6.888,6.888,6.888,6.848,6.808,6.808,6.768,6.768,6.729,6.729,6.69,6.69,6.69,6.652,6.614,6.614,6.614,6.614,6.614,6.614,6.614,6.614,6.614,6.614,6.614,6.652,6.69,6.69,6.69,6.729,6.729,6.729,6.768,6.768,6.768,6.808,6.848,6.848,6.888,6.888,6.929,6.929,6.929,6.971,6.971,7.055,7.098,7.186,7.186,7.186,7.186,7.186,7.186,7.186,7.186,7.098,7.055,7.055,6.971,6.729,6.652,6.54,6.259,5.939,5.679,5.624,0,0,0,0,3.855,3.842,3.842,3.829,3.817,3.817,3.817,3.804,3.78,3.767,3.767,3.767,3.792,3.804,3.804,3.804,3.817,3.817,3.829,3.829,3.829,3.829,3.817,3.817,3.817,3.804,3.78,3.755,3.707,3.649,3.593,3.549,3.517,3.496,3.475,3.465,3.465,3.465,3.465,3.465,3.465,3.475,3.485,3.485,3.496,3.506,3.517,3.528,3.549,3.56,0,3.582,3.593,3.627,3.649,3.672,3.696,3.707,3.731,3.743,3.767,3.78,3.78,3.792,3.792,3.804,3.804,3.804,3.804,3.804,3.817,3.817,3.855,3.868,3.92,4.085,0,0,0,0,5.244,5.543,5.679,5.792,5.792,5.792,5.792,5.792,5.792,5.763,5.735,5.707,5.707,5.679,5.679,5.679,5.651,5.651,5.651,5.651,5.679,5.679,5.679,5.679,5.707,5.735,5.763,5.792,5.792,5.821,5.821,5.85,5.909,5.939,5.939,5.939,6.001,6.001,6.001,6.032,6.001,5.909,5.792,5.707,5.651,5.624,5.57,5.465,5.415,5.389,5.34,5.34,5.316,5.316,5.316,5.268,5.316,5.34,5.389,5.389,5.415,5.44,5.465,5.491,5.543,5.543,5.543,5.543,5.543,5.543,5.543,5.543,5.517,5.491,5.465,5.415,5.415,5.34,5.316,5.268,5.22,5.22,5.22,5.22,5.22,5.244,5.268,5.316,5.34,5.389,5.44,5.465,5.517,5.543,5.57,5.597,5.651,5.707,5.821,6.001,6.159,6.361,6.467,6.577,6.614,6.652,6.69,6.652,6.652,6.614,6.577,6.54,6.467,6.361,6.259,6.159,5.909,5.763,5.679,5.624,5.57,5.543,5.44,5.34,0,5.22,5.151,5.151,5.174,5.22,5.268,5.389,5.491,5.543,5.597,5.597,0,0,0,0,5.909,0,0,0,0,0,0,0,0,0,0,0,0,0,0,0,6.848,6.848,6.848,6.808,6.808,6.768,6.729,6.729,6.69,6.652,6.614,6.577,6.54,6.54,6.504,6.467,6.432,6.432,6.396,6.225,6.127,6.001,5.85,5.735,5.679,5.679,5.651,5.651,5.597,5.543,5.491,5.465,5.389,5.151,5.084,4.996,4.933,4.891,4.851,4.83,4.81,4.771,4.732,4.694,4.638,4.583,4.477,4.36,4.328,4.296,0,4.249,0,0,0,0,0,4.28,4.28,4.28,4.28,4.264,4.264,4.264,4.249,4.249,4.249,4.233,4.233,4.218,4.233,4.233,4.233,4.218,4.218,4.218,4.203,4.188,4.188,4.173,4.158,4.114,4.085,4.056,4.028,3.973,3.946,3.933,3.906,3.906,3.893,3.893,3.88,3.88,3.868,3.868,3.868,3.868,3.868,3.868,3.855,3.855,3.855,3.855,3.855,3.842,3.829,3.829,3.829,3.829,3.817,3.804,3.804,3.792,3.78,3.78,3.767,3.755,3.743,3.731,3.707,3.696,3.672,3.661,3.661,3.649,3.649,3.649,3.649
5.543,5.543,5.517,5.491,5.517,5.517,5.517,5.543,5.543,5.543,5.57,5.57,5.57,5.57,5.597,5.597,5.597,5.597,5.597,5.57,5.543,5.543,5.491,5.465,5.415,5.389,5.389,5.415,5.465,5.517,5.543,5.597,5.651,5.679,5.735,5.792,5.821,5.821,5.821,5.821,5.792,5.792,5.763,5.707,5.679,5.651,5.597,5.57,5.543,5.517,5.465,5.44,5.415,5.415,5.389,5.389,5.415,5.415,5.415,5.44,5.44,5.44,5.44,5.415,5.389,5.34,5.316,5.316,5.268,5.268,5.268,5.268,5.316,5.34,5.389,5.415,5.44,5.465,5.491,5.517,5.543,5.543,5.543,5.543,5.543,5.543,5.543,5.543,5.543,5.543,5.57,5.57,5.57,5.57,5.57,5.597,5.597,5.624,5.651,5.679,5.707,5.763,5.763,5.792,5.792,5.821,5.909,5.909,5.939,6.001,6.001,6.001,6.032,6.095,6.127,6.127,6.159,6.127,6.127,6.127,6.127,6.127,6.095,6.095,6.095,6.095,6.095,6.095,6.127,6.159,6.159,6.225,6.259,6.259,6.327,6.361,6.396,6.396,6.432,6.467,6.467,6.504,6.504,6.504,6.504,6.504,6.504,6.504,6.504,6.504,6.504,6.504,6.504,6.54,6.54,6.54,6.577,6.614,6.614,6.69,6.729,6.729,6.808,6.888,6.888,6.888,6.888,6.888,6.888,6.888,6.808,6.808,6.768,6.768,6.729,6.729,6.69,6.69,6.652,6.614,6.614,6.614,6.614,6.577,6.577,6.577,6.614,6.614,6.614,6.614,6.614,6.614,6.652,6.69,6.69,6.69,6.69,6.729,6.729,6.729,6.768,6.768,6.808,6.848,6.848,6.888,6.888,6.929,6.929,6.971,6.971,7.055,7.055,7.098,7.098,7.098,7.098,7.098,7.098,7.098,7.055,7.055,6.971,6.971,6.729,6.577,6.361,6.001,5.707,5.57,0,0,0,0,0,3.893,3.88,3.868,3.855,3.842,3.829,3.817,3.817,3.804,3.78,3.767,3.767,3.78,3.792,3.804,3.804,3.804,3.817,3.817,3.829,3.829,3.829,3.829,3.829,3.817,3.817,3.804,3.792,3.755,3.707,3.672,3.615,3.56,3.528,3.496,3.485,3.465,3.465,3.465,3.465,3.465,3.465,3.475,3.485,3.496,3.506,3.506,3.517,3.538,3.549,3.56,0,3.582,3.615,3.627,3.649,3.672,3.696,3.707,3.731,3.743,3.755,3.767,3.78,3.792,3.792,3.804,3.804,3.804,3.804,3.817,3.817,3.817,3.829,3.855,3.868,3.933,4.203,0,0,0,0,5.465,5.651,5.792,5.792,5.792,5.792,5.792,5.763,5.763,5.735,5.707,5.707,5.679,5.679,5.679,5.679,5.679,5.679,5.679,5.679,5.679,5.707,5.707,5.735,5.763,5.792,5.821,5.821,5.85,5.85,5.909,5.939,5.939,5.939,6.001,6.001,6.001,6.032,6.001,5.939,5.85,5.821,5.707,5.679,5.624,5.597,5.57,5.465,5.44,5.415,5.389,5.389,5.34,5.34,5.34,5.34,5.34,5.389,5.415,5.44,5.465,5.465,5.517,5.543,5.543,5.543,5.543,5.543,5.57,5.57,5.543,5.543,5.517,5.491,5.465,5.415,5.389,5.34,5.268,5.244,5.22,5.22,5.22,5.244,5.244,5.244,5.268,5.316,5.389,5.415,5.465,5.491,5.543,5.57,5.597,5.624,5.679,5.763,5.909,6.032,6.225,6.361,6.467,6.54,6.577,6.577,6.54,6.54,6.504,6.467,6.361,6.259,6.127,6.032,5.85,5.763,5.679,5.651,5.57,5.543,5.44,5.34,5.244,5.174,5.084,5.04,5.018,5.018,5.018,5.106,5.151,5.244,5.34,5.415,5.415,5.44,5.517,5.465,5.491,5.44,5.465,5.543,0,0,0,0,0,0,0,0,0,0,0,0,0,0,0,6.888,6.888,6.848,6.848,6.808,6.768,6.729,6.69,6.652,6.614,6.577,6.54,6.54,6.504,6.432,6.396,6.361,6.127,5.939,5.792,5.679,5.597,5.57,5.57,5.543,5.517,5.415,5.34,5.316,5.244,5.084,4.975,4.912,4.891,4.871,0,0,0,4.713,4.657,4.638,4.583,4.53,4.477,4.36,0,4.296,4.264,4.249,4.249,4.233,4.233,4.249,4.264,4.264,4.264,4.28,4.264,4.264,4.264,4.264,4.249,4.249,4.249,4.249,4.233,4.218,4.218,4.218,4.218,4.218,4.218,4.203,4.203,4.203,4.188,4.173,4.158,4.128,4.114,4.07,4.056,4.014,3.973,3.933,3.92,3.92,3.906,3.893,3.893,3.88,3.88,3.868,3.868,3.868,3.868,3.868,3.855,3.855,3.842,3.842,3.829,3.829,3.829,3.829,3.817,3.817,3.817,3.804,3.804,3.792,3.78,3.767,3.755,3.755,3.743,3.731,3.707,3.696,3.672,3.661,3.649,3.627,3.627,3.627,3.627,3.627
5.491,5.491,5.491,5.491,5.465,5.491,5.517,5.543,5.543,5.57,5.57,5.57,5.57,5.597,5.597,5.597,5.597,5.597,5.597,5.57,5.57,5.543,5.517,5.465,5.415,5.389,5.389,5.415,5.44,5.491,5.543,5.57,5.624,5.651,5.679,5.735,5.735,5.763,5.763,5.735,5.707,5.679,5.651,5.651,5.597,5.597,5.597,5.57,5.543,5.491,5.465,5.44,5.415,5.415,5.415,5.415,5.44,5.44,5.465,5.465,5.491,5.491,5.491,5.465,5.44,5.415,5.389,5.389,5.34,5.34,5.34,5.34,5.34,5.389,5.415,5.415,5.44,5.44,5.491,5.517,5.543,5.543,5.543,5.543,5.543,5.543,5.543,5.543,5.57,5.57,5.57,5.57,5.57,5.597,5.597,5.597,5.597,5.624,5.651,5.679,5.679,5.707,5.735,5.763,5.763,5.792,5.821,5.85,5.909,5.85,5.85,5.909,5.939,6.001,6.032,6.032,6.095,6.095,6.095,6.095,6.095,6.095,6.095,6.032,6.032,6.095,6.095,6.095,6.127,6.127,6.159,6.159,6.225,6.259,6.327,6.327,6.361,6.396,6.396,6.432,6.467,6.467,6.467,6.504,6.504,6.504,6.504,6.504,6.504,6.54,6.54,6.54,6.54,6.54,6.54,6.54,6.577,6.614,6.652,6.69,6.69,6.729,6.848,6.888,6.929,6.929,6.929,6.888,6.888,6.848,6.808,6.768,6.768,6.729,6.729,6.729,6.69,6.69,6.652,6.614,6.614,6.614,6.614,6.577,6.577,6.577,6.577,6.577,6.577,6.614,6.614,6.614,6.614,6.652,6.652,6.69,6.69,6.69,6.729,6.729,6.729,6.768,6.768,6.808,6.848,6.848,6.888,6.888,6.929,6.929,6.971,6.971,7.055,7.098,7.098,7.098,7.098,7.098,7.055,7.055,7.055,6.971,6.888,6.729,6.577,6.259,0,0,0,0,4.791,4.601,4.264,4.014,3.973,3.933,3.906,3.88,3.868,3.855,3.842,3.829,3.817,3.804,3.78,3.767,3.767,3.767,3.792,3.804,3.804,3.804,3.817,3.817,3.829,3.829,3.842,3.829,3.829,3.817,3.817,3.804,3.804,3.767,3.731,3.672,3.627,3.582,3.528,3.506,3.485,3.475,3.465,3.465,3.465,3.475,3.475,3.485,3.485,3.496,3.506,3.517,3.528,3.538,3.56,0,3.582,3.593,3.615,3.627,3.661,3.672,3.696,3.707,3.731,3.743,3.755,3.767,3.78,3.78,3.792,3.804,3.804,3.804,3.804,3.817,3.817,3.829,3.829,3.842,3.855,3.88,4.085,4.328,0,0,0,5.34,5.597,5.792,5.821,5.821,5.821,5.821,5.792,5.792,5.763,5.735,5.707,5.707,5.679,5.679,5.679,5.679,5.679,5.679,5.707,5.735,5.735,5.763,5.792,5.821,5.85,5.85,5.85,5.909,5.909,5.939,6.001,6.001,6.001,5.939,6.001,6.001,5.939,5.939,5.939,5.85,5.792,5.707,5.679,5.651,5.597,5.57,5.543,5.491,5.44,5.415,5.415,5.415,5.389,5.389,5.389,5.389,5.415,5.44,5.44,5.465,5.491,5.517,5.543,5.543,5.543,5.543,5.543,5.543,5.543,5.543,5.543,5.517,5.491,5.465,5.44,5.389,5.34,5.268,5.268,5.22,5.22,5.22,5.22,5.244,5.244,5.268,5.316,5.34,5.415,5.44,5.465,5.517,5.543,5.57,5.597,5.651,5.707,5.792,5.909,6.032,6.159,6.327,6.396,6.432,6.467,6.432,6.396,6.361,6.259,6.159,6.095,5.821,5.792,5.735,5.679,5.624,5.57,5.517,5.44,5.34,5.244,5.151,5.04,4.996,4.954,4.912,4.912,4.912,4.912,4.912,4.912,4.891,4.891,4.871,4.871,4.891,4.851,4.851,4.891,4.933,0,0,0,0,0,0,0,0,0,0,0,0,0,0,6.971,6.971,6.929,6.888,6.888,6.848,6.848,6.808,6.768,6.729,6.69,6.614,6.577,6.577,6.54,6.504,6.467,6.361,6.032,5.85,5.679,5.597,5.543,5.415,5.316,5.244,5.22,5.174,0,0,0,0,4.912,4.871,4.851,0,0,0,0,0,4.601,4.565,4.53,4.477,4.426,4.344,4.312,4.28,4.264,4.249,4.233,4.218,4.218,4.233,4.249,4.249,4.264,4.264,4.264,4.264,4.264,4.264,4.264,4.249,4.249,4.233,4.233,4.218,4.218,4.218,4.218,4.218,4.218,4.218,4.203,4.203,4.188,4.173,4.173,4.158,4.114,4.085,4.07,4.056,4.014,3.973,3.933,3.933,3.92,3.906,3.893,3.893,3.88,3.88,3.868,3.868,3.868,3.868,3.855,3.855,3.842,3.829,3.829,3.829,3.817,3.817,3.817,3.804,3.804,3.804,3.804,3.792,3.78,3.755,3.755,3.755,3.743,3.731,3.731,3.707,3.696,3.672,3.661,3.649,3.615,3.615,3.615,3.615,3.615
5.389,5.389,5.389,5.389,5.415,0,5.465,5.517,5.543,5.543,5.57,5.57,5.597,5.597,5.597,5.597,5.597,5.597,5.597,5.57,5.543,5.543,5.491,5.44,5.389,5.389,5.389,5.389,5.415,5.465,5.517,5.543,5.57,5.597,5.651,5.651,5.679,5.679,5.679,5.651,5.651,5.624,5.597,5.597,5.57,5.543,5.543,5.517,5.491,5.44,5.415,5.415,5.415,5.415,5.415,5.415,5.415,5.44,5.465,5.491,5.491,5.517,5.517,5.491,5.465,5.415,5.389,5.34,5.34,5.316,5.316,5.268,5.316,5.34,5.389,5.389,5.415,5.415,5.465,5.465,5.491,5.517,5.517,5.517,5.543,5.543,5.57,5.57,5.57,5.57,5.57,5.57,5.597,5.597,5.597,5.597,5.597,5.624,5.651,5.651,5.651,5.651,5.679,5.679,5.679,5.707,5.735,5.763,5.792,5.821,5.821,5.85,5.909,5.939,5.939,6.001,6.001,6.032,6.032,6.032,6.032,6.032,6.032,6.032,6.032,6.032,6.032,6.095,6.095,6.127,6.127,6.159,6.225,6.259,6.259,6.327,6.327,6.361,6.396,6.396,6.432,6.432,6.467,6.467,6.504,6.504,6.504,6.504,6.504,6.504,6.54,6.54,6.54,6.54,6.54,6.577,6.577,6.614,6.614,6.69,6.69,6.729,6.768,6.848,6.848,6.888,6.888,6.888,6.888,6.808,6.808,6.768,6.729,6.729,6.729,6.69,6.69,6.69,6.652,6.614,6.614,6.614,6.614,6.577,6.577,6.577,6.577,6.577,6.577,6.577,6.614,6.614,6.614,6.614,6.652,6.652,6.652,6.69,6.69,6.69,6.729,6.729,6.768,6.768,6.808,6.848,6.888,6.888,6.929,6.929,6.971,6.971,7.055,7.055,7.098,7.098,7.055,7.055,7.055,6.971,6.971,6.929,6.848,6.652,6.432,0,0,0,4.791,4.601,4.344,4.296,4.203,4.056,4.028,3.987,3.946,3.92,3.893,3.88,3.868,3.855,3.842,3.829,3.817,3.792,3.792,3.78,3.792,3.804,3.804,3.804,3.817,3.817,3.829,3.829,3.842,3.829,3.829,3.817,3.817,3.804,3.804,3.767,3.731,3.672,3.627,3.582,3.538,3.506,3.485,3.475,3.465,3.465,3.475,3.475,3.485,3.485,3.496,3.496,3.517,3.517,3.528,3.538,3.56,0,3.582,3.593,3.615,3.649,3.661,3.672,3.707,3.731,3.731,3.743,3.755,3.755,3.767,3.78,3.792,3.792,3.804,3.804,3.804,3.817,3.817,3.829,3.829,3.842,3.855,3.868,4.028,4.28,0,0,0,5.22,5.57,5.763,5.85,5.85,5.85,5.85,5.821,5.821,5.792,5.763,5.735,5.735,5.735,5.707,5.679,5.707,5.707,5.735,5.735,5.763,5.763,5.792,5.821,5.85,5.909,5.909,5.909,5.939,5.939,5.939,6.001,6.001,6.001,5.939,5.909,5.909,5.939,5.909,5.85,5.821,5.763,5.707,5.679,5.651,5.597,5.597,5.57,5.517,5.491,5.465,5.44,5.44,5.44,5.415,5.415,5.44,5.44,5.465,5.465,5.491,5.491,5.517,5.543,5.543,5.543,5.543,5.543,5.543,5.543,5.543,5.543,5.517,5.491,5.44,5.415,5.389,5.34,5.316,5.268,5.244,5.22,5.22,5.22,5.244,5.244,5.244,5.268,5.316,5.389,5.415,5.465,5.491,5.543,5.57,5.597,5.624,5.679,5.707,5.792,5.85,6.001,6.095,6.159,6.259,6.259,6.225,6.159,6.095,6.032,6.001,5.763,5.679,5.651,5.624,5.597,5.543,5.465,5.389,5.268,5.174,5.106,5.018,4.975,4.891,4.851,4.83,4.83,4.791,4.752,4.713,4.713,4.657,4.638,4.583,4.638,4.657,4.601,4.601,4.601,4.638,4.81,4.81,0,0,0,0,0,0,0,0,0,0,0,0,0,0,7.055,7.055,6.971,6.888,6.888,6.848,6.808,6.729,6.69,6.652,6.614,6.577,6.54,6.504,6.159,6.001,5.792,5.651,5.543,0,5.244,5.106,4.975,4.954,4.933,4.912,4.891,0,0,4.851,4.83,4.81,0,0,0,0,0,0,0,4.477,4.426,4.41,4.344,4.328,4.296,4.264,4.249,4.233,4.218,4.218,4.218,4.218,4.233,4.249,4.249,4.264,4.264,4.264,4.264,4.264,4.249,4.249,4.249,4.233,4.218,4.218,4.218,4.218,4.203,4.203,4.203,4.203,4.188,4.188,4.173,4.158,4.158,4.128,4.114,4.07,4.056,4.028,4.014,3.973,3.946,3.933,3.92,3.906,3.893,3.88,3.88,3.88,3.868,3.868,3.868,3.855,3.855,3.855,3.829,3.829,3.817,3.817,3.817,3.804,3.804,3.804,3.804,3.792,3.792,3.792,3.78,3.767,3.755,3.755,3.743,3.743,3.731,3.707,3.707,3.696,3.672,3.649,3.627,3.627,3.615,3.615,3.615
5.244,5.244,5.268,5.316,5.34,5.44,0,5.491,5.517,5.543,5.57,5.57,5.57,5.597,5.597,5.597,5.597,5.597,5.57,5.57,5.543,5.543,5.491,5.44,5.389,5.389,5.34,5.34,5.389,5.415,5.465,5.491,5.543,5.57,5.57,5.597,5.597,5.597,5.597,5.597,5.597,5.57,5.57,5.543,5.543,5.517,5.491,5.465,5.44,5.44,5.415,5.415,5.415,5.415,5.415,5.415,5.415,5.44,5.44,5.465,5.465,5.465,5.491,5.465,5.44,5.389,5.389,5.34,5.316,5.316,5.268,5.268,5.268,5.316,5.316,5.34,5.34,0,5.389,5.415,5.44,5.465,5.491,5.517,5.543,5.543,5.543,5.543,5.57,5.57,5.57,5.57,5.597,5.597,5.597,5.597,5.597,5.597,5.597,5.597,5.624,5.651,5.651,5.651,5.679,5.679,5.679,5.707,5.735,5.763,5.792,5.821,5.85,5.909,5.909,5.939,5.939,6.001,6.001,6.001,6.001,6.001,6.001,6.001,6.001,6.001,6.001,6.032,6.095,6.095,6.127,6.159,6.159,6.225,6.225,6.259,6.327,6.327,6.361,6.396,6.396,6.432,6.432,6.467,6.467,6.467,6.504,6.504,6.504,6.504,6.54,6.54,6.54,6.54,6.54,6.577,6.577,6.614,6.614,6.69,6.69,6.729,6.768,6.848,6.888,6.888,6.888,6.888,6.848,6.848,6.768,6.768,6.729,6.729,6.729,6.69,6.69,6.652,6.652,6.614,6.614,6.614,6.577,6.577,6.577,6.577,6.577,6.577,6.577,6.577,6.577,6.614,6.614,6.614,6.614,6.652,6.652,6.69,6.69,6.69,6.729,6.729,6.729,6.768,6.808,6.848,6.848,6.888,6.929,6.929,6.971,6.971,7.055,7.055,7.055,7.055,7.055,7.055,6.971,6.971,6.929,6.888,6.808,6.577,0,0,0,4.583,4.312,4.264,4.233,4.203,4.158,4.085,4.07,4.056,4.014,3.973,3.946,3.92,3.893,3.88,3.868,3.855,3.829,3.804,3.804,3.792,3.804,3.804,3.804,3.804,3.817,3.817,3.829,3.829,3.829,3.829,3.829,3.817,3.817,3.804,3.792,3.767,3.731,3.672,3.649,3.582,3.549,3.506,3.496,3.485,3.465,0,3.475,3.485,3.485,3.496,3.496,3.506,3.528,3.528,3.538,3.549,3.56,0,3.582,3.593,3.627,3.649,3.661,3.672,3.707,3.731,3.731,3.743,3.743,3.755,3.767,3.767,3.78,3.792,3.804,3.804,3.804,3.817,3.817,3.829,3.829,3.842,3.855,3.855,3.987,4.264,0,0,0,5.084,5.543,5.735,5.85,5.909,5.909,5.909,5.85,5.85,5.821,5.792,5.763,5.763,5.763,5.735,5.735,5.735,5.735,5.763,5.792,5.792,5.821,5.821,5.85,5.909,5.909,5.909,5.939,5.939,5.909,5.939,5.939,5.939,5.939,5.939,5.909,5.909,5.85,5.85,5.821,5.792,5.763,5.707,5.679,5.651,5.651,5.597,5.597,5.543,5.517,5.517,5.491,5.491,5.465,5.465,5.465,5.465,5.465,5.491,5.491,5.491,5.491,5.517,5.517,5.517,5.517,5.517,5.517,5.543,5.543,5.543,5.517,5.491,5.465,5.44,5.415,5.389,5.34,5.316,5.268,5.268,5.244,5.22,5.22,5.244,5.244,5.244,5.268,5.268,5.34,5.415,5.44,5.465,5.517,5.543,5.57,5.597,5.651,5.679,5.707,5.763,5.821,5.909,5.939,6.001,6.001,5.939,5.909,5.821,5.763,5.679,5.597,5.57,5.543,5.465,5.389,5.268,5.151,5.04,4.954,4.912,4.891,4.83,4.81,4.791,4.732,4.694,4.638,4.601,4.53,4.477,4.41,4.426,4.376,4.376,4.36,4.36,4.376,0,4.376,4.328,4.328,4.328,0,0,0,0,0,0,0,0,0,0,0,0,0,0,7.098,7.055,6.971,6.888,6.888,6.848,6.808,6.729,6.69,6.652,6.614,6.54,6.467,6.001,5.707,5.597,5.415,5.174,5.268,0,4.81,4.771,4.752,4.752,4.713,0,0,4.694,4.694,4.638,4.601,4.583,4.565,4.53,4.512,4.46,4.426,4.393,4.376,4.36,4.328,4.312,4.296,4.28,4.249,4.249,4.233,4.218,4.203,4.203,4.218,4.218,4.233,4.233,4.249,4.249,4.249,4.249,4.249,4.249,4.249,4.249,4.249,4.233,4.218,4.218,4.203,4.203,4.203,4.203,4.188,4.188,4.188,4.173,4.158,4.158,4.128,4.114,4.085,4.07,4.056,4.028,3.973,3.946,3.933,3.92,3.92,3.906,3.893,3.893,3.88,3.88,3.868,3.868,3.868,3.855,3.855,3.855,3.829,3.829,3.817,3.817,3.804,3.804,3.804,3.804,3.792,3.804,3.792,3.792,3.78,3.767,3.755,3.755,3.755,3.743,3.731,3.731,3.731,3.707,3.696,3.672,3.649,3.627,3.627,3.627,3.627
