0.0,0.0,0.0,0.0,0.0,0.0,0.0,5.465,5.465,5.465,5.465,5.465,5.465,5.465,5.465,5.465,5.465,5.44,5.44,5.415,5.389,5.389,5.389,5.34,5.34,5.34,5.34,5.389,5.389,5.389,5.389,5.389,5.389,5.415,5.415,5.389,5.389,5.389,5.389,5.389,5.34,5.389,5.389,5.389,5.389,5.415,5.415,5.44,5.465,5.491,5.491,5.517,5.543,5.543,5.543,5.57,5.57,5.57,5.597,5.597,5.597,5.597,5.597,5.624,5.624,5.651,5.651,5.651,5.651,5.651,5.651,5.679,5.679,5.679,5.679,5.679,5.679,5.679,5.679,5.651,5.651,5.624,5.597,5.597,5.57,5.57,5.543,5.543,5.543,5.543,5.543,5.543,5.543,5.543,5.543,5.57,5.57,5.57,5.57,5.57,5.57,5.597,5.597,5.597,5.597,5.597,5.597,5.597,5.597,5.597,5.597,5.597,5.597,5.597,5.597,5.597,5.597,5.597,5.57,5.57,5.57,5.57,5.57,5.543,5.543,5.543,5.543,5.543,5.543,5.57,5.57,5.57,5.57,5.57,5.57,5.57,5.57,5.57,5.57,5.57,5.57,5.57,5.57,5.57,5.57,5.57,5.57,5.57,5.57,5.57,5.57,5.57,5.543,5.543,5.543,5.543,5.543,5.543,5.517,5.517,5.491,5.491,5.491,5.491,5.491,5.491,5.491,5.491,5.491,5.491,5.517,5.517,5.517,5.543,5.543,5.543,5.543,5.543,5.543,5.543,5.543,5.543,5.543,5.543,5.543,5.543,5.543,5.517,5.517,5.517,5.517,5.517,5.517,5.491,5.491,5.491,5.465,5.465,5.465,5.44,5.44,5.44,5.44,5.44,5.44,5.44,5.44,5.44,5.44,5.465,5.465,5.465,5.465,5.465,5.491,5.465,5.465,5.465,5.465,5.44,5.44,5.44,5.415,5.415,5.415,5.415,5.389,5.389,5.389,5.389,5.389,5.389,5.415,5.415,5.44,5.44,5.44,5.465,5.465,5.491,5.491,5.517,5.517,5.543,5.543,5.543,5.543,5.543,5.543,5.517,5.517,5.517,5.491,5.465,5.44,5.415,5.415,5.34,5.34,5.316,5.268,5.268,5.268,5.268,5.268,5.268,5.268,5.268,5.244,5.244,5.22,5.22,5.22,5.22,5.22,5.22,5.22,5.22,5.22,5.22,5.244,5.244,5.268,5.316,5.34,5.389,5.415,5.415,5.44,5.465,5.465,5.465,5.465,5.465,5.465,5.465,5.465,5.44,5.44,5.44,5.415,5.415,5.415,5.415,5.415,5.389,5.389,5.389,5.34,5.34,5.34,5.268,5.268,5.268,5.244,5.244,5.244,5.244,5.244,5.244,5.244,5.268,5.268,5.268,5.316,5.316,5.316,5.316,5.316,5.34,5.34,5.389,5.389,5.389,5.389,5.389,5.389,5.389,5.34,5.316,5.268,5.244,5.22,5.174,5.174,5.151,5.106,5.084,5.106,5.106,5.151,5.174,5.22,5.244,5.268,5.34,5.34,5.389,5.389,5.389,5.34,5.34,5.316,5.244,5.22,5.174,5.151,5.106,5.084,5.084,5.04,5.04,5.084,5.084,5.084,5.106,5.151,5.174,5.22,5.268,5.316,5.34,5.34,5.389,5.389,5.389,5.34,5.34,5.316,5.316,5.268,5.244,5.22,5.174,5.151,5.106,5.084,5.084,5.018,5.018,5.018,5.04,5.04,5.04,5.084,5.084,5.084,5.084,5.084,5.106,5.106,5.106,5.106,5.151,5.151,5.151,5.174,5.174,5.22,5.174,5.22,5.22,5.22,5.22,5.244,5.244,5.244,5.268,5.268,5.268,5.268,5.316,5.316,5.34,5.34,5.389,5.389,5.415,5.415,5.415,5.415,5.415,5.415,5.415,5.389,5.34,5.34,5.34,5.316,5.316,5.316,5.268,5.268,5.268,5.268,5.268,5.268,5.268,5.268,5.316,5.316,5.316,5.316,5.34,5.316,5.316,5.268,5.244,5.22,5.151,5.084,4.996,4.933,4.891,4.851,4.81,4.771,4.732,4.657,4.638,4.601,4.638,4.657,4.6754999999999995,4.694,4.732,4.771,4.81,4.83,4.851,4.891,4.912,4.912,4.954,4.996,5.018,5.04,5.084,5.106,5.106,5.151,5.151,5.174,5.22,5.22,5.22,5.22,5.244,5.244,5.244,5.22,5.22,5.174,5.151,5.151,5.106,5.084,5.084,5.04,5.04,5.018,4.996,4.996,4.975,4.954,4.933,4.933,4.912,4.912,4.891,4.891,4.851,4.83,4.81,4.791,4.752,4.694,4.601,4.53,4.46,4.41,4.376,4.36,4.344,4.344,4.328,4.312,4.328,4.328
0.0,0.0,0.0,0.0,0.0,0.0,0.0,5.491,5.491,5.491,5.491,5.491,5.465,5.465,5.465,5.465,5.465,5.44,5.44,5.44,5.415,5.415,5.389,5.34,5.3709999999999996,5.389,5.389,5.389,5.415,5.415,5.44,5.44,5.44,5.44,5.44,5.44,5.44,5.415,5.415,5.415,5.415,5.415,5.415,5.415,5.44,5.44,5.465,5.465,5.491,5.491,5.517,5.543,5.543,5.543,5.57,5.57,5.57,5.57,5.597,5.597,5.597,5.624,5.624,5.624,5.651,5.651,5.651,5.651,5.651,5.651,5.679,5.679,5.679,5.707,5.707,5.707,5.707,5.707,5.679,5.679,5.651,5.624,5.597,5.597,5.57,5.57,5.57,5.543,5.543,5.543,5.543,5.543,5.543,5.543,5.543,5.543,5.543,5.543,5.543,5.57,5.57,5.57,5.57,5.57,5.57,5.57,5.57,5.57,5.57,5.57,5.57,5.57,5.57,5.57,5.57,5.57,5.57,5.57,5.543,5.543,5.543,5.543,5.543,5.543,5.543,5.543,5.543,5.543,5.543,5.543,5.543,5.543,5.57,5.57,5.57,5.57,5.57,5.57,5.57,5.57,5.57,5.57,5.57,5.57,5.57,5.57,5.57,5.57,5.57,5.57,5.543,5.543,5.543,5.543,5.543,5.543,5.543,5.543,5.517,5.517,5.517,5.491,5.491,5.491,5.491,5.491,5.491,5.491,5.491,5.491,5.517,5.517,5.517,5.543,5.543,5.543,5.543,5.543,5.543,5.543,5.543,5.543,5.543,5.543,5.543,5.543,5.517,5.517,5.517,5.517,5.517,5.517,5.517,5.491,5.491,5.491,5.465,5.465,5.465,5.465,5.465,5.465,5.465,5.465,5.465,5.465,5.465,5.465,5.465,5.465,5.465,5.465,5.465,5.465,5.465,5.465,5.465,5.44,5.44,5.44,5.415,5.415,5.389,5.389,5.389,5.389,5.389,5.389,5.389,5.389,5.389,5.389,5.389,5.389,5.415,5.44,5.44,5.44,5.465,5.465,5.491,5.491,5.517,5.517,5.543,5.543,5.543,5.543,5.543,5.543,5.543,5.517,5.517,5.491,5.465,5.44,5.415,5.415,5.34,5.34,5.34,5.316,5.316,5.316,5.316,5.268,5.268,5.268,5.268,5.268,5.268,5.244,5.244,5.244,5.244,5.22,5.22,5.22,5.22,5.244,5.244,5.244,5.268,5.316,5.34,5.389,5.415,5.415,5.44,5.465,5.465,5.465,5.465,5.465,5.465,5.465,5.465,5.44,5.44,5.44,5.44,5.44,5.44,5.44,5.415,5.415,5.415,5.415,5.389,5.389,5.34,5.34,5.268,5.268,5.268,5.244,5.244,5.244,5.244,5.268,5.268,5.268,5.268,5.268,5.316,5.316,5.316,5.316,5.316,5.316,5.34,5.34,5.389,5.389,5.389,5.389,5.34,5.316,5.316,5.268,5.268,5.22,5.174,5.174,5.151,5.106,5.084,5.084,5.084,5.106,5.106,5.151,5.174,5.244,5.268,5.316,5.34,5.34,5.34,5.34,5.34,5.316,5.268,5.244,5.22,5.174,5.151,5.106,5.106,5.084,5.084,5.084,5.084,5.084,5.106,5.106,5.151,5.174,5.22,5.244,5.316,5.316,5.34,5.34,5.34,5.34,5.316,5.268,5.244,5.244,5.22,5.22,5.151,5.151,5.106,5.106,5.084,5.084,5.084,5.084,5.084,5.084,5.084,5.084,5.106,5.106,5.106,5.106,5.106,5.106,5.151,5.151,5.151,5.151,5.151,5.174,5.174,5.174,5.174,5.22,5.22,5.22,5.22,5.244,5.244,5.244,5.244,5.244,5.268,5.268,5.268,5.316,5.316,5.316,5.34,5.34,5.389,5.389,5.44,5.415,5.415,5.415,5.415,5.44,5.415,5.415,5.389,5.389,5.389,5.34,5.34,5.316,5.316,5.268,5.268,5.268,5.268,5.268,5.316,5.316,5.316,5.316,5.34,5.34,5.34,5.34,5.316,5.268,5.244,5.22,5.151,5.04,4.975,4.912,4.891,4.83,4.81,4.752,4.694,4.657,4.638,4.638,4.638,4.657,4.694,4.732,4.771,4.81,4.83,4.851,4.871,4.891,4.912,4.933,4.975,4.996,5.04,5.084,5.084,5.106,5.151,5.151,5.174,5.2085,5.22,5.22,5.244,5.244,5.244,5.244,5.22,5.22,5.174,5.151,5.151,5.106,5.084,5.084,5.04,5.018,5.018,4.996,4.996,4.975,4.975,4.954,4.933,4.912,4.912,4.891,4.851,4.851,4.81,4.81,4.771,4.732,4.657,4.601,4.53,4.477,4.426,4.41,4.393,4.376,4.36,4.36,4.344,4.36,4.36
0.0,0.0,0.0,0.0,0.0,0.0,0.0,5.517,5.517,5.517,5.491,5.517,5.517,5.517,5.517,5.491,5.491,5.465,5.465,5.44,5.44,5.44,5.415,5.389,5.415,5.389,5.415,5.415,5.44,5.465,5.465,5.465,5.491,5.491,5.465,5.465,5.465,5.465,5.465,5.465,5.465,5.465,5.465,5.465,5.491,5.491,5.491,5.517,5.517,5.543,5.543,5.543,5.543,5.57,5.57,5.57,5.57,5.597,5.597,5.597,5.597,5.624,5.624,5.624,5.651,5.651,5.651,5.651,5.679,5.679,5.679,5.679,5.707,5.707,5.735,5.735,5.707,5.707,5.707,5.679,5.679,5.651,5.624,5.597,5.597,5.57,5.57,5.543,5.543,5.543,5.543,5.543,5.543,5.543,5.517,5.517,5.517,5.517,5.543,5.543,5.543,5.543,5.543,5.543,5.543,5.543,5.57,5.57,5.57,5.57,5.57,5.543,5.57,5.57,5.57,5.543,5.543,5.543,5.543,5.543,5.543,5.543,5.543,5.517,5.517,5.517,5.517,5.517,5.543,5.543,5.543,5.543,5.543,5.57,5.57,5.57,5.57,5.57,5.57,5.57,5.57,5.57,5.57,5.57,5.57,5.57,5.57,5.57,5.543,5.543,5.543,5.543,5.543,5.543,5.543,5.543,5.543,5.543,5.517,5.517,5.517,5.517,5.517,5.491,5.491,5.491,5.491,5.491,5.491,5.491,5.517,5.517,5.517,5.517,5.543,5.543,5.543,5.543,5.543,5.543,5.543,5.543,5.543,5.543,5.517,5.517,5.517,5.517,5.517,5.517,5.517,5.517,5.491,5.491,5.491,5.491,5.491,5.491,5.465,5.465,5.465,5.465,5.465,5.465,5.465,5.465,5.465,5.465,5.465,5.465,5.465,5.465,5.465,5.465,5.465,5.465,5.465,5.44,5.44,5.415,5.415,5.389,5.389,5.389,5.389,5.389,5.34,5.34,5.34,5.34,5.389,5.389,5.389,5.389,5.415,5.415,5.44,5.44,5.44,5.465,5.465,5.491,5.491,5.517,5.517,5.543,5.543,5.543,5.543,5.543,5.517,5.517,5.517,5.491,5.465,5.465,5.44,5.415,5.415,5.389,5.34,5.34,5.34,5.316,5.316,5.316,5.316,5.316,5.316,5.316,5.316,5.268,5.268,5.268,5.268,5.244,5.244,5.244,5.244,5.244,5.268,5.268,5.316,5.34,5.34,5.389,5.415,5.415,5.44,5.465,5.465,5.465,5.465,5.465,5.465,5.465,5.465,5.465,5.465,5.44,5.44,5.44,5.44,5.44,5.44,5.44,5.44,5.415,5.415,5.415,5.389,5.34,5.316,5.316,5.316,5.268,5.268,5.268,5.268,5.268,5.268,5.268,5.316,5.316,5.316,5.316,5.316,5.316,5.316,5.34,5.34,5.34,5.389,5.389,5.389,5.34,5.34,5.316,5.316,5.268,5.268,5.22,5.174,5.174,5.151,5.106,5.084,5.084,5.084,5.084,5.106,5.151,5.174,5.22,5.244,5.268,5.316,5.34,5.34,5.34,5.316,5.316,5.268,5.244,5.22,5.174,5.151,5.151,5.106,5.106,5.084,5.084,5.106,5.106,5.151,5.151,5.174,5.22,5.22,5.244,5.268,5.316,5.316,5.316,5.268,5.268,5.244,5.244,5.22,5.174,5.151,5.151,5.106,5.106,5.106,5.084,5.084,5.106,5.106,5.084,5.084,5.106,5.106,5.106,5.13425,5.151,5.151,5.151,5.151,5.151,5.151,5.174,5.174,5.174,5.174,5.174,5.174,5.22,5.22,5.22,5.244,5.244,5.244,5.244,5.244,5.244,5.268,5.268,5.268,5.268,5.268,5.268,5.316,5.316,5.34,5.34,5.389,5.415,5.415,5.44,5.44,5.44,5.44,5.44,5.44,5.44,5.44,5.415,5.415,5.415,5.34,5.34,5.316,5.316,5.268,5.268,5.268,5.268,5.316,5.316,5.316,5.34,5.389,5.389,5.389,5.389,5.389,5.34,5.316,5.268,5.22,5.151,5.04,4.954,4.912,4.851,4.83,4.791,4.732,4.694,4.657,4.638,4.657,4.657,4.694,4.732,4.752,4.791,4.81,4.83,4.851,4.891,4.891,4.912,4.933,4.975,4.996,5.04,5.084,5.084,5.106,5.151,5.174,5.22,5.22,5.244,5.244,5.244,5.244,5.244,5.244,5.22,5.174,5.174,5.151,5.106,5.106,5.084,5.04,5.018,4.996,4.996,4.996,4.975,4.975,4.954,4.933,4.912,4.891,4.891,4.851,4.83,4.81,4.752,4.732,4.694,4.638,4.583,4.53,4.477,4.426,4.426,4.41,4.393,4.393,4.376,4.376,4.376,4.376
0.0,0.0,0.0,0.0,0.0,0.0,5.543,5.543,5.543,5.543,5.543,5.543,5.543,5.517,5.517,5.517,5.517,5.491,5.491,5.465,5.44,5.44,5.44,5.415,5.415,5.415,5.44,5.44,5.465,5.465,5.491,5.491,5.517,5.517,5.517,5.517,5.491,5.491,5.491,5.491,5.491,5.491,5.517,5.517,5.517,5.517,5.543,5.543,5.543,5.543,5.543,5.57,5.57,5.57,5.57,5.597,5.597,5.597,5.597,5.597,5.597,5.624,5.624,5.624,5.651,5.651,5.651,5.651,5.679,5.679,5.679,5.707,5.707,5.735,5.735,5.735,5.735,5.735,5.707,5.707,5.651,5.651,5.624,5.597,5.597,5.57,5.57,5.543,5.543,5.543,5.517,5.517,5.517,5.517,5.517,5.491,5.517,5.517,5.517,5.517,5.517,5.517,5.517,5.543,5.543,5.543,5.543,5.543,5.543,5.543,5.543,5.543,5.543,5.543,5.543,5.543,5.543,5.517,5.517,5.517,5.517,5.517,5.517,5.517,5.491,5.517,5.517,5.517,5.517,5.517,5.543,5.543,5.543,5.543,5.543,5.543,5.543,5.57,5.57,5.57,5.57,5.543,5.543,5.543,5.543,5.543,5.543,5.543,5.543,5.543,5.543,5.543,5.543,5.543,5.543,5.543,5.543,5.517,5.517,5.517,5.517,5.517,5.517,5.517,5.517,5.517,5.517,5.491,5.491,5.491,5.491,5.517,5.517,5.517,5.517,5.517,5.517,5.517,5.517,5.517,5.517,5.517,5.517,5.517,5.517,5.517,5.517,5.517,5.491,5.517,5.517,5.517,5.517,5.517,5.491,5.491,5.491,5.491,5.491,5.491,5.491,5.491,5.491,5.491,5.491,5.491,5.465,5.465,5.465,5.465,5.465,5.465,5.465,5.465,5.465,5.465,5.465,5.44,5.44,5.415,5.415,5.389,5.389,5.389,5.389,5.389,5.389,5.34,5.389,5.34,5.34,5.389,5.389,5.389,5.389,5.415,5.415,5.415,5.44,5.44,5.44,5.465,5.491,5.491,5.491,5.517,5.517,5.517,5.543,5.543,5.517,5.517,5.517,5.491,5.465,5.465,5.465,5.44,5.415,5.389,5.389,5.34,5.34,5.34,5.34,5.34,5.34,5.34,5.34,5.34,5.316,5.316,5.316,5.316,5.316,5.316,5.316,5.316,5.316,5.316,5.316,5.316,5.34,5.34,5.389,5.415,5.415,5.44,5.465,5.465,5.465,5.465,5.465,5.465,5.465,5.465,5.465,5.465,5.465,5.465,5.44,5.44,5.465,5.465,5.465,5.44,5.44,5.44,5.44,5.44,5.415,5.415,5.389,5.34,5.34,5.34,5.34,5.316,5.316,5.316,5.316,5.316,5.316,5.316,5.316,5.316,5.34,5.34,5.34,5.34,5.34,5.389,5.389,5.389,5.389,5.34,5.34,5.316,5.316,5.268,5.268,5.22,5.174,5.174,5.151,5.151,5.106,5.106,5.106,5.106,5.106,5.151,5.174,5.22,5.244,5.268,5.316,5.316,5.34,5.34,5.316,5.316,5.268,5.244,5.22,5.22,5.174,5.151,5.151,5.151,5.151,5.151,5.151,5.151,5.151,5.174,5.174,5.22,5.22,5.22,5.244,5.268,5.268,5.244,5.244,5.244,5.22,5.174,5.151,5.151,5.151,5.106,5.084,5.084,5.084,5.084,5.084,5.084,5.106,5.106,5.106,5.106,5.151,5.151,5.174,5.174,5.174,5.174,5.174,5.174,5.174,5.174,5.174,5.174,5.174,5.174,5.22,5.22,5.22,5.22,5.22,5.244,5.244,5.268,5.268,5.268,5.268,5.268,5.268,5.268,5.268,5.268,5.316,5.316,5.34,5.34,5.415,5.44,5.44,5.465,5.465,5.465,5.465,5.465,5.465,5.465,5.465,5.465,5.44,5.44,5.415,5.389,5.34,5.316,5.316,5.268,5.268,5.268,5.316,5.316,5.34,5.34,5.389,5.389,5.415,5.389,5.415,5.389,5.34,5.316,5.244,5.174,5.106,5.018,4.954,4.891,4.851,4.81,4.771,4.732,4.694,4.694,4.694,4.694,4.713,4.732,4.752,4.791,4.81,4.83,4.851,4.851,4.891,4.912,4.933,4.954,4.975,4.996,5.04,5.084,5.106,5.151,5.174,5.174,5.22,5.244,5.244,5.268,5.244,5.244,5.244,5.22,5.22,5.174,5.151,5.106,5.084,5.04,5.04,5.018,4.996,4.975,4.975,4.954,4.954,4.933,4.912,4.891,4.871,4.851,4.81,4.791,4.732,4.713,4.657,4.601,4.583,4.53,4.512,4.477,4.426,4.426,4.426,4.426,4.41,4.41,4.393,4.393,4.393
0.0,0.0,0.0,0.0,0.0,0.0,5.543,5.543,5.543,5.543,5.543,5.543,5.543,5.543,5.543,5.543,5.543,5.517,5.517,5.491,5.491,5.465,5.465,5.44,5.44,5.44,5.44,5.465,5.465,5.491,5.517,5.517,5.543,5.543,5.543,5.543,5.543,5.543,5.543,5.543,5.543,5.543,5.543,5.543,5.543,5.543,5.543,5.543,5.57,5.57,5.57,5.57,5.57,5.597,5.597,5.597,5.597,5.597,5.597,5.597,5.597,5.597,5.624,5.624,5.624,5.651,5.651,5.651,5.679,5.679,5.707,5.707,5.707,5.735,5.735,5.735,5.735,5.735,5.707,5.707,5.679,5.651,5.624,5.597,5.597,5.57,5.57,5.543,5.543,5.543,5.543,5.517,5.517,5.517,5.517,5.491,5.491,5.491,5.517,5.517,5.517,5.491,5.491,5.491,5.517,5.517,5.517,5.517,5.517,5.517,5.517,5.543,5.517,5.517,5.543,5.543,5.517,5.517,5.517,5.517,5.517,5.517,5.491,5.491,5.491,5.491,5.517,5.517,5.517,5.517,5.517,5.517,5.543,5.543,5.543,5.543,5.543,5.543,5.543,5.543,5.543,5.543,5.543,5.543,5.543,5.543,5.543,5.543,5.543,5.543,5.543,5.543,5.543,5.543,5.543,5.543,5.543,5.517,5.517,5.517,5.543,5.517,5.517,5.517,5.517,5.517,5.517,5.517,5.517,5.491,5.491,5.491,5.491,5.517,5.517,5.517,5.517,5.517,5.517,5.517,5.517,5.491,5.491,5.491,5.491,5.491,5.491,5.491,5.491,5.491,5.491,5.491,5.491,5.491,5.491,5.491,5.491,5.491,5.517,5.517,5.517,5.491,5.491,5.491,5.491,5.491,5.491,5.465,5.44,5.44,5.44,5.465,5.465,5.465,5.465,5.465,5.465,5.44,5.44,5.415,5.415,5.415,5.415,5.415,5.415,5.389,5.389,5.389,5.389,5.389,5.34,5.34,5.34,5.389,5.389,5.389,5.415,5.415,5.415,5.415,5.44,5.44,5.465,5.465,5.491,5.491,5.491,5.517,5.517,5.517,5.517,5.517,5.517,5.491,5.491,5.465,5.465,5.44,5.415,5.415,5.389,5.389,5.389,5.389,5.389,5.389,5.389,5.389,5.389,5.389,5.389,5.389,5.389,5.389,5.389,5.389,5.389,5.389,5.389,5.389,5.389,5.389,5.389,5.415,5.415,5.44,5.44,5.465,5.465,5.465,5.465,5.465,5.491,5.491,5.465,5.465,5.465,5.465,5.465,5.465,5.465,5.465,5.465,5.465,5.465,5.465,5.465,5.465,5.465,5.465,5.44,5.44,5.415,5.415,5.415,5.389,5.389,5.34,5.34,5.34,5.34,5.34,5.34,5.34,5.34,5.34,5.34,5.34,5.389,5.389,5.389,5.389,5.389,5.389,5.389,5.389,5.34,5.316,5.316,5.268,5.268,5.244,5.22,5.174,5.174,5.151,5.151,5.151,5.106,5.106,5.151,5.151,5.174,5.244,5.244,5.268,5.316,5.316,5.34,5.316,5.316,5.316,5.268,5.268,5.244,5.22,5.22,5.174,5.174,5.174,5.174,5.151,5.174,5.174,5.174,5.174,5.22,5.22,5.22,5.22,5.244,5.244,5.22,5.22,5.174,5.174,5.174,5.151,5.106,5.106,5.084,5.084,5.084,5.084,5.084,5.084,5.084,5.084,5.106,5.106,5.151,5.151,5.174,5.174,5.174,5.22,5.22,5.22,5.22,5.22,5.22,5.22,5.22,5.22,5.22,5.174,5.22,5.22,5.22,5.22,5.22,5.244,5.244,5.268,5.268,5.268,5.268,5.268,5.268,5.268,5.268,5.316,5.34,5.34,5.415,5.465,5.491,5.517,5.543,5.543,5.543,5.543,5.543,5.543,5.517,5.517,5.491,5.491,5.491,5.465,5.465,5.415,5.389,5.389,5.34,5.316,5.268,5.268,5.316,5.316,5.34,5.389,5.389,5.415,5.415,5.415,5.415,5.415,5.389,5.34,5.316,5.244,5.151,5.084,4.996,4.933,4.891,4.851,4.81,4.791,4.752,4.732,4.732,4.713,4.732,4.732,4.771,4.791,4.81,4.81,4.83,4.851,4.871,4.891,4.922499999999999,4.954,4.975,5.00175,5.04,5.061999999999999,5.084,5.106,5.151,5.174,5.22,5.244,5.268,5.268,5.268,5.244,5.244,5.244,5.22,5.174,5.151,5.151,5.084,5.04,5.018,5.018,4.996,4.975,4.954,4.954,4.933,4.933,4.912,4.891,4.871,4.851,4.81,4.752,4.713,4.657,4.601,4.583,4.565,4.53,4.512,4.46,4.46,4.46,4.46,4.46,4.46,4.426,4.426,4.426,4.41
0.0,0.0,0.0,0.0,0.0,0.0,0.0,5.57,5.57,5.57,5.57,5.57,5.57,5.57,5.543,5.543,5.543,5.543,5.517,5.517,5.491,5.491,5.465,5.465,5.465,5.465,5.465,5.465,5.491,5.517,5.543,5.543,5.543,5.543,5.543,5.543,5.543,5.57,5.543,5.543,5.543,5.543,5.543,5.543,5.543,5.57,5.57,5.57,5.57,5.57,5.57,5.57,5.57,5.597,5.597,5.597,5.597,5.597,5.597,5.597,5.597,5.624,5.624,5.624,5.651,5.651,5.651,5.679,5.679,5.679,5.679,5.707,5.707,5.735,5.735,5.735,5.707,5.707,5.707,5.679,5.651,5.651,5.624,5.624,5.597,5.57,5.57,5.57,5.543,5.543,5.543,5.543,5.543,5.517,5.517,5.517,5.517,5.491,5.517,5.517,5.517,5.491,5.491,5.491,5.491,5.491,5.491,5.491,5.491,5.491,5.491,5.517,5.517,5.517,5.517,5.517,5.517,5.491,5.517,5.517,5.491,5.491,5.491,5.491,5.491,5.491,5.491,5.491,5.491,5.491,5.517,5.517,5.517,5.517,5.517,5.543,5.543,5.543,5.543,5.543,5.543,5.543,5.543,5.543,5.543,5.543,5.543,5.543,5.543,5.517,5.517,5.517,5.543,5.543,5.543,5.543,5.543,5.543,5.517,5.517,5.517,5.517,5.517,5.517,5.517,5.517,5.517,5.517,5.517,5.491,5.491,5.491,5.491,5.491,5.491,5.491,5.491,5.491,5.491,5.491,5.491,5.491,5.491,5.465,5.465,5.465,5.465,5.491,5.491,5.491,5.491,5.491,5.491,5.491,5.517,5.517,5.517,5.517,5.517,5.517,5.517,5.517,5.491,5.491,5.491,5.491,5.465,5.44,5.44,5.44,5.44,5.44,5.44,5.44,5.465,5.465,5.465,5.465,5.44,5.44,5.415,5.415,5.415,5.415,5.415,5.415,5.389,5.389,5.389,5.389,5.34,5.34,5.34,5.34,5.34,5.389,5.389,5.389,5.389,5.389,5.389,5.415,5.44,5.44,5.465,5.465,5.491,5.491,5.491,5.517,5.517,5.517,5.517,5.491,5.491,5.465,5.465,5.44,5.44,5.415,5.415,5.415,5.415,5.415,5.415,5.415,5.415,5.415,5.44,5.44,5.44,5.44,5.44,5.44,5.44,5.44,5.44,5.44,5.44,5.44,5.44,5.44,5.44,5.44,5.44,5.465,5.465,5.465,5.491,5.491,5.491,5.491,5.491,5.465,5.465,5.465,5.465,5.465,5.465,5.465,5.465,5.465,5.465,5.465,5.465,5.465,5.465,5.465,5.465,5.465,5.465,5.44,5.44,5.44,5.44,5.415,5.415,5.389,5.389,5.389,5.389,5.389,5.389,5.389,5.389,5.389,5.389,5.389,5.389,5.389,5.389,5.389,5.389,5.389,5.389,5.389,5.389,5.34,5.316,5.268,5.268,5.244,5.244,5.22,5.174,5.174,5.174,5.174,5.174,5.174,5.174,5.22,5.244,5.244,5.268,5.268,5.316,5.316,5.34,5.34,5.316,5.316,5.316,5.268,5.268,5.244,5.22,5.22,5.22,5.22,5.174,5.174,5.174,5.174,5.22,5.22,5.22,5.22,5.22,5.22,5.244,5.244,5.22,5.22,5.22,5.174,5.174,5.151,5.106,5.106,5.106,5.106,5.084,5.084,5.084,5.106,5.106,5.106,5.106,5.106,5.151,5.174,5.174,5.22,5.22,5.244,5.244,5.244,5.244,5.244,5.244,5.244,5.22,5.22,5.22,5.244,5.22,5.244,5.244,5.244,5.244,5.244,5.244,5.268,5.268,5.268,5.268,5.316,5.316,5.316,5.34,5.44,5.465,5.517,5.57,5.597,5.651,5.651,5.679,5.679,5.679,5.651,5.651,5.597,5.597,5.57,5.57,5.543,5.543,5.543,5.491,5.465,5.44,5.415,5.34,5.316,5.268,5.268,5.268,5.316,5.34,5.389,5.389,5.415,5.415,5.415,5.44,5.415,5.415,5.415,5.34,5.316,5.22,5.151,5.04,4.975,4.912,4.891,4.851,4.83,4.81,4.791,4.771,4.771,4.752,4.771,4.771,4.791,4.81,4.81,4.83,4.83,4.871,4.891,4.912,4.912,4.954,4.996,5.018,5.051,5.084,5.106,5.151,5.174,5.22,5.22,5.268,5.268,5.268,5.268,5.268,5.244,5.244,5.22,5.174,5.151,5.084,5.04,5.018,5.018,4.996,4.975,4.954,4.933,4.912,4.912,4.912,4.891,4.851,4.791,4.752,4.694,4.638,4.583,4.53,4.512,4.477,4.477,4.477,4.46,4.46,4.46,4.477,4.477,4.46,4.46,4.426,4.426,4.41
0.0,0.0,0.0,0.0,0.0,0.0,0.0,5.597,5.597,5.597,5.57,5.57,5.57,5.57,5.57,5.57,5.57,5.543,5.543,5.543,5.517,5.517,5.491,5.491,5.491,5.491,5.491,5.517,5.517,5.543,5.543,5.57,5.57,5.57,5.57,5.57,5.57,5.57,5.57,5.57,5.57,5.57,5.57,5.57,5.57,5.57,5.57,5.57,5.57,5.57,5.597,5.597,5.597,5.597,5.597,5.597,5.597,5.597,5.597,5.597,5.624,5.597,5.624,5.624,5.651,5.651,5.651,5.651,5.679,5.679,5.679,5.679,5.707,5.707,5.707,5.707,5.707,5.707,5.679,5.679,5.651,5.651,5.651,5.624,5.597,5.597,5.57,5.57,5.57,5.57,5.57,5.543,5.543,5.543,5.543,5.543,5.543,5.517,5.517,5.517,5.517,5.491,5.491,5.491,5.491,5.465,5.465,5.465,5.491,5.465,5.465,5.491,5.491,5.491,5.491,5.491,5.491,5.491,5.491,5.491,5.491,5.491,5.491,5.491,5.491,5.491,5.491,5.491,5.491,5.491,5.491,5.491,5.491,5.517,5.517,5.517,5.517,5.517,5.517,5.517,5.517,5.517,5.517,5.517,5.517,5.517,5.517,5.517,5.517,5.517,5.517,5.517,5.543,5.543,5.543,5.543,5.517,5.517,5.517,5.517,5.517,5.517,5.517,5.517,5.517,5.517,5.517,5.517,5.491,5.491,5.491,5.491,5.491,5.491,5.491,5.491,5.491,5.491,5.491,5.465,5.465,5.465,5.465,5.465,5.465,5.465,5.465,5.465,5.465,5.491,5.491,5.491,5.491,5.491,5.517,5.517,5.517,5.517,5.517,5.517,5.517,5.517,5.517,5.517,5.491,5.491,5.465,5.44,5.44,5.44,5.44,5.44,5.44,5.44,5.44,5.44,5.44,5.44,5.44,5.44,5.415,5.415,5.415,5.415,5.415,5.415,5.389,5.389,5.389,5.34,5.34,5.316,5.316,5.316,5.316,5.316,5.316,5.316,5.316,5.316,5.34,5.389,5.389,5.415,5.44,5.44,5.465,5.465,5.491,5.491,5.491,5.491,5.491,5.491,5.491,5.465,5.465,5.465,5.44,5.44,5.415,5.415,5.415,5.415,5.415,5.44,5.44,5.465,5.465,5.465,5.465,5.491,5.491,5.491,5.491,5.491,5.491,5.491,5.491,5.465,5.465,5.465,5.491,5.491,5.491,5.491,5.491,5.491,5.491,5.491,5.491,5.491,5.465,5.465,5.465,5.465,5.465,5.465,5.44,5.44,5.44,5.44,5.465,5.465,5.465,5.465,5.465,5.465,5.465,5.465,5.465,5.44,5.44,5.44,5.44,5.44,5.415,5.415,5.415,5.415,5.415,5.415,5.415,5.415,5.415,5.415,5.415,5.415,5.415,5.415,5.415,5.415,5.415,5.415,5.415,5.415,5.389,5.389,5.34,5.34,5.316,5.268,5.268,5.244,5.244,5.244,5.22,5.22,5.22,5.22,5.22,5.244,5.244,5.268,5.268,5.316,5.316,5.34,5.34,5.34,5.34,5.316,5.316,5.316,5.268,5.268,5.244,5.244,5.244,5.22,5.22,5.22,5.22,5.22,5.22,5.22,5.22,5.22,5.22,5.22,5.22,5.22,5.22,5.22,5.22,5.22,5.22,5.22,5.174,5.174,5.174,5.106,5.106,5.106,5.106,5.106,5.106,5.151,5.151,5.151,5.151,5.174,5.22,5.244,5.244,5.244,5.268,5.268,5.268,5.268,5.268,5.268,5.268,5.244,5.244,5.244,5.244,5.244,5.244,5.244,5.244,5.268,5.316,5.316,5.316,5.34,5.34,5.389,5.44,5.465,5.543,5.57,5.597,5.651,5.707,5.821,5.821,5.909,5.939,6.001,6.001,5.85,5.821,5.763,5.679,5.651,5.624,5.597,5.597,5.57,5.543,5.491,5.465,5.415,5.34,5.34,5.316,5.268,5.268,5.316,5.316,5.34,5.389,5.415,5.415,5.415,5.44,5.415,5.415,5.415,5.389,5.34,5.268,5.22,5.151,5.04,4.975,4.933,4.891,4.871,4.83,4.83,4.81,4.81,4.791,4.791,4.791,4.81,4.81,4.81,4.81,4.83,4.851,4.851,4.891,4.891,4.912,4.954,4.996,5.04,5.067499999999999,5.106,5.1285,5.151,5.174,5.22,5.244,5.268,5.268,5.268,5.268,5.268,5.244,5.22,5.174,5.151,5.106,5.084,5.04,5.018,4.996,4.975,4.954,4.933,4.912,4.912,4.891,4.871,4.851,4.771,4.713,4.601,4.583,4.512,4.477,4.46,4.46,4.46,4.46,4.46,4.477,4.477,4.477,4.512,4.512,4.477,4.46,4.426,4.41
0.0,0.0,0.0,0.0,0.0,0.0,0.0,5.597,5.597,5.597,5.597,5.597,5.597,5.597,5.597,5.597,5.57,5.57,5.57,5.543,5.543,5.543,5.517,5.517,5.517,5.517,5.517,5.517,5.543,5.543,5.57,5.57,5.57,5.597,5.597,5.597,5.597,5.597,5.597,5.597,5.597,5.597,5.57,5.57,5.57,5.57,5.597,5.597,5.597,5.597,5.597,5.597,5.597,5.597,5.597,5.597,5.597,5.597,5.597,5.597,5.597,5.624,5.624,5.624,5.651,5.651,5.651,5.651,5.679,5.679,5.679,5.679,5.679,5.679,5.679,5.679,5.679,5.679,5.679,5.651,5.651,5.651,5.624,5.624,5.597,5.597,5.597,5.597,5.57,5.57,5.57,5.57,5.57,5.57,5.543,5.543,5.543,5.543,5.543,5.543,5.517,5.517,5.491,5.491,5.465,5.465,5.465,5.465,5.465,5.465,5.465,5.465,5.465,5.491,5.491,5.491,5.491,5.491,5.491,5.491,5.517,5.517,5.517,5.517,5.491,5.491,5.491,5.491,5.491,5.491,5.491,5.491,5.491,5.491,5.491,5.517,5.517,5.517,5.517,5.517,5.517,5.517,5.517,5.517,5.517,5.517,5.517,5.517,5.517,5.517,5.517,5.543,5.543,5.543,5.543,5.543,5.543,5.543,5.517,5.517,5.543,5.517,5.517,5.517,5.517,5.517,5.517,5.517,5.491,5.491,5.491,5.465,5.465,5.465,5.465,5.465,5.465,5.465,5.465,5.465,5.465,5.44,5.44,5.44,5.44,5.44,5.465,5.465,5.491,5.491,5.491,5.491,5.517,5.517,5.517,5.517,5.517,5.543,5.543,5.543,5.543,5.543,5.517,5.517,5.491,5.491,5.465,5.44,5.415,5.415,5.44,5.44,5.44,5.44,5.44,5.465,5.465,5.465,5.44,5.415,5.415,5.415,5.415,5.415,5.415,5.415,5.389,5.389,5.34,5.34,5.316,5.316,5.268,5.268,5.268,5.268,5.268,5.268,5.268,5.316,5.316,5.316,5.34,5.389,5.389,5.415,5.44,5.44,5.465,5.465,5.491,5.491,5.491,5.491,5.491,5.491,5.491,5.465,5.44,5.44,5.44,5.44,5.44,5.44,5.44,5.44,5.465,5.491,5.491,5.517,5.517,5.517,5.517,5.543,5.543,5.543,5.543,5.543,5.517,5.517,5.517,5.517,5.517,5.517,5.517,5.517,5.517,5.491,5.517,5.491,5.491,5.465,5.465,5.465,5.465,5.465,5.465,5.44,5.44,5.44,5.44,5.44,5.44,5.44,5.44,5.44,5.44,5.44,5.44,5.44,5.44,5.415,5.415,5.415,5.415,5.415,5.415,5.389,5.389,5.389,5.415,5.415,5.415,5.415,5.415,5.415,5.415,5.415,5.415,5.415,5.415,5.415,5.415,5.415,5.415,5.415,5.415,5.389,5.389,5.389,5.34,5.34,5.316,5.268,5.268,5.268,5.268,5.268,5.244,5.244,5.244,5.268,5.268,5.268,5.268,5.316,5.34,5.34,5.34,5.34,5.34,5.34,5.316,5.316,5.316,5.268,5.268,5.268,5.244,5.244,5.22,5.22,5.22,5.174,5.174,5.174,5.174,5.174,5.174,5.22,5.22,5.244,5.244,5.244,5.244,5.244,5.244,5.244,5.244,5.22,5.22,5.22,5.174,5.174,5.151,5.106,5.151,5.151,5.151,5.174,5.174,5.22,5.244,5.268,5.316,5.316,5.316,5.316,5.316,5.316,5.316,5.268,5.268,5.268,5.268,5.268,5.268,5.244,5.244,5.268,5.316,5.316,5.316,5.34,5.389,5.415,5.465,5.517,5.57,5.59175,5.597,5.679,5.735,5.85,6.032,6.159,6.327,6.396,6.396,6.432,6.396,6.361,6.259,6.225,5.939,5.792,5.735,5.679,5.651,5.597,5.57,5.543,5.491,5.44,5.389,5.316,5.268,5.268,5.268,5.268,5.316,5.34,5.389,5.389,5.415,5.415,5.415,5.44,5.415,5.415,5.389,5.389,5.34,5.268,5.22,5.151,5.084,4.996,4.954,4.912,4.891,4.851,4.851,4.83,4.83,4.81,4.81,4.81,4.81,4.81,4.81,4.81,4.83,4.83,4.851,4.871,4.891,4.912,4.954,4.996,5.04,5.084,5.106,5.1455,5.174,5.22,5.244,5.268,5.268,5.316,5.268,5.316,5.268,5.244,5.22,5.174,5.151,5.084,5.04,5.04,5.018,4.975,4.954,4.933,4.912,4.912,4.891,4.851,4.83,4.694,4.638,4.565,4.512,4.46,4.426,4.426,4.426,4.426,4.46,4.46,4.477,4.477,4.512,4.512,4.512,4.477,4.477,4.426,4.41
0.0,0.0,0.0,0.0,0.0,0.0,5.624,5.624,5.624,5.624,5.624,5.597,5.597,5.597,5.597,5.597,5.597,5.597,5.57,5.57,5.57,5.543,5.543,5.543,5.543,5.543,5.543,5.543,5.543,5.57,5.57,5.597,5.597,5.597,5.597,5.624,5.624,5.597,5.597,5.597,5.597,5.597,5.597,5.597,5.597,5.597,5.597,5.597,5.597,5.597,5.597,5.597,5.597,5.597,5.597,5.624,5.624,5.597,5.597,5.597,5.624,5.624,5.624,5.624,5.624,5.651,5.651,5.651,5.651,5.651,5.679,5.679,5.679,5.679,5.679,5.679,5.651,5.651,5.651,5.651,5.624,5.624,5.624,5.624,5.597,5.597,5.597,5.597,5.597,5.597,5.597,5.597,5.597,5.57,5.57,5.57,5.57,5.543,5.543,5.543,5.543,5.517,5.491,5.491,5.465,5.465,5.44,5.44,5.44,5.44,5.44,5.44,5.465,5.465,5.465,5.465,5.465,5.491,5.491,5.491,5.517,5.517,5.517,5.517,5.517,5.517,5.517,5.491,5.491,5.491,5.491,5.491,5.491,5.491,5.491,5.491,5.491,5.491,5.491,5.491,5.491,5.491,5.517,5.517,5.517,5.517,5.517,5.517,5.517,5.517,5.543,5.543,5.543,5.543,5.543,5.543,5.543,5.543,5.543,5.543,5.543,5.517,5.517,5.517,5.517,5.517,5.491,5.491,5.491,5.491,5.491,5.465,5.465,5.465,5.465,5.465,5.465,5.465,5.465,5.465,5.465,5.465,5.465,5.465,5.465,5.465,5.465,5.491,5.491,5.491,5.491,5.491,5.491,5.491,5.517,5.517,5.517,5.517,5.543,5.543,5.543,5.543,5.517,5.517,5.491,5.491,5.465,5.44,5.44,5.44,5.44,5.44,5.44,5.44,5.44,5.44,5.44,5.44,5.44,5.44,5.415,5.415,5.415,5.415,5.415,5.389,5.389,5.34,5.34,5.316,5.316,5.268,5.268,5.244,5.244,5.244,5.244,5.244,5.244,5.268,5.268,5.268,5.316,5.34,5.389,5.389,5.415,5.415,5.44,5.465,5.491,5.465,5.465,5.491,5.491,5.491,5.491,5.465,5.465,5.44,5.44,5.44,5.44,5.44,5.465,5.465,5.491,5.517,5.543,5.543,5.543,5.543,5.543,5.543,5.543,5.543,5.543,5.543,5.543,5.543,5.543,5.543,5.543,5.543,5.517,5.517,5.517,5.517,5.491,5.491,5.491,5.491,5.491,5.465,5.465,5.465,5.44,5.44,5.44,5.44,5.44,5.44,5.44,5.415,5.415,5.415,5.415,5.415,5.415,5.415,5.389,5.389,5.389,5.389,5.389,5.389,5.389,5.389,5.389,5.389,5.389,5.389,5.389,5.389,5.415,5.415,5.415,5.415,5.415,5.415,5.44,5.44,5.44,5.44,5.44,5.44,5.44,5.44,5.44,5.415,5.389,5.389,5.389,5.34,5.34,5.34,5.34,5.316,5.316,5.316,5.316,5.316,5.316,5.316,5.316,5.316,5.34,5.34,5.34,5.34,5.34,5.34,5.316,5.316,5.316,5.268,5.268,5.268,5.244,5.22,5.22,5.174,5.174,5.174,5.174,5.174,5.174,5.174,5.174,5.174,5.22,5.244,5.244,5.244,5.268,5.268,5.268,5.268,5.268,5.268,5.244,5.268,5.244,5.22,5.22,5.22,5.22,5.174,5.174,5.174,5.22,5.244,5.268,5.316,5.316,5.316,5.316,5.34,5.34,5.34,5.316,5.316,5.316,5.316,5.316,5.268,5.268,5.316,5.316,5.316,5.34,5.389,5.415,5.4475,5.465,5.517,5.57,5.597,5.651,5.735,5.85,6.032,6.259,6.396,6.443250000000001,6.577,6.614,6.69,6.69,6.69,6.69,6.614,6.54,6.54,6.432,6.259,5.939,5.821,5.735,5.679,5.624,5.57,5.517,5.465,5.389,5.34,5.316,5.268,5.268,5.268,5.316,5.316,5.389,5.389,5.415,5.415,5.415,5.415,5.44,5.415,5.415,5.389,5.389,5.316,5.268,5.244,5.174,5.106,5.018,4.975,4.933,4.891,4.891,4.851,4.851,4.83,4.81,4.81,4.81,4.81,4.791,4.791,4.81,4.81,4.83,4.851,4.871,4.891,4.912,4.954,4.996,5.04,5.084,5.151,5.174,5.203,5.244,5.268,5.268,5.316,5.316,5.316,5.316,5.244,5.22,5.174,5.151,5.106,5.084,5.04,5.018,4.996,4.996,4.954,4.933,4.912,4.891,4.851,4.732,4.638,4.565,4.512,4.46,4.426,4.41,4.393,4.41,4.41,4.426,4.46,4.46,4.477,4.477,4.512,4.512,4.477,4.46,4.426,4.41
0.0,0.0,0.0,0.0,0.0,0.0,5.651,5.651,5.651,5.651,5.651,5.651,5.651,5.651,5.651,5.624,5.624,5.597,5.597,5.597,5.57,5.57,5.57,5.543,5.543,5.543,5.543,5.543,5.57,5.57,5.57,5.597,5.597,5.597,5.624,5.624,5.624,5.624,5.624,5.624,5.597,5.597,5.597,5.597,5.597,5.597,5.597,5.624,5.624,5.624,5.624,5.624,5.624,5.624,5.624,5.624,5.624,5.624,5.624,5.624,5.624,5.624,5.624,5.624,5.651,5.651,5.651,5.651,5.651,5.651,5.651,5.651,5.651,5.651,5.651,5.651,5.651,5.624,5.624,5.624,5.597,5.624,5.597,5.597,5.597,5.597,5.597,5.597,5.597,5.597,5.597,5.597,5.597,5.597,5.597,5.597,5.57,5.57,5.57,5.57,5.543,5.543,5.517,5.491,5.465,5.465,5.44,5.44,5.44,5.44,5.44,5.44,5.44,5.465,5.465,5.465,5.465,5.491,5.491,5.517,5.517,5.517,5.517,5.517,5.517,5.543,5.517,5.517,5.517,5.491,5.491,5.491,5.491,5.491,5.491,5.465,5.465,5.465,5.465,5.465,5.491,5.491,5.491,5.491,5.491,5.491,5.517,5.517,5.517,5.517,5.543,5.543,5.543,5.543,5.543,5.543,5.543,5.543,5.543,5.543,5.543,5.517,5.517,5.517,5.517,5.491,5.491,5.491,5.491,5.465,5.465,5.465,5.465,5.465,5.465,5.465,5.465,5.465,5.465,5.465,5.465,5.465,5.465,5.465,5.465,5.491,5.491,5.517,5.517,5.517,5.517,5.517,5.517,5.517,5.517,5.517,5.517,5.543,5.543,5.543,5.543,5.543,5.517,5.517,5.517,5.491,5.44,5.44,5.44,5.44,5.44,5.44,5.44,5.44,5.465,5.465,5.465,5.44,5.44,5.44,5.415,5.415,5.415,5.415,5.389,5.389,5.34,5.316,5.316,5.316,5.268,5.268,5.244,5.22,5.22,5.22,5.22,5.22,5.22,5.22,5.244,5.268,5.316,5.316,5.34,5.389,5.389,5.415,5.44,5.465,5.465,5.465,5.465,5.491,5.465,5.465,5.465,5.465,5.44,5.44,5.44,5.44,5.44,5.465,5.491,5.491,5.517,5.517,5.543,5.543,5.543,5.57,5.57,5.57,5.57,5.57,5.57,5.57,5.57,5.57,5.57,5.57,5.543,5.543,5.543,5.543,5.517,5.517,5.517,5.517,5.491,5.491,5.465,5.465,5.465,5.44,5.44,5.415,5.415,5.415,5.415,5.389,5.389,5.389,5.34,5.34,5.34,5.34,5.34,5.34,5.34,5.34,5.34,5.34,5.34,5.34,5.34,5.34,5.34,5.34,5.3585,5.389,5.389,5.389,5.389,5.389,5.402,5.415,5.415,5.415,5.415,5.44,5.44,5.44,5.465,5.465,5.465,5.465,5.44,5.44,5.44,5.44,5.415,5.415,5.415,5.415,5.389,5.389,5.34,5.34,5.34,5.34,5.34,5.34,5.34,5.34,5.34,5.34,5.389,5.389,5.34,5.34,5.34,5.34,5.316,5.316,5.268,5.244,5.244,5.22,5.174,5.174,5.151,5.151,5.151,5.151,5.151,5.151,5.151,5.174,5.22,5.244,5.244,5.244,5.268,5.268,5.316,5.316,5.316,5.316,5.268,5.268,5.244,5.244,5.22,5.244,5.244,5.22,5.22,5.22,5.244,5.244,5.268,5.316,5.316,5.34,5.34,5.34,5.389,5.389,5.389,5.415,5.415,5.415,5.44,5.44,5.44,5.44,5.44,5.44,5.465,5.491,5.517,5.57,5.597,5.651,5.735,5.85,6.032,6.259,6.432,6.577,6.652,6.69,6.768,6.929,6.929,6.971,6.971,6.929,6.888,6.808,6.729,6.652,6.577,6.504,6.361,5.939,5.85,5.707,5.651,5.597,5.543,5.465,5.415,5.34,5.316,5.244,5.244,5.244,5.268,5.316,5.34,5.389,5.389,5.415,5.44,5.415,5.415,5.44,5.415,5.415,5.389,5.34,5.316,5.268,5.244,5.174,5.106,5.018,4.975,4.933,4.912,4.891,4.871,4.851,4.83,4.81,4.81,4.791,4.752,4.752,4.752,4.771,4.81,4.81,4.83,4.851,4.891,4.912,4.933,4.975,5.018,5.084,5.151,5.174,5.2204999999999995,5.244,5.268,5.316,5.316,5.316,5.316,5.268,5.244,5.22,5.174,5.151,5.106,5.106,5.084,5.018,4.996,4.975,4.954,4.912,4.891,4.851,4.732,4.638,4.53,4.426,4.41,4.393,4.393,4.393,4.393,4.393,4.41,4.426,4.46,4.46,4.477,4.46,4.46,4.46,4.426,4.41,4.393
0.0,0.0,0.0,0.0,0.0,5.679,5.679,5.651,5.651,5.651,5.651,5.651,5.651,5.651,5.651,5.651,5.651,5.624,5.624,5.597,5.597,5.597,5.57,5.57,5.57,5.57,5.543,5.57,5.57,5.57,5.597,5.597,5.597,5.624,5.651,5.651,5.651,5.651,5.651,5.624,5.624,5.624,5.624,5.624,5.624,5.624,5.624,5.624,5.624,5.624,5.624,5.624,5.624,5.624,5.624,5.624,5.624,5.624,5.624,5.624,5.624,5.624,5.624,5.624,5.624,5.624,5.624,5.651,5.624,5.624,5.624,5.624,5.624,5.624,5.597,5.597,5.597,5.597,5.597,5.597,5.597,5.597,5.597,5.597,5.597,5.624,5.597,5.624,5.624,5.624,5.624,5.624,5.624,5.624,5.624,5.597,5.597,5.597,5.597,5.57,5.57,5.543,5.543,5.517,5.517,5.491,5.465,5.44,5.44,5.44,5.415,5.44,5.44,5.44,5.465,5.465,5.491,5.491,5.491,5.517,5.543,5.543,5.543,5.543,5.543,5.543,5.517,5.517,5.517,5.491,5.491,5.491,5.491,5.465,5.465,5.465,5.465,5.465,5.44,5.44,5.465,5.465,5.465,5.491,5.491,5.491,5.491,5.517,5.517,5.543,5.543,5.543,5.543,5.543,5.543,5.543,5.543,5.517,5.517,5.517,5.517,5.491,5.491,5.491,5.491,5.491,5.491,5.465,5.465,5.465,5.465,5.465,5.465,5.465,5.465,5.465,5.465,5.491,5.491,5.491,5.491,5.491,5.491,5.517,5.517,5.517,5.517,5.517,5.517,5.517,5.543,5.543,5.517,5.543,5.543,5.543,5.517,5.543,5.543,5.543,5.543,5.517,5.517,5.517,5.517,5.491,5.465,5.44,5.44,5.44,5.44,5.44,5.44,5.465,5.465,5.465,5.465,5.44,5.44,5.44,5.415,5.415,5.415,5.415,5.389,5.389,5.34,5.316,5.316,5.268,5.268,5.244,5.22,5.22,5.22,5.22,5.22,5.22,5.22,5.22,5.244,5.244,5.268,5.316,5.316,5.34,5.389,5.415,5.44,5.44,5.465,5.465,5.465,5.465,5.465,5.44,5.44,5.44,5.44,5.415,5.415,5.44,5.465,5.491,5.491,5.543,5.543,5.543,5.543,5.57,5.57,5.57,5.57,5.57,5.57,5.57,5.57,5.57,5.57,5.57,5.57,5.57,5.57,5.57,5.543,5.543,5.543,5.543,5.517,5.517,5.491,5.491,5.465,5.465,5.465,5.44,5.44,5.415,5.389,5.389,5.389,5.389,5.34,5.34,5.34,5.34,5.316,5.268,5.268,5.268,5.268,5.268,5.268,5.268,5.268,5.268,5.316,5.316,5.316,5.316,5.316,5.316,5.34,5.34,5.389,5.389,5.389,5.389,5.389,5.415,5.415,5.415,5.44,5.44,5.465,5.465,5.465,5.465,5.465,5.465,5.465,5.44,5.44,5.44,5.44,5.44,5.44,5.415,5.415,5.389,5.34,5.34,5.34,5.34,5.34,5.34,5.34,5.34,5.34,5.34,5.34,5.34,5.34,5.34,5.316,5.316,5.268,5.244,5.22,5.22,5.174,5.151,5.106,5.151,5.151,5.151,5.151,5.151,5.174,5.174,5.22,5.244,5.244,5.244,5.268,5.268,5.268,5.316,5.316,5.316,5.268,5.268,5.268,5.244,5.268,5.316,5.316,5.316,5.316,5.34,5.389,5.415,5.34,5.389,5.415,5.44,5.465,5.491,5.517,5.543,5.543,5.543,5.543,5.543,5.57,5.57,5.57,5.543,5.543,5.57,5.57,5.597,5.651,5.679,5.763,5.909,6.095,6.396,6.54,6.614,6.729,6.848,6.971,7.231,7.322,7.415,7.415,7.368,7.415,7.322,7.231,7.055,6.888,6.808,6.69,6.614,6.54,6.361,5.939,5.763,5.679,5.597,5.543,5.465,5.415,5.34,5.316,5.244,5.244,5.244,5.268,5.316,5.34,5.389,5.389,5.415,5.44,5.415,5.415,5.44,5.415,5.415,5.415,5.389,5.34,5.34,5.268,5.244,5.151,5.084,5.018,4.975,4.933,4.912,4.891,4.851,4.83,4.81,4.81,4.752,4.732,4.732,4.713,4.732,4.752,4.791,4.81,4.83,4.851,4.891,4.912,4.933,4.996,5.04,5.106,5.151,5.22,5.244,5.268,5.316,5.316,5.316,5.316,5.316,5.268,5.244,5.22,5.174,5.151,5.106,5.106,5.04,5.018,4.996,4.954,4.912,4.891,4.851,4.713,4.601,4.512,4.426,4.393,4.376,4.376,4.376,4.376,4.376,4.393,4.41,4.41,4.41,4.426,4.426,4.41,4.393,4.393,4.376,4.36
0.0,0.0,0.0,0.0,0.0,5.679,5.679,5.679,5.679,5.679,5.679,5.679,5.679,5.679,5.679,5.679,5.651,5.651,5.651,5.624,5.597,5.597,5.597,5.57,5.57,5.57,5.57,5.57,5.57,5.57,5.597,5.597,5.597,5.624,5.651,5.651,5.651,5.651,5.651,5.624,5.624,5.624,5.624,5.624,5.624,5.624,5.624,5.624,5.624,5.624,5.624,5.624,5.624,5.624,5.624,5.624,5.624,5.624,5.624,5.624,5.624,5.624,5.624,5.624,5.624,5.624,5.624,5.624,5.597,5.597,5.597,5.597,5.597,5.597,5.597,5.597,5.57,5.597,5.597,5.597,5.597,5.597,5.597,5.597,5.597,5.624,5.624,5.624,5.651,5.651,5.651,5.651,5.651,5.651,5.651,5.651,5.651,5.624,5.597,5.597,5.597,5.57,5.57,5.543,5.543,5.491,5.491,5.465,5.465,5.44,5.44,5.44,5.44,5.44,5.465,5.465,5.491,5.491,5.517,5.543,5.543,5.543,5.543,5.543,5.543,5.543,5.543,5.543,5.517,5.517,5.491,5.491,5.465,5.465,5.465,5.465,5.44,5.44,5.44,5.44,5.44,5.44,5.465,5.465,5.491,5.491,5.491,5.517,5.517,5.543,5.543,5.543,5.543,5.543,5.543,5.517,5.517,5.517,5.517,5.517,5.491,5.491,5.491,5.491,5.491,5.491,5.491,5.465,5.465,5.465,5.465,5.465,5.465,5.465,5.465,5.465,5.491,5.491,5.491,5.491,5.491,5.491,5.517,5.517,5.517,5.517,5.543,5.543,5.543,5.543,5.543,5.57,5.543,5.543,5.543,5.543,5.543,5.543,5.543,5.543,5.543,5.543,5.517,5.517,5.517,5.491,5.465,5.465,5.465,5.465,5.465,5.465,5.465,5.465,5.465,5.465,5.44,5.44,5.44,5.44,5.415,5.415,5.415,5.389,5.389,5.389,5.34,5.316,5.316,5.268,5.268,5.22,5.22,5.22,5.174,5.174,5.22,5.22,5.22,5.22,5.22,5.244,5.268,5.268,5.316,5.34,5.389,5.415,5.44,5.44,5.465,5.465,5.465,5.44,5.465,5.44,5.44,5.44,5.44,5.44,5.44,5.465,5.491,5.491,5.517,5.543,5.543,5.543,5.57,5.57,5.57,5.57,5.597,5.597,5.597,5.597,5.597,5.597,5.597,5.57,5.57,5.57,5.57,5.57,5.543,5.543,5.543,5.543,5.543,5.517,5.491,5.491,5.491,5.465,5.465,5.44,5.415,5.415,5.389,5.389,5.34,5.34,5.316,5.316,5.268,5.268,5.244,5.244,5.22,5.22,5.22,5.244,5.244,5.244,5.244,5.244,5.268,5.268,5.268,5.268,5.268,5.268,5.316,5.316,5.316,5.316,5.316,5.34,5.34,5.389,5.389,5.389,5.415,5.44,5.44,5.465,5.465,5.465,5.465,5.465,5.465,5.465,5.465,5.465,5.44,5.44,5.415,5.415,5.389,5.34,5.34,5.34,5.316,5.316,5.316,5.316,5.316,5.34,5.34,5.34,5.34,5.34,5.34,5.34,5.34,5.268,5.268,5.244,5.22,5.22,5.174,5.151,5.106,5.106,5.151,5.151,5.151,5.174,5.174,5.22,5.244,5.268,5.268,5.316,5.316,5.316,5.34,5.34,5.34,5.34,5.34,5.316,5.316,5.316,5.34,5.465,5.491,5.543,5.57,5.597,5.651,5.679,5.763,5.821,5.85,5.543,5.57,5.597,5.651,5.651,5.651,5.651,5.651,5.651,5.651,5.651,5.679,5.651,5.651,5.679,5.679,5.763,5.85,6.032,6.225,6.396,6.54,6.652,6.729,6.888,7.186,7.322,7.39025,7.559,7.659,7.709,7.761,7.761,7.761,7.659,7.511,7.368,7.098,6.929,6.768,6.69,6.577,6.396,6.001,5.821,5.679,5.597,5.543,5.465,5.389,5.34,5.268,5.244,5.22,5.244,5.244,5.316,5.316,5.389,5.389,5.415,5.44,5.44,5.44,5.415,5.44,5.44,5.415,5.389,5.389,5.34,5.316,5.268,5.22,5.151,5.084,5.018,4.975,4.933,4.912,4.871,4.851,4.83,4.81,4.771,4.713,4.694,4.694,4.694,4.713,4.732,4.752,4.791,4.81,4.83,4.871,4.891,4.933,4.975,5.04,5.106,5.174,5.244,5.268,5.268,5.316,5.316,5.316,5.316,5.268,5.244,5.22,5.174,5.174,5.151,5.106,5.084,5.04,4.996,4.954,4.912,4.871,4.83,4.694,4.583,4.477,4.41,4.393,4.36,4.36,4.36,4.376,4.376,4.376,4.376,4.393,4.393,4.393,4.393,4.376,4.376,4.36,4.344,4.328
0.0,0.0,0.0,0.0,0.0,5.707,5.707,5.707,5.707,5.679,5.679,5.707,5.707,5.707,5.679,5.679,5.679,5.679,5.651,5.651,5.624,5.597,5.597,5.597,5.57,5.57,5.57,5.57,5.57,5.57,5.597,5.597,5.597,5.624,5.624,5.651,5.651,5.651,5.624,5.624,5.624,5.624,5.624,5.624,5.624,5.624,5.624,5.624,5.624,5.624,5.624,5.624,5.624,5.624,5.624,5.624,5.624,5.624,5.624,5.624,5.624,5.624,5.597,5.597,5.597,5.597,5.597,5.597,5.597,5.597,5.597,5.597,5.57,5.57,5.57,5.57,5.57,5.57,5.57,5.57,5.57,5.597,5.597,5.597,5.624,5.624,5.651,5.651,5.651,5.651,5.651,5.651,5.679,5.679,5.651,5.651,5.651,5.651,5.651,5.624,5.597,5.597,5.57,5.57,5.543,5.543,5.491,5.465,5.465,5.44,5.44,5.44,5.44,5.465,5.465,5.491,5.491,5.517,5.517,5.543,5.543,5.543,5.543,5.543,5.543,5.543,5.543,5.543,5.517,5.517,5.491,5.491,5.491,5.465,5.465,5.44,5.44,5.44,5.44,5.44,5.44,5.44,5.465,5.465,5.491,5.491,5.491,5.517,5.517,5.543,5.543,5.543,5.543,5.517,5.517,5.517,5.517,5.517,5.517,5.491,5.491,5.491,5.491,5.491,5.491,5.491,5.465,5.465,5.465,5.465,5.465,5.465,5.465,5.465,5.465,5.491,5.491,5.491,5.517,5.517,5.517,5.517,5.543,5.543,5.543,5.543,5.543,5.57,5.543,5.57,5.57,5.57,5.57,5.57,5.57,5.57,5.543,5.543,5.543,5.543,5.543,5.517,5.517,5.517,5.491,5.465,5.465,5.465,5.465,5.465,5.465,5.465,5.465,5.465,5.465,5.465,5.465,5.44,5.44,5.44,5.415,5.415,5.389,5.389,5.389,5.389,5.34,5.316,5.268,5.268,5.244,5.22,5.22,5.22,5.174,5.174,5.22,5.22,5.22,5.22,5.22,5.244,5.268,5.268,5.316,5.34,5.389,5.389,5.415,5.44,5.44,5.44,5.44,5.465,5.465,5.44,5.44,5.44,5.44,5.465,5.465,5.491,5.517,5.543,5.543,5.57,5.57,5.57,5.57,5.57,5.597,5.597,5.597,5.597,5.597,5.597,5.597,5.597,5.57,5.57,5.57,5.57,5.57,5.57,5.543,5.543,5.543,5.517,5.517,5.517,5.491,5.491,5.465,5.465,5.44,5.44,5.415,5.389,5.34,5.316,5.316,5.268,5.268,5.244,5.22,5.22,5.22,5.22,5.174,5.174,5.174,5.174,5.174,5.22,5.22,5.22,5.22,5.22,5.22,5.22,5.244,5.244,5.268,5.268,5.268,5.268,5.268,5.316,5.316,5.316,5.34,5.389,5.389,5.415,5.44,5.44,5.44,5.465,5.44,5.465,5.44,5.44,5.44,5.415,5.415,5.415,5.389,5.389,5.34,5.316,5.316,5.316,5.268,5.268,5.268,5.316,5.316,5.316,5.316,5.34,5.34,5.34,5.34,5.34,5.316,5.316,5.268,5.244,5.244,5.22,5.174,5.174,5.151,5.151,5.151,5.151,5.174,5.174,5.22,5.244,5.268,5.316,5.34,5.34,5.389,5.389,5.389,5.389,5.389,5.415,5.389,5.44,5.465,5.517,5.57,5.651,5.679,5.821,5.939,6.127,6.259,6.396,6.3685,6.467,6.54,6.54,6.577,6.577,6.001,6.001,6.001,6.001,6.001,5.939,5.909,5.909,5.909,5.909,5.909,6.001,6.127,6.225,6.396,6.54,6.577,6.69,6.808,7.055,7.186,7.287,7.415,7.659,7.709,7.866,7.919,7.973,7.973,7.973,7.973,7.973,7.761,7.559,7.368,7.098,6.848,6.729,6.614,6.467,6.032,5.821,5.679,5.597,5.543,5.465,5.389,5.34,5.268,5.22,5.22,5.244,5.244,5.268,5.316,5.34,5.389,5.415,5.44,5.44,5.44,5.44,5.44,5.44,5.44,5.415,5.415,5.389,5.34,5.316,5.244,5.174,5.106,5.04,4.996,4.954,4.912,4.891,4.851,4.83,4.81,4.791,4.713,4.694,4.657,4.657,4.657,4.694,4.713,4.752,4.771,4.81,4.83,4.871,4.891,4.933,4.996,5.084,5.151,5.22,5.244,5.268,5.316,5.316,5.316,5.316,5.268,5.244,5.244,5.22,5.22,5.174,5.151,5.106,5.04,5.018,4.975,4.912,4.871,4.83,4.694,4.583,4.477,4.41,4.393,4.376,4.376,4.376,4.36,4.376,4.376,4.376,4.376,4.36,4.36,4.36,4.344,4.328,4.328,4.328,4.312
0.0,0.0,0.0,0.0,0.0,5.735,5.735,5.735,5.735,5.735,5.707,5.735,5.735,5.735,5.735,5.735,5.707,5.679,5.679,5.651,5.651,5.624,5.597,5.597,5.597,5.597,5.57,5.57,5.57,5.597,5.597,5.597,5.597,5.6105,5.624,5.624,5.624,5.624,5.624,5.624,5.597,5.597,5.597,5.624,5.624,5.624,5.624,5.624,5.624,5.624,5.624,5.624,5.624,5.624,5.624,5.651,5.651,5.651,5.624,5.624,5.624,5.597,5.597,5.597,5.597,5.597,5.597,5.597,5.57,5.57,5.57,5.57,5.57,5.57,5.57,5.57,5.57,5.57,5.57,5.57,5.57,5.597,5.597,5.597,5.624,5.624,5.651,5.651,5.651,5.679,5.679,5.679,5.679,5.679,5.679,5.679,5.679,5.651,5.651,5.624,5.624,5.597,5.57,5.57,5.543,5.543,5.517,5.491,5.465,5.465,5.44,5.465,5.465,5.465,5.491,5.491,5.491,5.517,5.543,5.543,5.543,5.543,5.543,5.543,5.543,5.543,5.543,5.543,5.543,5.517,5.517,5.491,5.491,5.465,5.44,5.44,5.44,5.44,5.44,5.44,5.44,5.44,5.465,5.465,5.491,5.491,5.491,5.491,5.517,5.517,5.517,5.517,5.517,5.517,5.517,5.517,5.491,5.491,5.491,5.465,5.465,5.465,5.465,5.465,5.465,5.465,5.465,5.465,5.465,5.465,5.465,5.465,5.465,5.465,5.465,5.491,5.491,5.491,5.517,5.517,5.543,5.543,5.543,5.543,5.57,5.57,5.57,5.57,5.57,5.57,5.57,5.57,5.57,5.57,5.57,5.57,5.543,5.543,5.543,5.543,5.517,5.517,5.491,5.491,5.491,5.465,5.465,5.465,5.465,5.465,5.465,5.465,5.491,5.491,5.491,5.465,5.465,5.465,5.44,5.44,5.415,5.415,5.389,5.389,5.389,5.389,5.34,5.316,5.316,5.268,5.268,5.244,5.22,5.22,5.22,5.22,5.22,5.22,5.244,5.244,5.244,5.268,5.268,5.316,5.316,5.34,5.389,5.389,5.415,5.44,5.44,5.44,5.44,5.465,5.465,5.465,5.465,5.465,5.491,5.491,5.491,5.517,5.543,5.543,5.57,5.57,5.57,5.57,5.57,5.597,5.597,5.597,5.597,5.597,5.597,5.597,5.597,5.57,5.57,5.57,5.57,5.57,5.543,5.543,5.543,5.543,5.517,5.517,5.491,5.491,5.491,5.491,5.465,5.44,5.44,5.415,5.389,5.34,5.316,5.268,5.268,5.268,5.22,5.22,5.22,5.22,5.22,5.22,5.174,5.174,5.174,5.174,5.174,5.174,5.174,5.174,5.174,5.174,5.174,5.174,5.174,5.22,5.22,5.22,5.22,5.22,5.244,5.268,5.268,5.268,5.316,5.34,5.34,5.389,5.415,5.44,5.44,5.44,5.44,5.44,5.415,5.415,5.415,5.389,5.389,5.389,5.34,5.316,5.316,5.268,5.268,5.268,5.244,5.244,5.268,5.268,5.268,5.268,5.316,5.316,5.316,5.316,5.34,5.34,5.316,5.268,5.268,5.244,5.244,5.244,5.22,5.174,5.151,5.151,5.174,5.174,5.22,5.22,5.244,5.268,5.34,5.389,5.415,5.44,5.44,5.465,5.465,5.465,5.491,5.517,5.543,5.597,5.651,5.707,5.909,6.159,6.249750000000001,6.432,6.54,6.614,6.69,6.729,6.848,6.929,7.14875,7.098,7.186,7.231,7.231,7.322,7.322,6.577,6.577,6.54,6.504,6.467,6.432,6.396,6.432,6.504,6.54,6.614,6.69,6.729,6.848,6.929,7.186,7.30375,7.415,7.659,7.761,7.866,7.973,7.973,8.028,8.084,8.084,8.028,8.028,7.973,7.813,7.659,7.415,7.186,6.929,6.729,6.614,6.504,6.032,5.821,5.679,5.597,5.543,5.44,5.389,5.34,5.268,5.22,5.22,5.244,5.244,5.268,5.316,5.34,5.389,5.415,5.44,5.44,5.44,5.44,5.44,5.44,5.44,5.415,5.415,5.389,5.389,5.316,5.268,5.22,5.151,5.084,5.018,4.975,4.933,4.912,4.891,4.851,4.83,4.81,4.732,4.694,4.638,4.638,4.638,4.638,4.694,4.713,4.732,4.771,4.81,4.83,4.871,4.912,4.975,5.04,5.106,5.174,5.22,5.244,5.268,5.316,5.316,5.316,5.268,5.268,5.244,5.244,5.22,5.174,5.151,5.106,5.04,5.018,4.954,4.912,4.851,4.81,4.638,4.565,4.46,4.393,4.376,4.376,4.36,4.36,4.376,4.36,4.36,4.36,4.36,4.344,4.344,4.328,4.328,4.328,4.328,4.312,4.312
0.0,0.0,0.0,0.0,0.0,5.763,5.763,5.763,5.763,5.763,5.735,5.763,5.763,5.763,5.763,5.763,5.735,5.707,5.679,5.679,5.651,5.651,5.624,5.624,5.597,5.597,5.597,5.57,5.57,5.597,5.597,5.597,5.597,5.597,5.597,5.624,5.624,5.597,5.597,5.597,5.597,5.597,5.597,5.597,5.624,5.624,5.624,5.624,5.624,5.651,5.651,5.651,5.651,5.651,5.651,5.651,5.651,5.624,5.624,5.624,5.624,5.597,5.597,5.597,5.597,5.597,5.597,5.597,5.57,5.57,5.57,5.57,5.57,5.543,5.543,5.543,5.543,5.57,5.57,5.57,5.57,5.57,5.597,5.597,5.624,5.624,5.651,5.651,5.651,5.679,5.679,5.679,5.679,5.679,5.679,5.679,5.679,5.651,5.651,5.651,5.624,5.597,5.597,5.57,5.57,5.543,5.517,5.517,5.491,5.491,5.465,5.465,5.465,5.491,5.491,5.517,5.517,5.517,5.543,5.543,5.543,5.543,5.57,5.57,5.57,5.57,5.543,5.543,5.543,5.543,5.517,5.491,5.491,5.465,5.465,5.44,5.44,5.44,5.44,5.44,5.44,5.44,5.465,5.465,5.491,5.491,5.491,5.491,5.517,5.517,5.517,5.517,5.491,5.491,5.491,5.465,5.465,5.465,5.465,5.465,5.465,5.44,5.44,5.44,5.44,5.44,5.44,5.44,5.44,5.44,5.465,5.465,5.465,5.465,5.465,5.491,5.491,5.517,5.517,5.543,5.543,5.543,5.543,5.57,5.57,5.57,5.57,5.597,5.597,5.597,5.597,5.597,5.597,5.57,5.57,5.57,5.57,5.543,5.543,5.543,5.517,5.491,5.491,5.491,5.465,5.465,5.44,5.465,5.465,5.465,5.465,5.491,5.491,5.491,5.491,5.465,5.465,5.465,5.465,5.44,5.44,5.415,5.415,5.415,5.389,5.389,5.389,5.34,5.34,5.316,5.268,5.268,5.268,5.268,5.244,5.244,5.244,5.268,5.268,5.268,5.268,5.268,5.316,5.316,5.316,5.34,5.389,5.415,5.415,5.44,5.44,5.44,5.44,5.465,5.465,5.465,5.465,5.465,5.465,5.491,5.491,5.517,5.543,5.543,5.57,5.57,5.57,5.57,5.57,5.597,5.597,5.597,5.57,5.597,5.57,5.57,5.57,5.57,5.57,5.57,5.543,5.543,5.543,5.543,5.517,5.517,5.491,5.491,5.491,5.491,5.465,5.465,5.44,5.44,5.415,5.415,5.389,5.316,5.268,5.268,5.22,5.22,5.174,5.174,5.174,5.22,5.22,5.22,5.174,5.174,5.174,5.174,5.174,5.174,5.174,5.174,5.174,5.174,5.174,5.151,5.151,5.174,5.174,5.174,5.174,5.22,5.22,5.22,5.244,5.268,5.268,5.316,5.34,5.34,5.389,5.389,5.389,5.415,5.415,5.415,5.389,5.389,5.389,5.34,5.34,5.316,5.316,5.268,5.268,5.244,5.22,5.22,5.22,5.22,5.22,5.244,5.244,5.244,5.268,5.268,5.268,5.268,5.316,5.316,5.316,5.316,5.268,5.268,5.244,5.22,5.174,5.174,5.151,5.151,5.174,5.174,5.22,5.244,5.268,5.34,5.415,5.465,5.491,5.543,5.543,5.543,5.57,5.57,5.624,5.679,5.735,5.909,6.127,6.22125,6.361,6.577,6.729,6.929,7.231,7.368,7.659,7.6129999999999995,7.8004999999999995,7.877625,8.028,8.028,8.084,8.084,8.084,8.028,8.028,8.028,8.028,7.098,7.055,6.929,6.729,6.729,6.69,6.69,6.729,6.808,6.929,7.055,7.1259999999999994,7.186,7.368,7.559,7.761,7.866,7.973,8.028,8.028,8.084,8.084,8.084,8.084,8.084,8.028,8.028,7.813,7.659,7.415,7.186,6.888,6.729,6.614,6.504,6.032,5.821,5.679,5.597,5.543,5.465,5.415,5.34,5.316,5.244,5.22,5.244,5.244,5.268,5.316,5.34,5.389,5.415,5.44,5.44,5.44,5.44,5.44,5.44,5.465,5.465,5.44,5.415,5.389,5.34,5.316,5.244,5.174,5.106,5.084,5.018,4.975,4.933,4.912,4.891,4.851,4.83,4.752,4.694,4.657,4.638,4.638,4.638,4.638,4.657,4.694,4.752,4.791,4.83,4.851,4.891,4.954,5.018,5.084,5.151,5.22,5.244,5.268,5.316,5.316,5.316,5.268,5.268,5.244,5.22,5.22,5.174,5.151,5.106,5.04,4.996,4.933,4.891,4.851,4.81,4.638,4.565,4.46,4.41,4.376,4.393,4.376,4.376,4.376,4.376,4.36,4.36,4.36,4.344,4.328,4.328,4.328,4.328,4.312,4.312,4.312
0.0,0.0,0.0,0.0,0.0,5.763,5.792,5.792,5.792,5.792,5.763,5.792,5.792,5.792,5.792,5.792,5.763,5.735,5.707,5.679,5.679,5.651,5.624,5.624,5.624,5.597,5.597,5.597,5.597,5.597,5.597,5.597,5.597,5.597,5.597,5.597,5.597,5.597,5.597,5.597,5.57,5.597,5.597,5.597,5.597,5.597,5.624,5.624,5.624,5.624,5.624,5.624,5.624,5.624,5.651,5.651,5.624,5.624,5.624,5.624,5.597,5.597,5.597,5.597,5.57,5.57,5.57,5.57,5.57,5.57,5.57,5.57,5.543,5.543,5.543,5.543,5.543,5.543,5.57,5.57,5.57,5.57,5.597,5.597,5.624,5.624,5.651,5.651,5.679,5.679,5.679,5.679,5.679,5.679,5.679,5.679,5.679,5.651,5.651,5.624,5.624,5.597,5.57,5.57,5.57,5.543,5.517,5.491,5.491,5.465,5.465,5.465,5.491,5.491,5.491,5.517,5.517,5.543,5.543,5.543,5.543,5.57,5.57,5.57,5.57,5.57,5.543,5.543,5.543,5.543,5.517,5.491,5.517,5.491,5.465,5.465,5.465,5.465,5.465,5.465,5.465,5.465,5.465,5.491,5.491,5.491,5.491,5.491,5.491,5.491,5.491,5.491,5.465,5.465,5.44,5.44,5.44,5.44,5.415,5.415,5.415,5.415,5.415,5.44,5.44,5.44,5.44,5.44,5.44,5.465,5.465,5.465,5.465,5.465,5.491,5.491,5.517,5.517,5.517,5.543,5.543,5.543,5.543,5.57,5.57,5.57,5.597,5.597,5.597,5.597,5.597,5.597,5.57,5.57,5.57,5.57,5.57,5.543,5.543,5.517,5.491,5.491,5.465,5.44,5.44,5.44,5.44,5.44,5.465,5.465,5.465,5.491,5.491,5.517,5.491,5.491,5.491,5.465,5.465,5.465,5.465,5.44,5.44,5.44,5.415,5.415,5.415,5.389,5.389,5.34,5.34,5.316,5.316,5.316,5.316,5.268,5.316,5.316,5.316,5.316,5.316,5.316,5.34,5.34,5.34,5.389,5.415,5.415,5.415,5.44,5.44,5.44,5.44,5.465,5.465,5.465,5.465,5.465,5.491,5.491,5.517,5.517,5.543,5.57,5.57,5.57,5.57,5.57,5.57,5.57,5.57,5.57,5.57,5.57,5.57,5.57,5.57,5.543,5.543,5.543,5.543,5.543,5.517,5.517,5.491,5.491,5.491,5.465,5.465,5.465,5.465,5.44,5.44,5.415,5.415,5.389,5.34,5.316,5.268,5.22,5.174,5.174,5.174,5.174,5.174,5.22,5.22,5.22,5.22,5.22,5.22,5.22,5.22,5.174,5.174,5.174,5.174,5.151,5.151,5.106,5.106,5.151,5.174,5.174,5.174,5.174,5.174,5.22,5.244,5.244,5.268,5.316,5.316,5.316,5.34,5.389,5.389,5.389,5.389,5.34,5.34,5.34,5.316,5.316,5.316,5.268,5.244,5.22,5.22,5.174,5.22,5.174,5.174,5.174,5.22,5.22,5.22,5.22,5.244,5.244,5.244,5.268,5.268,5.268,5.268,5.268,5.244,5.244,5.22,5.174,5.174,5.151,5.151,5.151,5.174,5.22,5.244,5.268,5.34,5.389,5.44,5.517,5.543,5.57,5.624,5.651,5.679,5.735,5.909,6.127,6.2,6.361,6.54,6.69,0.0,0.0,7.522,7.776,8.016,8.256,8.375,8.497,8.753,8.753,8.819,8.819,8.819,8.819,8.753,8.56,8.56,8.497,8.375,8.315,8.256,8.141,7.511,7.322,7.098,7.055,6.971,7.098,7.231,7.368,7.415,7.559,7.709,7.866,7.973,8.028,8.028,8.084,8.084,8.141,8.141,8.141,8.141,8.084,8.084,8.028,7.919,7.659,7.368,7.098,6.888,6.729,6.577,6.467,6.032,5.821,5.679,5.597,5.543,5.465,5.415,5.389,5.316,5.244,5.244,5.244,5.268,5.268,5.316,5.34,5.389,5.415,5.44,5.44,5.44,5.44,5.44,5.465,5.465,5.465,5.44,5.415,5.389,5.389,5.316,5.268,5.22,5.174,5.106,5.084,5.018,4.975,4.933,4.912,4.891,4.851,4.83,4.752,4.713,4.694,4.657,4.657,4.638,4.657,4.657,4.732,4.771,4.81,4.851,4.891,4.933,4.996,5.04,5.151,5.174,5.22,5.244,5.268,5.316,5.268,5.268,5.268,5.244,5.22,5.22,5.174,5.151,5.106,5.04,4.996,4.933,4.891,4.851,4.81,4.638,4.565,4.477,4.426,4.41,4.41,4.41,4.41,4.41,4.41,4.393,4.376,4.376,4.344,4.328,4.328,4.328,4.328,4.312,4.312,4.312
0.0,0.0,0.0,0.0,0.0,5.792,5.792,5.792,5.792,5.792,5.763,5.792,5.821,5.821,5.792,5.792,5.763,5.763,5.735,5.679,5.679,5.651,5.651,5.651,5.651,5.624,5.597,5.597,5.597,5.597,5.597,5.597,5.57,5.57,5.57,5.57,5.57,5.57,5.57,5.57,5.57,5.57,5.57,5.597,5.597,5.597,5.597,5.597,5.624,5.624,5.624,5.624,5.624,5.597,5.597,5.597,5.597,5.597,5.597,5.597,5.597,5.597,5.597,5.57,5.57,5.57,5.57,5.57,5.57,5.57,5.543,5.543,5.543,5.543,5.543,5.543,5.543,5.543,5.543,5.57,5.57,5.57,5.597,5.597,5.597,5.624,5.651,5.651,5.679,5.679,5.679,5.679,5.679,5.679,5.679,5.679,5.651,5.651,5.651,5.624,5.597,5.597,5.57,5.57,5.543,5.543,5.543,5.517,5.491,5.491,5.491,5.491,5.491,5.491,5.517,5.517,5.517,5.543,5.543,5.543,5.543,5.543,5.57,5.57,5.57,5.57,5.543,5.543,5.543,5.543,5.543,5.517,5.517,5.491,5.491,5.491,5.465,5.465,5.465,5.465,5.465,5.491,5.491,5.491,5.491,5.491,5.491,5.491,5.491,5.465,5.44,5.44,5.44,5.415,5.415,5.415,5.415,5.389,5.389,5.389,5.415,5.415,5.415,5.415,5.415,5.44,5.44,5.44,5.465,5.465,5.465,5.465,5.491,5.491,5.491,5.517,5.517,5.517,5.543,5.543,5.543,5.543,5.543,5.57,5.57,5.57,5.57,5.597,5.597,5.597,5.597,5.597,5.57,5.57,5.57,5.57,5.543,5.543,5.543,5.517,5.491,5.465,5.465,5.44,5.415,5.415,5.415,5.44,5.465,5.465,5.465,5.491,5.491,5.517,5.517,5.491,5.491,5.491,5.491,5.465,5.465,5.465,5.465,5.465,5.44,5.44,5.44,5.415,5.389,5.389,5.389,5.389,5.34,5.34,5.34,5.34,5.34,5.34,5.34,5.34,5.34,5.34,5.389,5.389,5.389,5.415,5.415,5.415,5.44,5.44,5.44,5.44,5.44,5.44,5.44,5.465,5.465,5.491,5.491,5.517,5.517,5.543,5.543,5.543,5.57,5.57,5.57,5.57,5.57,5.57,5.57,5.57,5.57,5.57,5.57,5.543,5.543,5.543,5.543,5.543,5.517,5.517,5.517,5.491,5.491,5.465,5.465,5.465,5.465,5.44,5.44,5.44,5.415,5.415,5.389,5.389,5.34,5.268,5.22,5.22,5.174,5.174,5.174,5.174,5.174,5.244,5.244,5.244,5.244,5.244,5.244,5.244,5.22,5.22,5.22,5.22,5.174,5.174,5.151,5.151,5.151,5.151,5.174,5.174,5.174,5.174,5.22,5.22,5.244,5.244,5.268,5.316,5.316,5.316,5.34,5.34,5.34,5.34,5.34,5.316,5.316,5.268,5.268,5.244,5.244,5.22,5.22,5.174,5.151,5.174,5.151,5.151,5.151,5.151,5.151,5.174,5.174,5.174,5.22,5.22,5.22,5.244,5.268,5.244,5.244,5.244,5.244,5.22,5.22,5.22,5.174,5.174,5.174,5.174,5.22,5.244,5.268,5.316,5.34,5.415,5.491,5.543,5.597,5.624,5.679,5.763,5.909,5.999,6.127,6.396,6.577,0.0,0.0,7.4155,0.0,0.0,8.315,8.623,8.957,9.239,9.313,9.542,9.783,9.865,9.865,9.95,9.95,9.865,9.783,9.701,9.542,9.239,9.239,9.024,8.819,8.623,8.497,8.375,7.919,7.866,7.813,7.761,7.813,7.866,7.919,7.973,7.973,8.028,8.084,8.084,8.084,8.141,8.141,8.141,8.198,8.141,8.141,8.084,8.028,8.028,7.761,7.659,7.368,7.098,6.848,6.69,6.577,6.432,6.032,5.85,5.707,5.624,5.57,5.517,5.44,5.415,5.34,5.268,5.244,5.244,5.268,5.316,5.316,5.34,5.389,5.415,5.44,5.44,5.44,5.44,5.44,5.465,5.465,5.465,5.465,5.44,5.415,5.389,5.34,5.316,5.244,5.22,5.174,5.151,5.084,5.04,4.996,4.954,4.933,4.891,4.871,4.83,4.771,4.752,4.713,4.694,4.657,4.657,4.694,4.732,4.771,4.81,4.83,4.871,4.912,4.975,5.018,5.106,5.174,5.22,5.244,5.268,5.268,5.268,5.268,5.268,5.244,5.22,5.22,5.174,5.106,5.084,5.04,4.975,4.933,4.871,4.83,4.791,4.657,4.583,4.512,4.477,4.46,4.46,4.46,4.46,4.46,4.426,4.41,4.393,4.393,4.36,4.344,4.344,4.328,4.328,4.328,4.312,4.312
0.0,0.0,0.0,0.0,0.0,5.792,5.792,5.763,5.763,5.763,5.763,5.792,5.792,5.821,5.792,5.792,5.763,5.763,5.735,5.735,5.679,5.679,5.651,5.651,5.651,5.651,5.624,5.597,5.597,5.597,5.597,5.57,5.57,5.57,5.57,5.57,5.57,5.57,5.57,5.57,5.57,5.57,5.57,5.57,5.597,5.597,5.597,5.597,5.597,5.597,5.597,5.597,5.597,5.597,5.597,5.597,5.597,5.597,5.597,5.597,5.597,5.57,5.57,5.57,5.57,5.57,5.57,5.57,5.543,5.543,5.543,5.543,5.543,5.543,5.543,5.543,5.543,5.543,5.543,5.57,5.57,5.57,5.597,5.597,5.597,5.624,5.651,5.651,5.679,5.679,5.679,5.679,5.679,5.679,5.679,5.679,5.679,5.651,5.624,5.624,5.597,5.597,5.57,5.57,5.543,5.543,5.543,5.517,5.517,5.491,5.491,5.491,5.517,5.517,5.517,5.543,5.543,5.543,5.543,5.543,5.543,5.543,5.57,5.57,5.57,5.543,5.543,5.543,5.543,5.543,5.543,5.543,5.517,5.517,5.517,5.491,5.491,5.491,5.491,5.491,5.491,5.491,5.491,5.491,5.491,5.491,5.465,5.465,5.44,5.44,5.415,5.389,5.389,5.389,5.34,5.389,5.389,5.389,5.389,5.389,5.389,5.389,5.415,5.415,5.415,5.415,5.44,5.44,5.465,5.465,5.465,5.491,5.491,5.491,5.491,5.491,5.517,5.517,5.517,5.517,5.543,5.543,5.543,5.543,5.57,5.57,5.57,5.57,5.57,5.57,5.57,5.57,5.57,5.57,5.57,5.543,5.543,5.543,5.543,5.517,5.491,5.465,5.44,5.415,5.415,5.415,5.415,5.44,5.44,5.465,5.465,5.491,5.491,5.517,5.517,5.517,5.491,5.491,5.491,5.491,5.491,5.465,5.465,5.465,5.465,5.44,5.44,5.44,5.44,5.415,5.415,5.389,5.389,5.389,5.389,5.389,5.389,5.389,5.389,5.389,5.389,5.415,5.415,5.415,5.415,5.415,5.415,5.415,5.44,5.44,5.44,5.465,5.465,5.465,5.465,5.465,5.465,5.491,5.491,5.491,5.517,5.543,5.543,5.543,5.57,5.57,5.57,5.57,5.57,5.57,5.57,5.57,5.57,5.543,5.543,5.543,5.543,5.543,5.517,5.517,5.491,5.491,5.491,5.491,5.465,5.465,5.44,5.44,5.44,5.44,5.44,5.415,5.415,5.389,5.389,5.389,5.34,5.268,5.268,5.22,5.22,5.174,5.174,5.174,5.22,5.244,5.268,5.268,5.268,5.268,5.274,5.268,5.244,5.244,5.22,5.22,5.174,5.174,5.174,5.151,5.151,5.174,5.174,5.174,5.22,5.22,5.22,5.244,5.244,5.268,5.316,5.316,5.316,5.34,5.34,5.34,5.34,5.316,5.316,5.268,5.244,5.244,5.22,5.22,5.22,5.22,5.174,5.174,5.151,5.106,5.106,5.106,5.106,5.106,5.106,5.106,5.151,5.151,5.174,5.22,5.22,5.22,5.244,5.244,5.244,5.244,5.244,5.22,5.244,5.22,5.22,5.22,5.22,5.22,5.244,5.316,5.34,5.34,5.415,5.465,5.543,5.597,5.651,5.679,5.792,5.939,6.083,6.225,6.467,6.614,0.0,0.0,0.0,8.141,8.436,8.73,9.024,9.542,9.95,10.212,10.302,10.302,10.394,10.394,10.394,10.394,10.394,10.394,10.302,10.302,10.212,10.123,10.123,9.865,9.542,9.313,9.024,8.819,8.623,8.497,8.436,8.141,8.084,8.084,8.084,8.084,8.084,8.141,8.084,8.141,8.141,8.141,8.141,8.141,8.141,8.141,8.141,8.084,8.028,7.973,7.761,7.559,7.322,7.055,6.808,6.69,6.577,6.432,6.225,5.85,5.735,5.651,5.597,5.543,5.465,5.415,5.34,5.316,5.268,5.268,5.268,5.316,5.316,5.34,5.389,5.415,5.44,5.44,5.44,5.44,5.44,5.465,5.465,5.465,5.465,5.44,5.44,5.415,5.389,5.34,5.316,5.268,5.244,5.22,5.174,5.106,5.084,5.04,4.996,4.954,4.912,4.891,4.851,4.83,4.791,4.752,4.732,4.732,4.732,4.752,4.791,4.81,4.83,4.871,4.912,4.954,4.996,5.084,5.151,5.174,5.22,5.244,5.268,5.268,5.244,5.244,5.244,5.174,5.174,5.151,5.106,5.084,4.996,4.975,4.912,4.871,4.83,4.81,4.657,4.601,4.565,4.53,4.512,4.512,4.512,4.512,4.512,4.477,4.46,4.426,4.41,4.393,4.376,4.36,4.36,4.344,4.328,4.328,4.312
0.0,0.0,0.0,0.0,0.0,5.763,5.763,5.763,5.763,5.763,5.763,5.792,5.792,5.792,5.792,5.792,5.763,5.763,5.763,5.707,5.707,5.679,5.679,5.651,5.651,5.651,5.651,5.624,5.597,5.597,5.597,5.57,5.57,5.57,5.57,5.57,5.57,5.57,5.57,5.543,5.543,5.543,5.57,5.57,5.57,5.57,5.57,5.597,5.597,5.597,5.57,5.57,5.57,5.57,5.597,5.597,5.57,5.57,5.57,5.57,5.57,5.57,5.57,5.57,5.57,5.57,5.57,5.57,5.57,5.543,5.543,5.543,5.543,5.543,5.543,5.543,5.543,5.543,5.543,5.57,5.57,5.57,5.597,5.597,5.597,5.624,5.651,5.651,5.679,5.679,5.679,5.707,5.707,5.679,5.679,5.679,5.651,5.651,5.624,5.597,5.597,5.57,5.57,5.57,5.543,5.543,5.543,5.517,5.517,5.491,5.491,5.517,5.517,5.517,5.543,5.543,5.543,5.543,5.543,5.543,5.543,5.57,5.57,5.57,5.57,5.57,5.57,5.57,5.543,5.543,5.543,5.543,5.543,5.543,5.517,5.517,5.517,5.517,5.491,5.491,5.491,5.491,5.491,5.491,5.491,5.465,5.465,5.465,5.415,5.415,5.389,5.34,5.34,5.316,5.316,5.316,5.316,5.316,5.34,5.34,5.34,5.389,5.415,5.415,5.415,5.415,5.44,5.44,5.465,5.465,5.465,5.465,5.465,5.491,5.491,5.491,5.491,5.491,5.491,5.517,5.517,5.517,5.543,5.543,5.543,5.57,5.57,5.57,5.57,5.57,5.57,5.57,5.57,5.57,5.543,5.543,5.543,5.543,5.517,5.491,5.465,5.44,5.415,5.415,5.415,5.415,5.415,5.415,5.44,5.44,5.465,5.491,5.491,5.517,5.517,5.517,5.491,5.491,5.491,5.491,5.491,5.491,5.491,5.491,5.491,5.465,5.465,5.465,5.44,5.44,5.44,5.44,5.44,5.415,5.415,5.415,5.415,5.415,5.44,5.44,5.44,5.44,5.44,5.44,5.415,5.44,5.44,5.44,5.44,5.44,5.44,5.465,5.465,5.465,5.465,5.465,5.465,5.491,5.491,5.517,5.517,5.543,5.543,5.543,5.57,5.57,5.57,5.543,5.543,5.543,5.543,5.543,5.543,5.543,5.543,5.543,5.517,5.517,5.517,5.491,5.491,5.491,5.465,5.465,5.465,5.44,5.44,5.415,5.415,5.415,5.415,5.415,5.389,5.389,5.389,5.389,5.34,5.316,5.268,5.244,5.244,5.22,5.22,5.22,5.244,5.268,5.292,5.316,5.316,5.316,5.316,5.316,5.268,5.244,5.244,5.22,5.22,5.174,5.174,5.174,5.174,5.174,5.22,5.22,5.22,5.22,5.244,5.268,5.268,5.316,5.316,5.34,5.34,5.34,5.34,5.34,5.316,5.316,5.316,5.268,5.244,5.244,5.22,5.22,5.22,5.22,5.174,5.174,5.151,5.151,5.106,5.106,5.084,5.084,5.106,5.106,5.106,5.106,5.151,5.151,5.22,5.22,5.22,5.244,5.244,5.244,5.244,5.268,5.244,5.268,5.244,5.244,5.244,5.244,5.316,5.34,5.415,5.415,5.465,5.543,5.57,5.651,5.735,5.821,5.9430000000000005,6.032,6.259,6.467,6.652,6.888,0.0,0.0,8.256,8.5465,8.623,9.542,10.123,10.302,10.583,10.68,10.68,10.68,10.779,10.779,10.779,10.779,10.68,10.68,10.583,10.488,10.394,10.394,10.302,10.212,10.123,10.036,9.783,9.313,9.166,8.955,8.753,8.56,8.497,8.256,8.198,8.198,8.198,8.198,8.198,8.198,8.198,8.141,8.141,8.141,8.141,8.141,8.141,8.084,8.028,8.028,7.919,7.511,7.231,6.971,6.808,6.69,6.577,6.432,6.225,5.909,5.763,5.679,5.597,5.57,5.517,5.44,5.415,5.34,5.268,5.268,5.268,5.316,5.316,5.34,5.389,5.415,5.44,5.44,5.44,5.44,5.44,5.465,5.465,5.465,5.465,5.465,5.44,5.44,5.415,5.415,5.389,5.34,5.316,5.316,5.268,5.244,5.22,5.151,5.106,5.04,4.996,4.954,4.912,4.871,4.871,4.83,4.81,4.81,4.791,4.81,4.81,4.83,4.851,4.871,4.912,4.954,4.996,5.084,5.106,5.174,5.22,5.244,5.244,5.268,5.244,5.22,5.22,5.174,5.151,5.106,5.084,5.018,4.996,4.954,4.912,4.871,4.83,4.81,4.752,4.657,4.601,4.565,4.565,4.565,4.565,4.565,4.565,4.53,4.512,4.477,4.46,4.426,4.426,4.393,4.393,4.376,4.36,4.328,4.328
0.0,0.0,0.0,0.0,0.0,0.0,0.0,5.763,5.735,5.735,5.735,5.735,5.763,5.763,5.763,5.763,5.763,5.763,5.735,5.735,5.707,5.707,5.679,5.679,5.679,5.679,5.651,5.651,5.624,5.624,5.597,5.597,5.57,5.57,5.57,5.57,5.57,5.57,5.57,5.57,5.543,5.57,5.57,5.57,5.57,5.57,5.57,5.57,5.57,5.57,5.57,5.57,5.543,5.543,5.57,5.57,5.57,5.57,5.57,5.57,5.57,5.57,5.57,5.57,5.57,5.57,5.57,5.57,5.57,5.57,5.543,5.543,5.543,5.543,5.543,5.543,5.543,5.543,5.543,5.57,5.57,5.57,5.597,5.597,5.597,5.624,5.651,5.651,5.679,5.679,5.679,5.679,5.679,5.679,5.679,5.651,5.651,5.624,5.597,5.597,5.597,5.57,5.57,5.57,5.543,5.543,5.543,5.517,5.517,5.517,5.491,5.517,5.517,5.543,5.543,5.543,5.543,5.543,5.543,5.57,5.57,5.57,5.57,5.57,5.57,5.57,5.57,5.57,5.57,5.543,5.543,5.543,5.543,5.543,5.543,5.543,5.543,5.543,5.517,5.517,5.517,5.517,5.517,5.517,5.491,5.491,5.465,5.44,5.389,5.389,5.34,5.316,5.316,5.268,5.268,5.268,5.316,5.316,5.316,5.34,5.34,5.389,5.389,5.415,5.415,5.415,5.44,5.44,5.44,5.465,5.465,5.465,5.465,5.465,5.465,5.491,5.491,5.491,5.491,5.517,5.517,5.517,5.517,5.543,5.543,5.543,5.543,5.543,5.543,5.543,5.543,5.543,5.543,5.543,5.543,5.543,5.517,5.517,5.491,5.491,5.465,5.415,5.415,5.415,5.415,5.415,5.415,5.415,5.44,5.44,5.465,5.491,5.491,5.517,5.517,5.517,5.517,5.491,5.491,5.491,5.491,5.491,5.491,5.491,5.491,5.491,5.491,5.491,5.465,5.465,5.465,5.465,5.44,5.44,5.44,5.44,5.44,5.44,5.44,5.44,5.44,5.44,5.44,5.465,5.44,5.44,5.44,5.44,5.44,5.44,5.44,5.465,5.465,5.465,5.465,5.465,5.491,5.491,5.517,5.517,5.517,5.543,5.543,5.543,5.543,5.543,5.543,5.543,5.543,5.543,5.543,5.543,5.517,5.517,5.517,5.517,5.491,5.491,5.491,5.491,5.465,5.465,5.465,5.465,5.465,5.44,5.44,5.415,5.415,5.415,5.415,5.415,5.415,5.389,5.389,5.389,5.34,5.316,5.268,5.268,5.268,5.244,5.244,5.244,5.256,5.268,5.316,5.316,5.34,5.34,5.34,5.34,5.316,5.268,5.244,5.22,5.22,5.22,5.174,5.174,5.174,5.22,5.244,5.244,5.244,5.244,5.268,5.268,5.316,5.34,5.34,5.34,5.34,5.34,5.389,5.34,5.34,5.316,5.316,5.268,5.244,5.244,5.244,5.22,5.244,5.22,5.174,5.174,5.174,5.151,5.151,5.151,5.151,5.106,5.106,5.106,5.106,5.151,5.151,5.174,5.174,5.22,5.22,5.244,5.244,5.268,5.268,5.244,5.268,5.268,5.268,5.268,5.316,5.316,5.389,5.389,5.44,5.465,5.543,5.597,5.651,5.763,5.939,6.0115,6.127,6.396,6.577,6.69,6.971,7.559,8.028,8.375,8.654,9.166,10.036,10.394,10.779,10.982,11.194,11.302,11.302,11.194,11.194,11.087,11.087,10.982,10.88,10.779,10.68,10.68,10.583,10.583,10.488,10.394,10.302,10.212,10.123,9.95,9.542,9.313,9.166,9.024,8.819,8.623,8.497,8.436,8.256,8.256,8.198,8.198,8.198,8.198,8.198,8.141,8.141,8.141,8.084,8.084,8.028,7.973,7.709,7.511,7.231,6.971,6.768,6.69,6.577,6.467,6.259,5.939,5.821,5.707,5.651,5.597,5.543,5.491,5.44,5.389,5.316,5.316,5.316,5.316,5.34,5.34,5.389,5.389,5.415,5.44,5.44,5.44,5.44,5.44,5.465,5.465,5.465,5.465,5.465,5.465,5.465,5.44,5.415,5.415,5.415,5.389,5.389,5.34,5.316,5.268,5.244,5.22,5.151,5.084,4.996,4.954,4.912,4.891,4.851,4.851,4.83,4.83,4.851,4.851,4.871,4.891,4.912,4.954,4.996,5.084,5.106,5.151,5.22,5.22,5.244,5.244,5.244,5.22,5.174,5.174,5.151,5.084,5.04,5.018,4.975,4.954,4.912,4.871,4.83,4.81,4.771,4.694,4.657,4.638,4.638,4.638,4.638,4.638,4.601,4.601,4.565,4.565,4.53,4.512,4.46,4.46,4.426,4.393,4.376,4.36,4.328
0.0,0.0,0.0,0.0,0.0,0.0,0.0,0.0,5.707,5.707,5.707,5.707,5.707,5.707,5.707,5.735,5.707,5.735,5.735,5.707,5.707,5.679,5.679,5.679,5.679,5.679,5.651,5.651,5.624,5.624,5.597,5.597,5.57,5.57,5.57,5.57,5.57,5.57,5.543,5.543,5.543,5.57,5.57,5.57,5.57,5.57,5.57,5.57,5.543,5.543,5.543,5.543,5.517,5.517,5.543,5.543,5.543,5.57,5.57,5.57,5.57,5.57,5.57,5.57,5.57,5.57,5.57,5.57,5.57,5.57,5.57,5.543,5.543,5.543,5.543,5.543,5.543,5.543,5.543,5.543,5.57,5.57,5.57,5.597,5.597,5.624,5.651,5.651,5.651,5.679,5.679,5.679,5.679,5.679,5.679,5.651,5.651,5.624,5.597,5.597,5.57,5.57,5.57,5.543,5.543,5.543,5.543,5.517,5.517,5.517,5.517,5.543,5.543,5.543,5.543,5.543,5.57,5.57,5.57,5.57,5.57,5.57,5.57,5.57,5.57,5.57,5.57,5.57,5.57,5.57,5.57,5.57,5.543,5.543,5.543,5.543,5.543,5.543,5.543,5.543,5.543,5.543,5.517,5.517,5.517,5.491,5.465,5.44,5.389,5.34,5.316,5.316,5.268,5.268,5.268,5.268,5.268,5.316,5.316,5.34,5.34,5.389,5.389,5.415,5.415,5.415,5.44,5.44,5.44,5.44,5.465,5.465,5.465,5.491,5.491,5.491,5.491,5.491,5.491,5.517,5.517,5.517,5.517,5.517,5.543,5.543,5.543,5.543,5.543,5.543,5.543,5.543,5.543,5.543,5.517,5.517,5.517,5.491,5.491,5.465,5.44,5.415,5.415,5.415,5.415,5.415,5.415,5.415,5.44,5.465,5.465,5.491,5.491,5.517,5.491,5.491,5.491,5.491,5.491,5.491,5.491,5.491,5.491,5.491,5.491,5.491,5.491,5.491,5.491,5.491,5.465,5.465,5.465,5.465,5.465,5.465,5.465,5.465,5.465,5.465,5.465,5.465,5.465,5.465,5.465,5.44,5.44,5.44,5.44,5.44,5.465,5.465,5.465,5.465,5.465,5.465,5.465,5.465,5.491,5.491,5.491,5.517,5.517,5.517,5.517,5.517,5.517,5.491,5.491,5.491,5.491,5.491,5.491,5.491,5.491,5.491,5.491,5.491,5.491,5.465,5.465,5.465,5.465,5.465,5.44,5.44,5.44,5.44,5.44,5.415,5.415,5.415,5.415,5.415,5.415,5.389,5.389,5.34,5.316,5.268,5.268,5.244,5.244,5.244,5.2829999999999995,5.316,5.34,5.34,5.34,5.34,5.34,5.389,5.34,5.316,5.268,5.244,5.244,5.244,5.22,5.22,5.22,5.244,5.244,5.244,5.268,5.268,5.268,5.268,5.316,5.316,5.34,5.34,5.34,5.34,5.34,5.34,5.316,5.316,5.268,5.268,5.268,5.244,5.244,5.244,5.244,5.244,5.244,5.244,5.244,5.22,5.244,5.22,5.22,5.174,5.174,5.174,5.151,5.151,5.174,5.174,5.22,5.22,5.244,5.244,5.268,5.268,5.268,5.316,5.316,5.34,5.34,5.34,5.389,5.34,5.415,5.44,5.491,5.517,5.57,5.651,5.735,5.909,6.041499999999999,6.159,6.361,6.54,6.69,6.808,7.322,7.973,8.256,8.45625,8.819,9.783,10.302,10.68,11.194,11.302,11.302,11.526,11.302,11.302,11.526,11.302,11.302,11.302,11.194,11.087,10.982,10.88,10.779,10.68,10.583,10.583,10.394,10.394,10.212,10.212,10.036,9.701,9.464,9.239,9.024,8.819,8.623,8.56,8.436,8.375,8.256,8.256,8.198,8.198,8.198,8.198,8.141,8.141,8.084,8.084,8.028,7.973,7.709,7.415,7.231,6.971,6.808,6.69,6.614,6.54,6.396,6.225,5.939,5.792,5.679,5.624,5.57,5.543,5.465,5.415,5.34,5.316,5.316,5.34,5.34,5.34,5.389,5.389,5.415,5.415,5.44,5.44,5.44,5.44,5.44,5.465,5.465,5.465,5.465,5.465,5.465,5.465,5.44,5.44,5.44,5.44,5.44,5.415,5.415,5.415,5.389,5.34,5.268,5.22,5.151,5.084,5.018,4.996,4.954,4.912,4.891,4.891,4.891,4.891,4.891,4.912,4.933,4.975,4.996,5.084,5.106,5.151,5.174,5.22,5.22,5.22,5.22,5.22,5.174,5.151,5.106,5.084,5.04,5.018,4.975,4.933,4.912,4.871,4.83,4.81,4.791,4.771,4.713,4.694,4.694,4.713,4.713,4.713,4.694,4.657,4.638,4.601,4.583,4.565,4.53,4.477,4.46,4.426,4.393,4.36,4.344
0.0,0.0,0.0,0.0,0.0,0.0,0.0,0.0,5.679,5.679,5.679,5.679,5.679,5.679,5.679,5.679,5.679,5.707,5.707,5.707,5.707,5.679,5.679,5.679,5.679,5.679,5.679,5.651,5.651,5.651,5.624,5.597,5.597,5.57,5.57,5.57,5.57,5.57,5.57,5.57,5.543,5.543,5.57,5.57,5.57,5.543,5.543,5.543,5.543,5.517,5.517,5.517,5.491,5.491,5.517,5.543,5.543,5.543,5.57,5.57,5.57,5.57,5.57,5.57,5.57,5.57,5.57,5.57,5.57,5.57,5.57,5.57,5.57,5.543,5.543,5.543,5.543,5.543,5.543,5.543,5.57,5.57,5.57,5.597,5.597,5.597,5.624,5.651,5.651,5.679,5.679,5.679,5.679,5.679,5.651,5.651,5.624,5.597,5.597,5.57,5.57,5.57,5.543,5.543,5.543,5.543,5.543,5.517,5.517,5.517,5.517,5.543,5.543,5.543,5.543,5.57,5.57,5.57,5.57,5.57,5.57,5.57,5.57,5.57,5.57,5.57,5.57,5.57,5.57,5.57,5.57,5.57,5.57,5.57,5.543,5.543,5.543,5.543,5.543,5.543,5.543,5.543,5.517,5.517,5.517,5.491,5.465,5.389,5.34,5.34,5.316,5.268,5.244,5.244,5.268,5.268,5.268,5.316,5.316,5.34,5.34,5.389,5.415,5.415,5.415,5.415,5.44,5.44,5.44,5.465,5.465,5.465,5.491,5.491,5.491,5.491,5.491,5.491,5.491,5.517,5.517,5.517,5.517,5.517,5.517,5.543,5.543,5.517,5.517,5.517,5.517,5.517,5.517,5.517,5.517,5.491,5.491,5.491,5.465,5.465,5.415,5.415,5.415,5.415,5.415,5.415,5.415,5.415,5.44,5.465,5.491,5.491,5.491,5.517,5.517,5.517,5.517,5.491,5.491,5.491,5.491,5.491,5.491,5.491,5.491,5.491,5.491,5.491,5.491,5.491,5.491,5.465,5.465,5.465,5.465,5.465,5.465,5.465,5.465,5.465,5.465,5.465,5.465,5.465,5.465,5.465,5.44,5.44,5.44,5.44,5.44,5.465,5.44,5.44,5.44,5.44,5.465,5.465,5.465,5.465,5.465,5.465,5.465,5.465,5.465,5.465,5.465,5.465,5.465,5.465,5.465,5.465,5.465,5.465,5.465,5.465,5.465,5.465,5.465,5.465,5.465,5.465,5.465,5.465,5.465,5.44,5.44,5.44,5.44,5.44,5.415,5.415,5.415,5.389,5.389,5.389,5.389,5.34,5.34,5.316,5.316,5.316,5.268,5.268,5.316,5.316,5.34,5.389,5.389,5.389,5.389,5.389,5.389,5.34,5.268,5.268,5.244,5.244,5.244,5.244,5.244,5.244,5.268,5.268,5.268,5.316,5.316,5.316,5.316,5.316,5.34,5.34,5.34,5.34,5.389,5.34,5.34,5.34,5.34,5.316,5.316,5.316,5.316,5.316,5.34,5.34,5.34,5.34,5.34,5.34,5.316,5.316,5.268,5.268,5.244,5.244,5.22,5.22,5.244,5.244,5.244,5.244,5.268,5.316,5.268,5.268,5.316,5.316,5.34,5.34,5.389,5.389,5.389,5.415,5.44,5.465,5.543,5.57,5.624,5.707,5.909,6.034,6.159,6.396,6.54,6.652,6.808,7.055,7.659,8.028,8.2015,8.375,9.166,9.865,10.394,10.68,11.194,11.302,11.302,11.526,11.641,11.641,11.641,11.641,11.641,11.526,11.526,11.302,11.194,11.087,10.982,10.88,10.68,10.68,10.583,10.488,10.394,10.302,10.212,10.036,9.701,9.464,9.239,9.024,8.819,8.623,8.497,8.375,8.315,8.256,8.256,8.198,8.198,8.198,8.141,8.141,8.084,8.084,8.028,7.973,7.866,7.415,7.231,6.971,6.848,6.729,6.652,6.577,6.467,6.361,6.225,5.909,5.763,5.651,5.597,5.543,5.517,5.44,5.389,5.34,5.316,5.34,5.34,5.34,5.389,5.389,5.389,5.415,5.415,5.415,5.44,5.44,5.44,5.44,5.44,5.44,5.44,5.465,5.465,5.465,5.465,5.465,5.465,5.491,5.465,5.465,5.465,5.44,5.44,5.415,5.389,5.34,5.268,5.22,5.151,5.106,5.04,5.018,4.975,4.933,4.933,4.933,4.933,4.933,4.975,4.996,5.018,5.084,5.106,5.106,5.174,5.22,5.22,5.22,5.22,5.174,5.151,5.106,5.084,5.04,5.018,4.996,4.975,4.933,4.912,4.891,4.851,4.83,4.81,4.791,4.771,4.752,4.732,4.752,4.752,4.732,4.732,4.713,4.694,4.657,4.601,4.583,4.565,4.512,4.477,4.46,4.41,4.376,4.344
0.0,0.0,0.0,0.0,0.0,0.0,0.0,0.0,5.651,5.651,5.624,5.651,5.651,5.651,5.651,5.651,5.679,5.679,5.679,5.679,5.679,5.679,5.679,5.679,5.679,5.679,5.679,5.679,5.651,5.651,5.651,5.597,5.597,5.597,5.597,5.57,5.57,5.57,5.57,5.57,5.57,5.57,5.57,5.57,5.57,5.543,5.543,5.543,5.517,5.517,5.491,5.491,5.465,5.491,5.517,5.517,5.543,5.543,5.57,5.57,5.57,5.57,5.57,5.57,5.57,5.57,5.57,5.57,5.57,5.57,5.57,5.57,5.57,5.543,5.543,5.543,5.543,5.543,5.543,5.543,5.57,5.57,5.57,5.597,5.597,5.597,5.624,5.651,5.651,5.651,5.679,5.679,5.679,5.651,5.651,5.624,5.597,5.597,5.57,5.57,5.57,5.57,5.543,5.543,5.543,5.543,5.543,5.543,5.543,5.517,5.543,5.543,5.543,5.57,5.57,5.57,5.57,5.57,5.57,5.57,5.57,5.57,5.57,5.57,5.57,5.57,5.57,5.57,5.57,5.57,5.57,5.57,5.57,5.57,5.57,5.57,5.57,5.57,5.543,5.543,5.543,5.543,5.543,5.517,5.517,5.465,5.465,5.389,5.34,5.34,5.316,5.268,5.268,5.244,5.268,5.268,5.316,5.34,5.34,5.389,5.389,5.415,5.415,5.415,5.44,5.44,5.465,5.465,5.465,5.465,5.465,5.465,5.491,5.491,5.491,5.491,5.491,5.491,5.491,5.491,5.517,5.517,5.517,5.517,5.517,5.517,5.517,5.491,5.491,5.517,5.517,5.517,5.491,5.491,5.491,5.491,5.491,5.465,5.465,5.44,5.415,5.415,5.415,5.415,5.415,5.415,5.415,5.415,5.44,5.465,5.491,5.491,5.517,5.517,5.517,5.517,5.517,5.517,5.491,5.491,5.491,5.491,5.491,5.491,5.491,5.491,5.491,5.491,5.491,5.491,5.465,5.465,5.465,5.465,5.465,5.465,5.465,5.465,5.465,5.465,5.465,5.465,5.465,5.465,5.465,5.465,5.44,5.44,5.44,5.44,5.44,5.44,5.44,5.415,5.415,5.415,5.415,5.415,5.415,5.44,5.415,5.415,5.415,5.415,5.415,5.415,5.415,5.415,5.415,5.415,5.415,5.44,5.44,5.44,5.44,5.44,5.465,5.465,5.465,5.465,5.465,5.465,5.465,5.465,5.465,5.465,5.465,5.44,5.44,5.415,5.415,5.415,5.415,5.389,5.389,5.389,5.389,5.34,5.34,5.34,5.34,5.316,5.316,5.316,5.316,5.34,5.389,5.389,5.389,5.389,5.389,5.389,5.389,5.389,5.34,5.316,5.316,5.268,5.268,5.268,5.268,5.316,5.316,5.316,5.316,5.316,5.316,5.34,5.34,5.34,5.389,5.389,5.389,5.389,5.389,5.389,5.389,5.389,5.34,5.389,5.389,5.34,5.389,5.415,5.415,5.415,5.415,5.415,5.415,5.415,5.415,5.389,5.34,5.316,5.34,5.316,5.268,5.268,5.268,5.316,5.316,5.316,5.34,5.389,5.389,5.389,5.389,5.389,5.389,5.389,5.389,5.415,5.44,5.491,5.517,5.543,5.597,5.651,5.763,5.909,6.034,6.159,6.432,6.577,6.652,6.768,6.971,7.322,7.761,8.084,8.2295,8.375,9.079,9.783,10.302,10.583,10.982,11.194,11.526,11.641,11.641,11.641,11.879,11.879,11.879,11.879,11.641,11.526,11.302,11.194,11.087,10.982,10.88,10.68,10.68,10.583,10.394,10.394,10.302,10.212,10.123,9.701,9.464,9.239,8.955,8.753,8.56,8.436,8.315,8.256,8.256,8.198,8.198,8.198,8.141,8.084,8.084,8.084,8.028,7.973,7.866,7.511,7.322,7.098,6.888,6.808,6.69,6.614,6.54,6.467,6.361,6.032,5.821,5.707,5.651,5.57,5.543,5.465,5.415,5.34,5.316,5.316,5.34,5.34,5.34,5.389,5.389,5.389,5.389,5.415,5.415,5.415,5.415,5.44,5.44,5.415,5.415,5.44,5.465,5.44,5.465,5.465,5.465,5.491,5.491,5.491,5.491,5.491,5.491,5.465,5.44,5.415,5.389,5.34,5.268,5.244,5.22,5.151,5.084,5.018,4.996,4.975,4.975,4.954,4.975,4.996,5.018,5.084,5.106,5.106,5.151,5.174,5.22,5.22,5.22,5.174,5.151,5.106,5.084,5.04,5.018,4.996,4.954,4.933,4.912,4.891,4.851,4.851,4.83,4.81,4.81,4.791,4.771,4.791,4.791,4.771,4.771,4.732,4.713,4.694,4.638,4.601,4.565,4.53,4.512,4.46,4.41,4.393,4.36
0.0,0.0,0.0,0.0,0.0,0.0,0.0,0.0,5.597,5.597,5.597,5.597,5.597,5.597,5.624,5.651,5.651,5.651,5.679,5.679,5.679,5.679,5.679,5.707,5.707,5.679,5.679,5.679,5.651,5.651,5.651,5.651,5.597,5.597,5.597,5.597,5.597,5.597,5.57,5.57,5.57,5.57,5.57,5.57,5.57,5.543,5.543,5.517,5.491,5.465,5.44,5.44,5.44,5.44,5.491,5.517,5.543,5.543,5.543,5.57,5.57,5.57,5.57,5.57,5.57,5.57,5.597,5.597,5.57,5.57,5.57,5.57,5.57,5.543,5.543,5.543,5.543,5.543,5.543,5.543,5.57,5.57,5.57,5.597,5.597,5.597,5.597,5.624,5.651,5.651,5.651,5.651,5.651,5.651,5.624,5.624,5.597,5.57,5.57,5.57,5.543,5.543,5.543,5.543,5.543,5.543,5.543,5.543,5.543,5.543,5.543,5.57,5.57,5.57,5.57,5.57,5.57,5.57,5.57,5.57,5.57,5.57,5.57,5.57,5.57,5.57,5.57,5.57,5.57,5.57,5.57,5.57,5.57,5.57,5.57,5.57,5.57,5.57,5.57,5.57,5.543,5.543,5.543,5.543,5.517,5.491,5.465,5.389,5.389,5.34,5.316,5.316,5.316,5.316,5.316,5.34,5.34,5.389,5.415,5.415,5.44,5.44,5.465,5.491,5.491,5.491,5.491,5.491,5.491,5.491,5.465,5.465,5.491,5.491,5.491,5.491,5.491,5.491,5.517,5.517,5.517,5.517,5.517,5.517,5.517,5.491,5.491,5.491,5.491,5.491,5.491,5.491,5.491,5.491,5.491,5.491,5.465,5.465,5.465,5.44,5.415,5.415,5.415,5.415,5.415,5.415,5.415,5.44,5.44,5.465,5.491,5.491,5.491,5.491,5.491,5.517,5.517,5.491,5.491,5.491,5.491,5.491,5.465,5.465,5.465,5.465,5.465,5.491,5.491,5.465,5.465,5.465,5.465,5.465,5.465,5.465,5.465,5.465,5.465,5.465,5.465,5.465,5.465,5.465,5.465,5.44,5.44,5.44,5.44,5.415,5.415,5.415,5.415,5.415,5.415,5.389,5.415,5.415,5.389,5.389,5.389,5.389,5.34,5.34,5.34,5.34,5.34,5.34,5.34,5.389,5.389,5.389,5.389,5.415,5.415,5.415,5.44,5.44,5.44,5.44,5.44,5.44,5.44,5.44,5.465,5.465,5.465,5.44,5.44,5.44,5.415,5.415,5.415,5.415,5.415,5.389,5.389,5.34,5.34,5.34,5.34,5.34,5.34,5.34,5.34,5.389,5.389,5.389,5.389,5.415,5.415,5.415,5.389,5.389,5.389,5.34,5.316,5.316,5.34,5.316,5.34,5.34,5.34,5.34,5.34,5.34,5.34,5.34,5.34,5.389,5.389,5.389,5.415,5.415,5.415,5.415,5.415,5.415,5.415,5.44,5.44,5.44,5.44,5.465,5.491,5.491,5.491,5.491,5.491,5.465,5.491,5.44,5.415,5.415,5.415,5.389,5.389,5.34,5.389,5.415,5.415,5.415,5.415,5.44,5.44,5.465,5.44,5.415,5.44,5.44,5.465,5.491,5.543,5.57,5.597,5.651,5.735,5.85,5.961,0.0,0.0,6.504,6.614,6.69,6.768,6.929,7.186,7.511,7.866,8.084,8.2295,8.375,0.0,9.6625,10.212,10.583,10.982,11.194,11.526,11.641,11.879,12.001,12.254,12.254,12.254,12.254,12.001,11.879,11.641,11.526,11.302,11.087,10.982,10.88,10.68,10.583,10.488,10.394,10.302,10.212,10.123,9.701,9.464,9.166,8.819,8.623,8.497,8.375,8.256,8.256,8.198,8.198,8.198,8.141,8.084,8.084,8.028,8.028,7.973,7.919,7.813,7.511,7.322,7.098,6.971,6.848,6.729,6.69,6.614,6.54,6.467,6.327,5.909,5.763,5.651,5.597,5.543,5.465,5.415,5.34,5.316,5.316,5.316,5.316,5.316,5.34,5.34,5.389,5.389,5.389,5.389,5.389,5.415,5.415,5.415,5.415,5.415,5.415,5.415,5.44,5.44,5.44,5.465,5.491,5.491,5.491,5.491,5.491,5.517,5.491,5.491,5.465,5.44,5.44,5.389,5.34,5.268,5.22,5.151,5.084,5.084,5.018,4.996,4.975,4.996,5.018,5.04,5.084,5.106,5.106,5.151,5.174,5.22,5.22,5.174,5.174,5.151,5.106,5.084,5.04,5.018,4.996,4.954,4.933,4.912,4.891,4.851,4.851,4.83,4.81,4.81,4.791,4.791,4.791,4.791,4.771,4.771,4.752,4.732,4.694,4.657,4.601,4.583,4.53,4.512,4.46,4.41,4.376,4.328
0.0,0.0,0.0,0.0,0.0,0.0,0.0,0.0,5.57,5.57,5.57,5.597,5.597,5.597,5.597,5.624,5.651,5.651,5.679,5.679,5.679,5.679,5.707,5.679,5.679,5.679,5.679,5.679,5.679,5.651,5.651,5.651,5.624,5.624,5.624,5.597,5.597,5.597,5.597,5.597,5.597,5.57,5.57,5.57,5.57,5.543,5.517,5.491,5.465,5.415,5.415,5.415,5.415,5.44,5.465,5.491,5.517,5.543,5.543,5.57,5.57,5.57,5.57,5.57,5.57,5.597,5.597,5.597,5.597,5.57,5.57,5.57,5.57,5.543,5.543,5.543,5.543,5.543,5.543,5.543,5.543,5.543,5.57,5.57,5.57,5.597,5.597,5.624,5.624,5.651,5.651,5.651,5.624,5.624,5.597,5.597,5.57,5.57,5.57,5.543,5.543,5.543,5.543,5.543,5.543,5.543,5.543,5.543,5.543,5.543,5.57,5.57,5.57,5.57,5.597,5.597,5.597,5.597,5.597,5.597,5.597,5.597,5.597,5.597,5.597,5.597,5.57,5.57,5.57,5.57,5.57,5.57,5.57,5.57,5.57,5.57,5.57,5.57,5.57,5.57,5.57,5.543,5.543,5.543,5.517,5.517,5.465,5.415,5.415,5.389,5.389,5.389,5.389,5.389,5.389,5.415,5.415,5.44,5.44,5.465,5.517,5.517,5.517,5.517,5.517,5.517,5.491,5.491,5.465,5.465,5.465,5.465,5.465,5.465,5.465,5.491,5.491,5.491,5.517,5.517,5.517,5.517,5.517,5.517,5.517,5.491,5.491,5.491,5.491,5.491,5.491,5.491,5.491,5.491,5.491,5.465,5.465,5.465,5.44,5.44,5.44,5.415,5.415,5.415,5.415,5.44,5.44,5.44,5.44,5.465,5.491,5.491,5.491,5.491,5.491,5.491,5.491,5.491,5.465,5.465,5.465,5.465,5.465,5.465,5.465,5.465,5.465,5.465,5.465,5.465,5.465,5.465,5.465,5.465,5.465,5.465,5.465,5.465,5.465,5.465,5.465,5.465,5.465,5.465,5.44,5.44,5.44,5.44,5.44,5.415,5.415,5.415,5.389,5.389,5.389,5.389,5.389,5.34,5.34,5.34,5.316,5.316,5.316,5.316,5.268,5.268,5.268,5.316,5.316,5.316,5.316,5.34,5.34,5.34,5.389,5.415,5.415,5.415,5.415,5.44,5.44,5.44,5.44,5.44,5.44,5.44,5.44,5.44,5.44,5.44,5.44,5.415,5.415,5.415,5.415,5.415,5.415,5.389,5.389,5.389,5.389,5.389,5.389,5.389,5.389,5.415,5.415,5.415,5.415,5.415,5.415,5.415,5.415,5.415,5.389,5.389,5.389,5.34,5.34,5.34,5.34,5.34,5.34,5.34,5.34,5.34,5.423,5.415,5.465,5.517,5.57,5.597,5.624,5.679,5.679,5.679,5.651,5.651,5.597,5.57,5.57,5.543,5.517,5.543,5.543,5.543,5.543,5.543,5.543,5.543,5.543,5.517,5.491,5.491,5.465,5.465,5.44,5.44,5.465,5.465,5.491,5.491,5.517,5.517,5.517,5.543,5.543,5.491,5.491,5.491,5.517,5.543,5.57,5.597,5.651,5.735,5.837,5.939,6.159,0.0,0.0,6.69,6.729,6.848,6.971,7.186,7.368,7.559,7.919,8.084,8.2295,8.375,8.9585,9.542,10.212,10.583,10.982,11.194,11.641,11.879,12.001,12.254,12.254,12.384,12.384,12.384,12.254,12.001,12.001,11.641,11.526,11.194,11.087,10.88,10.68,10.68,10.488,10.394,10.302,10.212,10.123,9.701,9.313,9.024,8.753,8.56,8.436,8.315,8.256,8.198,8.198,8.141,8.084,8.084,8.028,7.973,7.973,7.866,7.813,7.866,7.813,7.511,7.368,7.186,6.971,6.929,6.808,6.729,6.652,6.577,6.54,6.396,6.032,5.821,5.679,5.624,5.543,5.491,5.415,5.34,5.316,5.316,5.316,5.316,5.316,5.316,5.34,5.34,5.34,5.34,5.34,5.34,5.389,5.389,5.389,5.34,5.389,5.389,5.389,5.415,5.415,5.415,5.44,5.465,5.465,5.491,5.491,5.491,5.517,5.517,5.517,5.491,5.491,5.465,5.44,5.415,5.34,5.268,5.22,5.151,5.106,5.084,5.04,4.996,5.018,5.04,5.04,5.084,5.106,5.151,5.151,5.151,5.174,5.174,5.174,5.151,5.106,5.084,5.04,5.04,5.018,4.996,4.954,4.933,4.912,4.891,4.871,4.851,4.851,4.83,4.81,4.81,4.791,4.791,4.771,4.771,4.752,4.732,4.713,4.694,4.657,4.583,4.565,4.512,4.46,4.41,4.36,4.328,4.28
0.0,0.0,0.0,0.0,0.0,0.0,0.0,0.0,0.0,5.57,5.57,5.57,5.597,5.597,5.597,5.624,5.651,5.651,5.679,5.679,5.679,5.679,5.707,5.707,5.707,5.707,5.679,5.679,5.679,5.679,5.679,5.651,5.651,5.651,5.651,5.624,5.624,5.597,5.597,5.597,5.597,5.597,5.57,5.57,5.57,5.543,5.517,5.491,5.44,5.415,5.389,5.415,5.389,5.415,5.44,5.465,5.491,5.543,5.543,5.57,5.57,5.57,5.57,5.57,5.57,5.57,5.57,5.57,5.57,5.57,5.57,5.57,5.543,5.543,5.543,5.517,5.543,5.517,5.517,5.517,5.543,5.543,5.543,5.57,5.57,5.57,5.597,5.597,5.597,5.624,5.597,5.624,5.597,5.597,5.57,5.57,5.57,5.543,5.543,5.543,5.543,5.543,5.543,5.543,5.543,5.543,5.57,5.57,5.57,5.57,5.57,5.57,5.597,5.597,5.597,5.597,5.597,5.597,5.597,5.597,5.597,5.597,5.597,5.597,5.597,5.597,5.57,5.57,5.57,5.57,5.57,5.57,5.57,5.57,5.57,5.57,5.57,5.57,5.57,5.57,5.57,5.57,5.57,5.543,5.543,5.517,5.517,5.465,5.465,5.44,5.44,5.44,5.44,5.44,5.465,5.491,5.491,5.543,5.543,5.543,5.543,5.543,5.543,5.543,5.517,5.517,5.491,5.491,5.465,5.465,5.465,5.44,5.465,5.465,5.465,5.465,5.491,5.491,5.517,5.517,5.517,5.517,5.517,5.517,5.517,5.517,5.491,5.491,5.491,5.491,5.491,5.491,5.491,5.465,5.465,5.465,5.465,5.44,5.44,5.44,5.44,5.44,5.415,5.44,5.44,5.44,5.44,5.44,5.465,5.465,5.491,5.491,5.491,5.491,5.491,5.491,5.491,5.491,5.465,5.465,5.465,5.465,5.465,5.465,5.465,5.465,5.465,5.465,5.465,5.465,5.465,5.465,5.465,5.465,5.465,5.465,5.465,5.465,5.465,5.44,5.465,5.465,5.44,5.44,5.44,5.44,5.44,5.44,5.415,5.415,5.415,5.389,5.389,5.389,5.389,5.34,5.34,5.34,5.316,5.316,5.268,5.268,5.244,5.244,5.244,5.244,5.244,5.244,5.268,5.268,5.268,5.316,5.34,5.34,5.34,5.34,5.389,5.389,5.415,5.415,5.415,5.415,5.44,5.44,5.44,5.44,5.44,5.44,5.44,5.44,5.44,5.415,5.415,5.415,5.415,5.415,5.415,5.389,5.415,5.415,5.415,5.415,5.415,5.389,5.415,5.415,5.415,5.44,5.415,5.415,5.415,5.415,5.415,5.415,5.389,5.389,5.34,5.34,5.389,5.34,5.423,5.415,5.465,5.517,5.543,5.57,5.597,5.651,5.735,5.85,5.939,6.095,6.225,6.361,6.361,6.361,6.259,6.127,6.001,5.909,5.792,5.679,5.651,5.624,5.597,5.597,5.597,5.597,5.597,5.597,5.57,5.543,5.543,5.543,5.517,5.517,5.517,5.517,5.543,5.543,5.543,5.543,5.57,5.57,5.57,5.57,5.57,5.57,5.543,5.543,5.543,5.57,5.597,5.651,5.707,5.80775,5.939,6.225,6.504,6.6165,6.729,6.848,7.055,7.186,7.368,7.415,7.559,7.709,7.973,8.084,8.1995,8.315,8.908625,9.542,10.123,10.488,10.982,11.194,11.641,11.879,12.254,12.384,12.518,12.518,12.518,12.518,12.518,12.384,12.254,11.879,11.641,11.302,11.087,10.88,10.68,10.583,10.583,10.394,10.302,10.212,10.036,9.542,9.239,8.955,8.623,8.436,8.375,8.256,8.198,8.141,8.084,8.084,8.028,8.028,7.973,7.919,7.813,7.659,7.659,7.559,7.709,7.511,7.322,7.186,7.055,6.929,6.848,6.729,6.69,6.614,6.54,6.467,6.327,5.909,5.735,5.651,5.57,5.517,5.415,5.34,5.316,5.316,5.316,5.316,5.316,5.316,5.316,5.34,5.34,5.34,5.316,5.316,5.34,5.316,5.316,5.316,5.316,5.316,5.316,5.34,5.389,5.389,5.415,5.415,5.44,5.465,5.465,5.465,5.491,5.491,5.517,5.491,5.491,5.465,5.465,5.44,5.389,5.316,5.268,5.22,5.174,5.106,5.084,5.04,5.04,5.04,5.084,5.106,5.106,5.151,5.151,5.151,5.174,5.174,5.174,5.151,5.106,5.084,5.04,5.018,4.996,4.975,4.954,4.933,4.912,4.891,4.871,4.851,4.851,4.83,4.81,4.81,4.791,4.752,4.752,4.752,4.732,4.713,4.657,4.601,4.565,4.512,4.41,4.376,4.328,4.312,4.28,4.188,4.114
0.0,0.0,0.0,0.0,0.0,0.0,0.0,0.0,0.0,5.57,5.57,5.597,5.57,5.597,5.597,5.624,5.651,5.651,5.679,5.679,5.679,5.679,5.707,5.707,5.707,5.679,5.679,5.679,5.679,5.679,5.679,5.679,5.651,5.651,5.651,5.651,5.651,5.651,5.624,5.597,5.597,5.597,5.597,5.57,5.57,5.543,5.517,5.491,5.44,5.415,5.389,5.389,5.34,5.389,5.389,5.44,5.465,5.517,5.517,5.543,5.543,5.543,5.543,5.57,5.57,5.57,5.57,5.57,5.57,5.57,5.57,5.57,5.543,5.543,5.517,5.517,5.491,5.491,5.491,5.491,5.517,5.517,5.543,5.543,5.543,5.57,5.57,5.57,5.57,5.597,5.57,5.57,5.57,5.57,5.543,5.543,5.543,5.517,5.517,5.543,5.543,5.543,5.543,5.543,5.57,5.57,5.57,5.57,5.57,5.597,5.597,5.597,5.597,5.597,5.597,5.597,5.597,5.597,5.597,5.597,5.597,5.597,5.597,5.597,5.597,5.597,5.57,5.57,5.57,5.57,5.57,5.57,5.57,5.57,5.57,5.57,5.57,5.57,5.57,5.57,5.57,5.57,5.57,5.57,5.543,5.543,5.517,5.517,5.491,5.491,5.491,5.491,5.491,5.543,5.543,5.543,5.543,5.543,5.543,5.543,5.543,5.543,5.543,5.543,5.543,5.517,5.491,5.491,5.465,5.465,5.44,5.44,5.44,5.465,5.465,5.465,5.491,5.491,5.517,5.517,5.543,5.517,5.517,5.517,5.517,5.517,5.491,5.491,5.491,5.491,5.491,5.465,5.465,5.465,5.465,5.44,5.44,5.415,5.415,5.44,5.44,5.415,5.415,5.44,5.44,5.44,5.44,5.44,5.44,5.465,5.465,5.491,5.491,5.491,5.491,5.491,5.491,5.491,5.465,5.465,5.465,5.465,5.465,5.465,5.465,5.465,5.465,5.465,5.465,5.465,5.465,5.465,5.465,5.465,5.465,5.465,5.465,5.465,5.44,5.44,5.44,5.44,5.44,5.44,5.44,5.44,5.415,5.415,5.415,5.415,5.415,5.389,5.389,5.34,5.34,5.34,5.316,5.316,5.268,5.268,5.244,5.244,5.244,5.244,5.22,5.22,5.244,5.244,5.268,5.268,5.268,5.316,5.316,5.34,5.34,5.34,5.34,5.34,5.389,5.389,5.389,5.389,5.415,5.415,5.415,5.415,5.44,5.44,5.44,5.44,5.44,5.44,5.415,5.415,5.415,5.389,5.415,5.389,5.415,5.389,5.415,5.415,5.415,5.415,5.415,5.415,5.415,5.415,5.415,5.415,5.415,5.415,5.415,5.415,5.415,5.415,5.44,5.491,5.543,5.57,5.597,5.651,5.707,5.792,5.939,6.032,6.127,6.259,6.432,6.54,6.577,6.652,6.729,6.848,6.848,6.827999999999999,6.808,6.69,6.614,6.54,6.432,6.159,5.939,5.792,5.679,5.651,5.651,5.651,5.624,5.597,5.597,5.597,5.57,5.543,5.543,5.543,5.543,5.543,5.57,5.57,5.57,5.597,5.597,5.597,5.624,5.624,5.597,5.597,5.597,5.57,5.57,5.597,5.651,5.707,5.77125,5.85,6.225,6.504,6.652,6.808,6.971,7.231,7.415,7.559,7.659,7.709,7.761,7.919,8.028,8.198,8.271875,8.375,8.819,9.464,10.123,10.394,10.88,11.087,11.302,11.879,12.254,12.384,12.518,12.793,12.793,12.793,12.518,12.518,12.384,12.001,11.641,11.302,11.087,10.982,10.68,10.583,10.488,10.394,10.212,10.212,10.036,9.464,9.166,8.753,8.497,8.315,8.256,8.198,8.084,8.084,8.028,7.973,7.866,7.866,7.761,7.659,7.559,7.322,7.368,7.415,7.415,7.322,7.231,7.186,7.055,6.971,6.888,6.768,6.69,6.652,6.577,6.504,6.396,5.939,5.763,5.651,5.57,5.543,5.44,5.389,5.316,5.316,5.268,5.268,5.268,5.268,5.268,5.316,5.316,5.316,5.268,5.268,5.268,5.268,5.244,5.244,5.244,5.244,5.268,5.268,5.316,5.316,5.34,5.389,5.415,5.415,5.44,5.44,5.465,5.465,5.491,5.491,5.465,5.465,5.44,5.44,5.389,5.34,5.268,5.244,5.174,5.151,5.106,5.084,5.084,5.084,5.106,5.106,5.151,5.151,5.151,5.151,5.174,5.174,5.174,5.151,5.106,5.084,5.04,5.018,4.996,4.954,4.933,4.912,4.891,4.891,4.871,4.851,4.83,4.81,4.81,4.771,4.732,4.732,4.713,4.657,4.638,4.583,4.53,4.46,4.393,4.328,4.312,4.28,4.249,4.158,4.07,3.987,3.933
0.0,0.0,0.0,0.0,0.0,0.0,0.0,0.0,0.0,0.0,5.57,5.57,5.597,5.597,5.624,5.624,5.651,5.651,5.679,5.679,5.679,5.679,5.679,5.707,5.707,5.707,5.707,5.707,5.679,5.679,5.679,5.679,5.679,5.679,5.679,5.651,5.651,5.651,5.651,5.624,5.624,5.597,5.597,5.57,5.57,5.543,5.517,5.465,5.415,5.389,5.34,5.316,5.34,5.34,5.34,5.389,5.44,5.465,5.491,5.491,5.517,5.517,5.543,5.543,5.543,5.543,5.57,5.57,5.57,5.57,5.543,5.543,5.543,5.517,5.491,5.465,5.465,5.465,5.465,5.465,5.465,5.465,5.491,5.517,5.517,5.543,5.543,5.543,5.543,5.543,5.543,5.543,5.543,5.543,5.517,5.491,5.491,5.491,5.491,5.517,5.517,5.543,5.543,5.543,5.57,5.57,5.57,5.597,5.597,5.597,5.597,5.597,5.597,5.597,5.597,5.597,5.597,5.597,5.597,5.597,5.597,5.597,5.597,5.57,5.57,5.57,5.57,5.57,5.57,5.57,5.57,5.57,5.57,5.57,5.57,5.57,5.57,5.57,5.57,5.57,5.57,5.57,5.57,5.57,5.543,5.543,5.543,5.543,5.543,5.517,5.543,5.543,5.543,5.543,5.543,5.57,5.57,5.57,5.57,5.57,5.543,5.543,5.543,5.543,5.543,5.517,5.491,5.491,5.465,5.44,5.44,5.44,5.44,5.44,5.44,5.465,5.491,5.491,5.491,5.517,5.517,5.517,5.517,5.517,5.517,5.491,5.491,5.491,5.491,5.465,5.465,5.465,5.44,5.44,5.44,5.44,5.44,5.415,5.415,5.415,5.415,5.415,5.415,5.415,5.44,5.44,5.44,5.44,5.44,5.465,5.465,5.491,5.491,5.491,5.491,5.491,5.491,5.465,5.465,5.465,5.465,5.465,5.465,5.465,5.465,5.465,5.44,5.465,5.465,5.465,5.465,5.465,5.465,5.465,5.465,5.465,5.44,5.44,5.44,5.44,5.44,5.44,5.415,5.415,5.415,5.415,5.415,5.415,5.415,5.415,5.415,5.389,5.389,5.389,5.34,5.34,5.316,5.316,5.268,5.268,5.268,5.244,5.244,5.22,5.244,5.244,5.244,5.244,5.268,5.268,5.268,5.316,5.316,5.316,5.316,5.34,5.34,5.34,5.34,5.34,5.389,5.389,5.389,5.389,5.389,5.415,5.415,5.415,5.415,5.415,5.415,5.415,5.415,5.415,5.415,5.389,5.389,5.389,5.389,5.389,5.389,5.389,5.389,5.415,5.415,5.415,5.415,5.44,5.44,5.44,5.44,5.44,5.44,5.44,5.491,5.543,5.597,5.651,5.735,5.85,5.763,5.939,6.467,6.54,6.577,6.614,6.69,6.729,6.888,0.0,0.0,0.0,7.4925,7.6419999999999995,7.7355,7.8235,7.8815,7.721500000000001,7.618499999999999,7.336749999999999,7.055,6.768,6.614,6.396,6.095,5.85,5.735,5.679,5.651,5.597,5.597,5.597,5.57,5.57,5.57,5.543,5.57,5.57,5.597,5.597,5.597,5.597,5.651,5.651,5.651,5.651,5.651,5.651,5.624,5.617249999999999,5.624,5.624,5.679,5.75,5.821,6.225,6.504,6.69,6.848,7.098,7.368,7.659,7.761,7.866,7.866,7.919,7.973,8.028,8.141,8.242249999999999,8.315,8.56,9.166,9.701,10.212,10.488,10.88,11.087,11.302,11.879,12.254,12.518,12.793,12.793,12.793,12.793,12.793,12.518,12.254,11.879,11.526,11.194,11.087,10.88,10.68,10.583,10.488,10.302,10.212,10.123,9.95,9.313,8.955,8.623,8.375,8.256,8.198,8.084,8.028,7.973,7.866,7.761,7.659,7.511,7.415,7.231,7.055,7.055,7.186,7.231,7.231,7.186,7.186,7.098,7.055,6.929,6.888,6.768,6.729,6.652,6.614,6.54,6.396,6.001,5.792,5.651,5.597,5.543,5.44,5.389,5.316,5.268,5.268,5.244,5.268,5.268,5.268,5.268,5.268,5.268,5.268,5.244,5.244,5.244,5.22,5.174,5.174,5.174,5.22,5.22,5.22,5.244,5.268,5.316,5.34,5.34,5.389,5.389,5.415,5.44,5.465,5.44,5.44,5.44,5.44,5.415,5.389,5.34,5.268,5.244,5.22,5.174,5.106,5.106,5.106,5.106,5.106,5.106,5.151,5.151,5.151,5.151,5.151,5.151,5.151,5.106,5.084,5.04,5.018,4.996,4.975,4.954,4.912,4.912,4.891,4.871,4.851,4.83,4.83,4.81,4.771,4.713,4.694,4.638,4.601,4.53,4.477,4.41,4.376,4.328,4.296,4.264,4.218,4.114,4.056,3.973,3.92,3.868,3.842
0.0,0.0,0.0,0.0,0.0,0.0,0.0,0.0,0.0,0.0,5.597,5.597,5.597,5.597,5.624,5.651,5.651,5.651,5.679,5.679,5.679,5.679,5.679,5.679,5.679,5.679,5.679,5.679,5.679,5.679,5.679,5.679,5.679,5.679,5.679,5.679,5.679,5.651,5.651,5.651,5.624,5.597,5.597,5.57,5.57,5.543,5.517,5.465,5.415,5.389,5.34,5.34,5.316,5.316,5.316,5.34,5.389,5.44,5.44,5.465,5.465,5.491,5.491,5.517,5.543,5.543,5.543,5.543,5.543,5.543,5.543,5.543,5.517,5.491,5.465,5.465,5.44,5.44,5.415,5.415,5.415,5.44,5.465,5.465,5.491,5.491,5.517,5.517,5.543,5.543,5.517,5.517,5.517,5.491,5.465,5.465,5.465,5.465,5.465,5.491,5.517,5.543,5.543,5.543,5.57,5.597,5.597,5.597,5.597,5.624,5.624,5.624,5.624,5.597,5.597,5.597,5.597,5.57,5.57,5.57,5.57,5.57,5.57,5.57,5.57,5.57,5.543,5.543,5.543,5.543,5.543,5.57,5.57,5.57,5.57,5.57,5.57,5.57,5.57,5.57,5.57,5.57,5.57,5.57,5.57,5.57,5.543,5.543,5.543,5.543,5.543,5.543,5.57,5.57,5.57,5.57,5.57,5.57,5.57,5.57,5.543,5.543,5.543,5.543,5.517,5.517,5.491,5.465,5.465,5.44,5.44,5.44,5.44,5.44,5.44,5.465,5.465,5.491,5.491,5.517,5.517,5.517,5.517,5.517,5.517,5.491,5.491,5.491,5.491,5.465,5.465,5.465,5.44,5.44,5.44,5.44,5.415,5.415,5.415,5.44,5.44,5.44,5.44,5.44,5.44,5.44,5.44,5.44,5.44,5.44,5.465,5.465,5.465,5.465,5.465,5.465,5.465,5.465,5.465,5.44,5.44,5.44,5.465,5.465,5.44,5.44,5.44,5.44,5.465,5.44,5.44,5.465,5.465,5.44,5.44,5.44,5.44,5.44,5.44,5.44,5.415,5.415,5.415,5.415,5.415,5.415,5.415,5.415,5.415,5.389,5.389,5.389,5.389,5.389,5.34,5.34,5.34,5.316,5.316,5.316,5.268,5.268,5.268,5.244,5.244,5.244,5.244,5.268,5.268,5.316,5.316,5.316,5.316,5.316,5.316,5.316,5.316,5.316,5.316,5.316,5.316,5.316,5.316,5.34,5.34,5.34,5.389,5.389,5.389,5.415,5.415,5.415,5.415,5.415,5.389,5.389,5.389,5.389,5.389,5.389,5.389,5.389,5.415,5.415,5.415,5.44,5.44,5.44,5.44,5.44,5.465,5.465,5.465,5.517,5.57,5.651,5.763,6.032,6.361,6.54,0.0,0.0,0.0,0.0,0.0,0.0,7.444000000000001,7.522,7.6925,0.0,0.0,0.0,8.256,8.436,8.623,8.819,8.955,8.753,8.623,8.600875,8.378,8.1485,7.919,6.929,6.69,6.467,6.159,5.909,5.707,5.679,5.624,5.57,5.57,5.57,5.57,5.57,5.57,5.57,5.597,5.597,5.624,5.651,5.651,5.651,5.679,5.665,5.651,5.658,5.651,5.651,5.651,5.651,0.0,0.0,0.0,0.0,6.936,6.971,7.322,7.559,7.761,7.919,7.973,8.028,8.028,8.084,8.084,8.15625,8.198,8.315,8.56,9.024,9.542,9.95,10.212,10.583,10.88,11.087,11.526,11.879,12.254,12.384,12.518,12.518,12.518,12.518,12.518,12.254,12.001,11.641,11.302,11.194,10.88,10.779,10.68,10.583,10.394,10.302,10.123,10.036,9.542,9.239,8.819,8.497,8.256,8.141,8.084,7.973,7.813,7.709,7.511,7.368,7.098,7.098,6.929,6.888,6.888,6.848,6.971,7.055,7.098,7.098,7.055,7.055,6.971,6.929,6.848,6.729,6.729,6.652,6.614,6.54,6.432,6.001,5.792,5.679,5.597,5.543,5.465,5.389,5.268,5.244,5.244,5.244,5.244,5.244,5.268,5.268,5.268,5.244,5.244,5.22,5.22,5.174,5.151,5.106,5.106,5.106,5.106,5.106,5.151,5.174,5.174,5.244,5.268,5.268,5.316,5.34,5.34,5.389,5.415,5.415,5.389,5.389,5.389,5.34,5.316,5.316,5.244,5.22,5.174,5.151,5.151,5.106,5.106,5.106,5.106,5.151,5.151,5.151,5.151,5.151,5.151,5.151,5.151,5.106,5.084,5.04,4.996,4.975,4.954,4.933,4.912,4.891,4.851,4.851,4.83,4.81,4.791,4.752,4.657,4.601,4.53,4.477,4.426,4.376,4.328,4.312,4.28,4.249,4.203,4.07,3.987,3.933,3.893,3.868,3.829,3.817,3.78
0.0,0.0,0.0,0.0,0.0,0.0,0.0,0.0,0.0,0.0,0.0,5.651,5.651,5.651,5.651,5.651,5.651,5.679,5.679,5.679,5.679,5.679,5.707,5.707,5.707,5.679,5.679,5.679,5.679,5.679,5.679,5.679,5.679,5.679,5.679,5.679,5.679,5.679,5.651,5.651,5.651,5.624,5.597,5.597,5.57,5.57,5.543,5.465,5.415,5.389,5.34,5.316,5.316,5.268,5.268,5.316,5.34,5.389,5.389,5.415,5.415,5.44,5.44,5.465,5.491,5.491,5.517,5.517,5.543,5.543,5.543,5.517,5.517,5.491,5.465,5.44,5.44,5.415,5.415,5.415,5.415,5.415,5.44,5.465,5.465,5.491,5.491,5.491,5.491,5.517,5.491,5.491,5.465,5.465,5.44,5.44,5.44,5.465,5.465,5.491,5.517,5.543,5.543,5.57,5.57,5.597,5.597,5.597,5.597,5.624,5.624,5.624,5.597,5.597,5.597,5.57,5.57,5.57,5.543,5.543,5.543,5.543,5.543,5.543,5.543,5.543,5.543,5.543,5.543,5.543,5.543,5.543,5.543,5.57,5.57,5.57,5.57,5.57,5.57,5.57,5.57,5.57,5.57,5.57,5.57,5.57,5.57,5.57,5.57,5.543,5.543,5.57,5.57,5.57,5.57,5.57,5.57,5.57,5.57,5.543,5.543,5.543,5.543,5.543,5.517,5.517,5.491,5.465,5.465,5.465,5.44,5.44,5.44,5.44,5.44,5.465,5.465,5.491,5.491,5.517,5.517,5.517,5.517,5.517,5.517,5.491,5.491,5.491,5.491,5.465,5.465,5.465,5.44,5.44,5.44,5.44,5.44,5.44,5.44,5.44,5.44,5.44,5.44,5.44,5.44,5.44,5.44,5.44,5.44,5.44,5.44,5.465,5.465,5.465,5.465,5.465,5.465,5.465,5.44,5.44,5.44,5.44,5.44,5.44,5.44,5.44,5.44,5.44,5.44,5.44,5.44,5.44,5.44,5.44,5.44,5.44,5.44,5.44,5.44,5.44,5.415,5.415,5.415,5.415,5.415,5.415,5.415,5.389,5.389,5.389,5.389,5.389,5.389,5.389,5.389,5.34,5.34,5.34,5.34,5.316,5.316,5.316,5.316,5.316,5.316,5.316,5.268,5.316,5.316,5.316,5.316,5.316,5.316,5.316,5.316,5.316,5.268,5.268,5.268,5.268,5.268,5.268,5.268,5.316,5.316,5.34,5.34,5.389,5.389,5.389,5.389,5.389,5.389,5.389,5.389,5.389,5.34,5.34,5.389,5.389,5.389,5.415,5.415,5.415,5.44,5.44,5.465,5.465,5.465,5.465,5.465,5.465,5.543,5.597,5.707,5.651,6.361,0.0,0.0,0.0,0.0,0.0,0.0,0.0,0.0,0.0,8.198,8.315,8.497,8.753,9.166,9.313,9.865,10.123,10.302,10.302,10.302,10.302,10.212,9.865,9.701,9.180250000000001,0.0,0.0,7.919,6.768,6.577,6.259,5.909,5.707,5.651,5.57,5.57,5.57,5.57,5.57,5.57,5.597,5.597,5.597,5.624,5.6442499999999995,5.651,5.665000000000001,5.679,5.679,5.7002500000000005,5.679,0.0,5.7505,0.0,0.0,0.0,0.0,0.0,0.0,7.368,0.0,7.76,7.919,7.973,8.084,8.141,8.198,8.198,8.198,8.256,8.315,8.436,8.753,9.024,9.464,9.865,10.212,10.394,10.583,10.982,11.087,11.526,11.879,12.001,12.384,12.384,12.384,12.384,12.384,12.384,12.001,11.879,11.526,11.194,10.982,10.779,10.68,10.583,10.488,10.394,10.302,10.123,9.95,9.464,9.166,8.753,8.436,8.256,8.084,7.973,7.813,7.659,7.415,7.055,6.929,6.848,6.808,6.768,6.768,6.729,6.729,6.808,6.888,6.929,6.929,6.929,6.929,6.888,6.848,6.808,6.729,6.69,6.614,6.577,6.54,6.432,6.032,5.792,5.679,5.597,5.543,5.465,5.389,5.268,5.244,5.244,5.244,5.244,5.244,5.268,5.268,5.268,5.244,5.22,5.174,5.151,5.151,5.084,5.04,5.04,5.04,5.04,5.04,5.084,5.106,5.106,5.174,5.22,5.244,5.268,5.268,5.316,5.316,5.34,5.34,5.34,5.34,5.34,5.316,5.268,5.268,5.22,5.22,5.174,5.151,5.106,5.106,5.106,5.106,5.151,5.151,5.151,5.151,5.151,5.151,5.151,5.151,5.106,5.106,5.084,5.018,4.996,4.975,4.933,4.912,4.891,4.871,4.83,4.81,4.81,4.752,4.713,4.601,4.53,4.426,4.393,4.344,4.312,4.28,4.264,4.233,4.188,4.114,3.973,3.92,3.868,3.855,3.829,3.804,3.78,3.743,3.696
