0,0,0,0,0,0,0,0,0,0,0,0,0,2.962,2.962,2.955,2.947,2.947,2.94,2.94,2.932,2.932,2.932,2.932,2.932,2.94,2.962,2.977,3,3.039,3.072,3.08,3.113,3.129,3.146,0,0,0,0,0,0,0,0,4.871,4.851,4.83,4.851,4.912,4.975,0,5.22,5.34,5.415,5.517,5.543,5.543,5.57,5.57,5.57,5.543,5.543,5.543,5.543,5.517,5.491,5.465,5.465,5.44,5.44,5.44,5.465,5.465,5.44,5.44,5.44,5.44,5.415,5.389,5.389,5.34,5.34,5.34,5.316,5.34,5.34,5.316,5.316,5.268,5.268,5.268,5.268,5.268,5.316,5.316,5.34,5.389,5.389,5.415,5.415,5.465,5.465,5.465,5.465,5.491,5.491,5.465,5.465,5.44,5.415,5.389,5.34,5.34,5.316,5.268,5.268,5.268,5.316,5.316,5.34,5.34,5.389,5.415,5.415,5.44,5.44,5.465,5.465,5.491,5.491,5.491,5.491,5.491,5.491,5.491,5.491,5.491,5.465,5.44,5.415,5.415,5.415,5.389,5.389,5.415,5.415,5.44,5.465,5.491,5.491,5.517,5.543,5.543,5.543,5.57,5.57,5.597,5.651,5.679,5.763,5.909,6.127,0,6.361,6.54,6.69,6.768,6.888,7.055,7.231,7.368,7.415,7.511,7.559,7.709,7.761,7.866,7.919,7.973,7.973,8.028,8.028,8.084,8.084,8.084,8.084,8.141,8.198,8.198,8.198,8.198,8.198,8.198,8.256,8.256,8.256,8.198,8.198,8.198,8.198,8.198,8.198,8.198,8.198,8.198,8.198,8.198,8.198,8.256,8.315,8.436,8.497,8.753,9.166,9.464,9.95,10.212,10.394,10.583,10.68,10.982,11.087,11.302,11.302,11.526,11.526,11.526,11.526,11.641,11.879,12.001,12.384,12.793,13.381,13.859,14.372,0,14.736,15.119,15.731,16.396,17.638,18.478,19.084,19.084,20.071,19.731,19.084,18.776,17.91,16.871,16.396,15.119,15.119,14.925,14.736,14.552,14.552,14.552,14.552,14.552,14.552,14.552,14.736,14.736,14.736,14.736,14.736,14.925,14.925,14.925,14.925,14.925,14.925,14.925,14.925,14.552,14.552,14.552,14.372,14.197,14.026,13.859,13.696,13.696,13.229,12.384,11.879,11.087,10.779,10.302,6.614,0,5.679,5.597,5.57,5.57,5.543,5.543,5.543,5.517,5.517,5.517,5.517,5.517,5.543,5.543,5.543,5.543,5.597,5.763,6.259,6.69,0,0,8.141,9.166,0,10.394,11.087,11.087,11.194,11.302,11.526,11.879,12.001,12.254,12.384,12.518,12.518,12.793,12.793,12.793,12.518,12.518,12.518,12.518,12.384,12.384,12.254,12.254,12.001,11.879,11.641,11.526,11.526,11.194,11.194,11.087,10.982,10.88,10.779,10.779,10.68,10.583,10.583,10.583,10.583,10.68,10.68,10.68,10.68,10.68,10.68,10.68,10.68,10.68,10.68,10.583,10.583,10.583,10.583,10.583,10.394,10.394,10.394,10.302,10.212,10.123,9.95,9.865,9.701,9.464,9.239,9.239,9.166,9.166,9.166,9.239,9.239,9.239,9.239,9.313,9.464,9.464,9.464,9.464,9.464,9.542,9.542,9.542,9.701,9.701,9.783,9.783,9.865,9.95,9.95,10.036,9.95,10.036,10.036,10.036,10.036,9.95,9.865,9.701,9.313,9.166,8.819,8.375,8.198,8.028,7.866,7.659,7.511,7.231,7.055,6.929,6.848,6.808,6.729,6.69,6.652,6.577,6.54,6.396,6.327,6.159,6.032,5.85,5.735,5.651,5.57,5.22,5.018,4.912,4.851,4.81,0,0,0,0,0,0,0,0,0,0,0,0,0,0,0,0,0,0,0,2.301,2.301,2.31,2.314,2.31,2.31,2.314,2.31,2.31,2.314,2.31,2.31,2.301,2.301,2.301,2.301,2.31,2.314,2.319,2.324,2.328,2.333,2.338,2.338,2.342,2.338,2.338,2.338,2.338,2.328,2.324,2.319,2.31,2.301,2.296,2.287,2.283,2.283,2.283,2.283,2.283,2.283,2.287,2.287,2.287,2.287,2.287,2.265,2.226,2.205,0,2.098,2.079,2.068,2.05,1.987,1.973,1.963,1.934,1.872,0,0,1.714,1.714,1.712,1.709,1.704,1.702,1.699,1.699,1.697,1.692,1.69,1.687,1.685,1.68,1.675,1.665,1.658,1.644,1.637,1.635,1.633,1.633,1.635,1.635,1.635,1.633,1.63,1.628,1.626,1.621,1.617,1.615,1.61,1.608,1.603,1.586,1.567,1.554,1.552,1.55,1.546,1.544,1.542,0,1.536,1.538,1.54,1.538,1.538,1.536,1.534,1.532,1.532,1.528,1.52,1.514,1.502,1.494,1.491,1.489,1.487,1.485,1.485,1.483,1.483,1.483,1.485,1.485,1.485,1.485,1.485,1.481,1.475,1.464,1.441,1.434,1.43,1.427,0,0,0,0,0,0,0,0,0,0,0,0,0,0,0,0,0,0,0,0,0,0,0,0,0,0,0,0,0,0,0,0,0
0,0,0,0,0,0,0,0,0,0,0,0,0,2.962,2.947,2.955,2.955,2.94,2.94,2.932,2.932,2.932,2.932,2.932,2.932,2.94,2.955,2.97,3,3.039,3.072,3.08,3.113,3.129,3.146,3.155,0,0,0,0,0,0,0,4.713,4.328,4.376,4.426,4.583,4.81,4.912,4.954,5.084,0,5.151,5.543,5.543,5.57,5.57,5.57,5.57,5.57,5.543,5.543,5.517,5.491,5.491,5.491,5.465,5.465,5.465,5.491,5.491,5.491,5.465,5.465,5.465,5.44,5.44,5.415,5.415,5.389,5.389,5.389,5.389,5.34,5.34,5.316,5.268,5.268,5.268,5.268,5.244,5.244,5.268,5.316,5.34,5.389,5.389,5.415,5.465,5.465,5.491,5.491,5.491,5.491,5.491,5.491,5.465,5.415,5.415,5.389,5.34,5.34,5.316,5.316,5.268,5.316,5.34,5.34,5.389,5.389,5.415,5.44,5.44,5.465,5.465,5.491,5.491,5.491,5.517,5.517,5.491,5.491,5.491,5.491,5.491,5.44,5.44,5.415,5.415,5.389,5.389,5.389,5.389,5.415,5.44,5.465,5.491,5.491,5.517,5.543,5.543,5.543,5.543,5.57,5.597,5.651,5.707,5.821,6.001,6.225,0,6.467,6.614,6.729,6.848,6.929,7.098,7.322,7.368,7.511,7.559,7.659,7.709,7.813,7.866,7.919,7.973,7.973,7.973,7.973,7.973,7.973,7.973,7.973,7.973,8.028,8.028,8.028,8.028,8.028,8.028,8.084,8.084,8.084,8.084,8.084,8.084,8.141,8.141,8.141,8.198,8.198,8.198,8.198,8.198,8.198,8.256,8.256,8.375,8.497,8.623,9.024,9.464,9.865,10.212,10.394,10.583,10.68,10.88,11.087,11.194,11.302,11.302,11.526,11.526,11.526,11.641,11.879,12.001,12.384,12.793,13.381,14.026,14.372,0,14.925,15.317,15.947,16.871,17.91,19.084,19.731,20.071,20.071,19.731,19.084,18.776,17.638,16.396,15.119,14.925,14.552,14.372,14.372,14.197,14.197,14.197,14.197,14.197,14.197,14.372,14.372,14.372,14.372,14.552,14.552,14.552,14.736,14.736,14.736,14.736,14.736,14.736,14.552,14.552,14.372,14.372,14.197,14.026,13.696,13.229,12.935,12.793,12.254,11.526,10.982,10.583,10.394,0,7.055,0,5.651,5.597,5.57,5.543,5.543,5.543,5.543,5.543,5.543,5.543,5.543,5.543,5.543,5.543,5.57,5.57,5.624,5.763,6.327,6.69,0,7.415,8.141,9.166,0,10.394,11.194,11.194,11.526,11.526,11.641,11.879,12.001,12.254,12.384,12.384,12.518,12.793,12.793,12.518,12.518,12.384,12.384,12.254,12.001,12.001,11.879,11.879,11.641,11.526,11.302,11.194,11.087,10.982,10.982,10.88,10.779,10.68,10.68,10.68,10.68,10.583,10.583,10.583,10.583,10.583,10.583,10.583,10.583,10.583,10.583,10.583,10.583,10.488,10.488,10.488,10.488,10.394,10.394,10.394,10.394,10.302,10.302,10.212,10.123,9.95,9.865,9.701,9.464,9.313,9.166,9.024,8.955,8.955,9.024,9.024,9.024,9.024,9.166,9.166,9.166,9.239,9.239,9.239,9.239,9.313,9.464,9.542,9.542,9.701,9.783,9.783,9.865,9.865,9.95,10.036,9.95,9.95,9.95,9.865,9.865,9.701,9.542,9.239,9.024,8.819,8.375,8.256,8.084,7.973,7.761,7.511,7.322,7.098,6.929,6.848,6.768,6.69,6.652,6.614,6.504,6.396,6.327,6.127,6.001,5.85,5.763,5.679,5.624,5.57,5.244,5.084,4.933,4.891,4.83,4.791,0,0,0,0,0,0,0,0,0,0,0,0,0,0,0,0,0,2.328,2.328,2.328,2.319,2.319,2.324,2.319,2.324,2.319,2.319,2.319,2.324,2.324,2.319,2.314,2.314,2.314,2.314,2.324,2.324,2.328,2.338,2.338,2.342,2.342,2.347,2.347,2.347,2.342,2.342,2.338,2.338,2.333,2.324,2.319,2.31,2.31,2.301,2.287,2.287,2.287,2.287,2.287,2.296,2.296,2.296,2.296,2.287,2.287,2.269,2.234,0,0,2.132,2.098,2.083,2.071,2.042,1.993,1.976,1.953,0,0,1.767,1.74,1.72,1.714,1.709,1.707,1.704,1.702,1.699,1.697,1.695,1.692,1.69,1.687,1.682,1.677,1.668,1.661,1.649,1.644,1.642,1.637,1.637,1.642,1.642,1.644,1.642,1.635,1.63,1.63,1.626,1.621,1.617,1.615,1.612,1.61,1.603,1.58,1.565,1.56,1.554,1.554,1.552,1.552,1.55,1.548,1.548,1.548,1.548,1.546,1.544,0,1.538,1.536,1.532,1.52,1.512,0,1.494,1.491,1.489,1.485,1.485,1.483,1.483,1.483,0,1.485,0,0,0,0,0,0,0,0,0,0,0,0,0,0,0,0,0,0,0,0,0,0,0,0,0,0,0,0,0,0,0,0,0,0,0,0,0,0,0,0,0,0,0,0
0,0,0,0,0,0,0,0,0,0,0,0,0,2.962,2.955,2.955,2.955,2.94,2.932,2.932,2.932,2.932,2.932,2.932,2.932,2.94,2.955,2.97,3,3.039,3.055,3.096,3.121,3.138,3.146,3.155,3.163,0,0,0,0,0,0,0,4.158,4.056,4.188,4.28,4.328,4.53,4.713,4.81,4.83,0,5.244,5.491,5.543,5.543,5.543,5.543,5.543,5.543,5.543,5.543,5.517,5.491,5.491,5.465,5.491,5.491,5.517,5.517,5.517,5.517,5.517,5.517,5.491,5.491,5.465,5.44,5.44,5.415,5.415,5.389,5.34,5.34,5.316,5.268,5.244,5.244,5.22,5.22,5.244,5.244,5.268,5.316,5.34,5.389,5.415,5.465,5.465,5.491,5.491,5.491,5.491,5.491,5.491,5.465,5.415,5.415,5.389,5.34,5.34,5.316,5.316,5.316,5.316,5.34,5.34,5.389,5.389,5.415,5.415,5.44,5.465,5.491,5.491,5.491,5.491,5.491,5.491,5.491,5.491,5.491,5.491,5.465,5.44,5.44,5.415,5.415,5.389,5.389,5.389,5.389,5.415,5.44,5.465,5.465,5.491,5.517,5.543,5.543,5.543,5.543,5.57,5.597,5.651,5.735,5.85,6.095,0,6.361,6.54,6.652,6.768,6.888,6.971,7.186,7.368,7.415,7.511,7.559,7.659,7.709,7.761,7.813,7.866,7.866,7.866,7.813,7.813,7.866,7.813,7.761,7.761,7.761,7.866,7.919,7.919,7.919,7.973,7.973,7.973,8.028,8.028,8.028,8.028,8.028,8.084,8.084,8.084,8.141,8.141,8.198,8.198,8.198,8.198,8.256,8.256,8.375,8.497,8.623,8.955,9.313,9.783,10.123,10.302,10.488,10.68,10.779,10.982,11.087,11.194,11.302,11.302,11.302,11.302,11.526,11.641,12.001,12.384,12.793,13.229,13.696,14.197,14.552,0,15.119,15.522,16.168,17.12,18.478,18.776,19.084,18.776,17.91,17.638,16.871,15.317,14.925,14.552,14.372,14.197,13.859,13.696,13.536,13.381,13.381,13.381,13.536,13.696,13.696,14.026,14.026,14.026,14.197,14.197,14.372,14.372,14.372,14.552,14.552,14.552,14.372,14.372,14.197,14.197,13.859,13.696,13.381,12.793,12.254,12.001,11.641,11.194,10.68,0,10.123,9.783,6.729,0,0,5.651,5.597,5.57,5.543,5.543,5.543,5.543,5.543,5.543,5.543,5.543,5.543,5.57,5.57,5.57,5.597,5.651,5.792,6.259,6.729,0,0,8.141,9.239,0,10.394,11.194,11.194,11.526,11.526,11.641,11.879,11.879,12.001,12.254,12.254,12.384,12.384,12.384,12.384,12.254,12.254,12.001,11.879,11.879,11.641,11.526,11.302,11.194,11.194,10.982,10.982,10.88,10.779,10.779,10.68,10.68,10.68,10.583,10.583,10.583,10.583,10.583,10.583,10.583,10.583,10.488,10.488,10.488,10.488,10.488,10.394,10.394,10.394,10.394,10.394,10.394,10.394,10.302,10.302,10.302,10.212,10.123,10.036,9.865,9.783,9.701,9.542,9.239,9.166,8.955,8.955,8.819,8.819,8.819,8.819,8.819,8.819,8.955,8.955,9.024,9.024,9.166,9.166,9.239,9.313,9.464,9.542,9.542,9.701,9.783,9.783,9.865,9.95,10.036,9.95,9.865,9.865,9.783,9.701,9.542,9.313,9.166,8.955,8.623,8.375,8.256,8.141,8.028,7.866,7.659,7.368,7.186,6.929,6.808,6.729,6.69,6.614,6.54,6.396,6.259,6.127,6.001,5.85,5.763,5.679,5.651,5.57,5.543,5.465,5.244,5.151,5.084,4.996,4.954,0,0,0,0,0,0,0,0,0,0,0,0,0,0,0,0,0,2.342,2.338,2.338,2.338,2.328,2.328,2.328,2.328,2.328,2.328,2.328,2.328,2.328,2.328,2.328,2.328,2.324,2.324,2.324,2.333,2.338,2.342,2.342,2.347,2.347,2.352,2.357,2.357,2.352,2.352,2.347,2.342,2.342,2.338,2.338,2.328,2.324,2.314,2.31,2.31,2.301,2.301,2.301,2.301,2.301,2.301,2.31,2.301,2.301,2.296,2.278,2.252,2.23,2.213,2.201,2.18,2.109,0,2.075,2.053,1.997,1.966,1.881,0,1.769,1.745,1.72,1.714,1.712,1.707,1.704,1.702,1.699,1.697,1.695,1.692,1.69,1.687,1.682,1.677,1.673,1.665,1.658,1.644,1.642,1.637,1.637,1.642,1.642,1.644,1.644,1.642,1.637,1.635,1.628,1.624,1.621,1.617,1.615,1.612,1.606,1.588,1.573,1.567,1.567,0,0,1.563,1.56,1.558,1.558,1.558,1.554,1.554,1.55,1.546,1.544,1.542,1.536,1.532,0,0,0,0,0,0,0,0,0,0,0,0,0,0,0,0,0,0,0,0,0,0,0,0,0,0,0,0,0,0,0,0,0,0,0,0,0,0,0,0,0,0,0,0,0,0,0,0,0,0,0,0,0,0,0,0
0,0,0,0,0,0,0,0,0,0,0,0,0,2.955,2.947,2.94,2.94,2.932,2.932,2.932,2.932,2.932,2.932,2.932,2.932,2.94,2.955,2.97,3,3.039,3.072,3.104,3.121,3.138,3.155,3.163,3.163,3.172,3.181,0,0,0,0,0,0,0,0,0,0,0,0,0,0,0,4.601,4.912,4.912,4.851,4.912,5.04,5.151,5.22,5.268,5.34,5.415,5.465,5.491,5.491,5.491,5.517,5.543,5.543,5.543,5.543,5.543,5.543,5.543,5.517,5.491,5.491,5.465,5.44,5.415,5.389,5.389,5.34,5.268,5.268,5.244,5.22,5.22,5.22,5.22,5.244,5.268,5.316,0,5.389,5.415,5.44,5.465,5.491,5.491,5.491,5.491,5.491,5.491,5.465,5.44,5.415,5.389,5.34,5.34,5.316,5.316,5.316,5.316,5.34,5.34,5.389,5.389,5.415,5.415,5.44,5.465,5.465,5.491,5.491,5.491,5.491,5.491,5.491,5.491,5.491,5.465,5.465,5.44,5.415,5.415,5.415,5.389,5.389,5.389,5.389,5.415,5.44,5.465,5.491,5.491,5.517,5.517,5.543,5.543,5.543,5.57,5.597,5.651,5.763,5.939,6.159,0,6.396,6.577,6.69,6.808,6.971,7.098,7.231,7.368,7.511,7.559,7.559,7.659,7.709,7.761,7.813,7.813,7.813,7.761,7.761,7.709,7.709,7.659,7.659,7.559,7.559,7.709,7.709,7.761,7.813,7.813,7.866,7.919,7.919,7.973,7.973,7.973,8.028,8.028,8.028,8.084,8.084,8.141,8.141,8.198,8.198,8.198,8.256,8.256,8.315,8.436,8.56,8.819,9.166,9.542,9.95,10.212,10.394,10.583,10.68,10.88,10.982,11.087,11.194,11.194,11.194,11.194,11.302,11.302,11.879,12.001,12.384,12.935,13.381,14.026,14.372,0,14.736,15.119,15.731,16.396,17.12,17.91,17.91,17.638,16.871,16.168,15.119,14.736,14.372,14.026,13.536,12.935,12.793,12.384,12.254,12.254,12.254,12.384,12.793,12.935,13.229,13.381,13.536,13.696,13.859,14.026,14.197,14.197,14.197,14.372,14.197,14.197,14.197,14.197,13.859,13.536,13.229,12.793,12.254,11.526,11.194,10.982,10.68,0,0,0,8.819,8.198,7.186,0,5.792,5.651,5.597,5.57,5.543,5.543,5.543,5.543,5.543,5.543,5.543,5.543,5.57,5.57,5.57,5.597,5.597,5.651,5.792,6.259,0,0,0,8.084,8.955,0,10.302,11.194,11.194,11.302,11.526,11.641,11.641,11.879,11.879,12.001,12.001,12.254,12.001,12.001,12.001,11.879,11.641,11.641,11.526,11.302,11.194,11.087,10.982,10.982,10.88,10.779,10.68,10.68,10.68,10.583,10.583,10.583,10.583,10.583,10.583,10.583,10.488,10.488,10.488,10.488,10.488,10.488,10.394,10.394,10.394,10.394,10.394,10.302,10.302,10.302,10.302,10.212,10.212,10.212,10.212,10.036,9.95,9.865,9.865,9.542,9.464,9.313,9.239,9.166,8.955,0,0,8.623,8.623,8.623,0,0,0,0,0,8.819,8.955,9.024,9.166,9.239,9.313,9.464,9.701,9.701,9.783,9.865,9.865,9.865,9.95,9.95,9.95,9.865,9.865,9.701,9.542,9.464,9.239,8.955,8.623,8.375,8.256,8.198,8.084,7.973,7.761,7.511,7.322,7.055,6.888,6.729,6.69,6.577,6.396,6.259,6.159,6.001,5.85,5.763,5.679,5.651,5.597,5.57,5.517,5.44,5.389,5.22,5.22,5.151,5.151,5.084,0,0,0,0,0,0,0,0,0,0,0,0,0,0,0,0,0,2.342,2.342,0,2.342,2.338,0,2.338,2.338,2.338,2.338,2.333,2.338,2.338,2.338,2.338,2.338,2.338,2.338,2.338,2.342,2.347,2.352,2.357,2.357,2.361,2.361,2.361,2.361,2.361,2.357,2.357,2.352,2.347,2.342,2.338,2.338,2.328,2.319,2.319,2.314,2.31,2.31,2.314,2.31,2.31,2.314,2.31,2.31,2.301,2.31,2.287,2.269,2.243,2.226,2.213,2.205,2.164,0,0,2.075,0,0,0,0,1.769,1.748,1.72,1.72,1.712,1.709,1.704,1.702,1.699,1.697,1.692,1.69,1.687,1.685,1.682,1.675,1.668,1.661,1.656,1.644,1.642,1.637,1.637,1.642,1.642,1.644,1.642,1.642,1.637,1.635,1.63,1.626,1.621,1.617,1.615,1.615,1.612,1.608,1.601,1.593,1.586,1.588,1.58,1.58,1.58,1.577,1.573,1.571,1.567,1.563,1.556,1.552,1.548,1.546,1.544,0,0,0,0,0,0,0,0,0,0,0,0,0,0,0,0,0,0,0,0,0,0,0,0,0,0,0,0,0,0,0,0,0,0,0,0,0,0,0,0,0,0,0,0,0,0,0,0,0,0,0,0,0,0,0,0,0
0,0,0,0,0,0,0,0,0,0,0,0,0,2.947,2.947,2.94,2.94,2.932,2.932,2.932,2.932,2.932,2.932,2.932,2.932,2.94,2.955,2.97,3,3.039,3.072,3.104,3.121,3.138,3.155,3.163,3.163,3.172,3.181,3.189,3.234,0,3.444,3.538,3.661,3.615,3.56,3.672,3.804,3.973,0,0,0,0,0,0,4.328,0,4.565,4.752,4.83,4.891,4.954,5.084,5.22,5.316,5.44,5.491,5.517,5.543,5.543,5.57,5.57,5.57,5.57,5.57,5.543,5.543,5.543,5.491,5.491,5.465,5.44,5.415,5.389,5.34,5.268,5.268,5.244,5.22,5.22,5.174,5.22,5.244,5.268,5.316,5.34,5.389,5.415,5.44,5.465,5.465,5.491,5.491,5.491,5.491,5.491,5.465,5.44,5.415,5.389,5.389,5.34,5.34,5.34,5.34,5.34,5.34,5.389,5.415,5.415,5.415,5.44,5.44,5.465,5.465,5.465,5.465,5.465,5.465,5.465,5.465,5.465,5.465,5.465,5.465,5.44,5.44,5.415,5.415,5.415,5.415,5.415,5.415,5.44,5.465,5.491,5.491,5.491,5.517,5.517,5.517,5.543,5.543,5.57,5.597,5.679,5.792,6.001,6.225,0,6.467,6.614,6.729,6.888,7.098,7.231,7.368,7.511,7.559,7.659,7.659,7.709,7.761,7.761,7.813,7.813,7.761,7.709,7.659,7.659,7.559,7.559,7.511,7.511,7.511,7.559,7.659,7.709,7.709,7.761,7.813,7.866,7.866,7.919,7.919,7.973,7.973,7.973,8.028,8.028,8.084,8.084,8.141,8.141,8.198,8.198,8.256,8.256,8.315,8.436,8.56,8.819,9.166,9.464,9.865,10.123,10.302,10.488,10.583,10.68,10.88,10.982,11.087,11.087,11.087,11.087,11.087,11.194,11.526,11.641,12.001,12.518,12.935,13.696,14.197,14.552,0,14.925,15.317,15.731,16.396,16.396,16.396,16.168,15.317,14.925,14.552,14.197,13.696,12.935,12.518,12.001,11.879,11.641,11.526,11.641,11.879,12.001,12.384,12.518,12.793,12.935,13.229,13.536,13.536,13.696,13.696,13.696,13.859,13.696,13.696,13.536,13.381,12.935,12.518,12.254,11.879,11.302,10.88,10.583,10.394,10.212,9.701,9.239,0,0,8.141,6.729,0,0,5.763,5.651,5.597,5.57,5.57,5.543,5.543,5.543,5.543,5.543,5.543,5.57,5.57,5.57,5.597,5.597,5.624,5.651,5.821,6.259,6.69,0,7.322,8.028,8.819,0,10.212,11.087,11.087,11.194,11.302,11.302,11.526,11.641,11.641,11.641,11.641,11.879,11.879,11.879,11.641,11.526,11.526,11.194,11.194,11.087,11.087,10.88,10.88,10.779,10.779,10.68,10.68,10.68,10.583,10.583,10.583,10.583,10.583,10.583,10.583,10.583,10.583,10.583,10.583,10.583,10.488,10.394,10.394,10.394,10.394,10.394,10.302,10.302,10.212,10.212,10.123,10.123,10.123,9.95,9.95,9.865,9.701,9.701,9.542,9.464,9.239,9.166,9.024,0,0,0,0,0,0,0,0,0,0,0,0,8.623,8.819,8.955,9.166,9.239,9.464,9.701,9.783,9.865,9.865,9.95,9.95,9.95,10.036,10.036,9.95,0.459,0.459,0.46,0.461,0.461,0.462,0.463,0.463,0.463,8.198,8.084,8.028,7.919,7.709,7.415,7.186,6.971,6.848,6.729,6.614,6.396,6.159,6.032,5.909,5.735,5.679,5.651,5.597,5.57,5.543,5.465,5.415,5.34,5.22,5.174,5.174,5.151,5.151,5.106,5.106,0,0,0,0,0,0,0,0,0,0,0,0,0,0,0,2.342,2.342,2.342,2.342,2.342,2.338,2.338,2.338,2.338,2.338,2.338,2.338,2.338,2.338,2.338,2.342,2.342,2.342,2.342,2.342,2.352,2.357,2.361,2.366,2.371,2.371,2.371,2.376,2.376,2.366,2.366,2.361,2.361,2.357,2.347,2.342,2.342,2.338,2.328,2.324,2.319,2.319,2.314,2.319,2.319,2.319,2.319,2.319,2.314,2.31,2.314,2.301,2.287,2.269,2.252,2.234,2.217,2.213,2.201,2.148,0,0,0,1.918,0,0,1.769,1.748,1.735,1.72,1.709,1.704,1.702,1.697,1.695,1.692,1.69,1.687,1.685,1.68,1.675,1.668,1.661,1.656,1.644,1.642,1.642,1.642,1.642,1.642,1.644,1.644,1.644,1.642,1.637,1.633,1.628,1.624,1.621,1.621,1.617,0,0,0,0,0,1.601,1.595,1.595,1.595,1.593,1.588,1.588,1.584,1.577,1.567,1.56,1.554,1.55,0,0,0,0,0,0,0,0,0,0,0,0,0,0,0,0,0,0,0,0,0,0,0,0,0,0,0,0,0,0,0,0,0,0,0,0,0,0,0,0,0,0,0,0,0,0,0,0,0,0,0,0,0,0,0,0,0,0
0,0,0,0,0,0,0,0,0,0,0,0,0,0,0,2.932,2.932,2.932,2.932,2.932,2.932,2.932,2.932,2.932,2.932,2.94,2.955,2.97,3.016,3.039,3.072,3.104,3.129,3.146,3.155,3.163,3.172,3.181,3.181,3.189,3.298,3.394,3.394,0,3.454,3.465,3.506,3.582,3.707,3.707,3.743,3.743,3.743,3.743,0,0,0,0,4.312,0,4.41,4.583,4.752,4.851,4.933,5.084,5.268,5.415,5.491,5.517,5.543,5.57,5.57,5.57,5.57,5.57,5.57,5.543,5.517,5.517,5.491,5.44,5.44,5.415,5.34,5.316,5.316,5.268,5.244,5.22,5.22,5.22,5.22,5.244,5.268,5.316,5.316,5.389,5.415,5.415,5.44,5.465,5.465,5.465,5.491,5.491,5.465,5.465,5.44,5.44,5.415,5.389,5.389,5.389,5.389,5.389,5.389,5.389,5.415,5.415,5.44,5.44,5.44,5.44,5.465,5.465,5.465,5.465,5.465,5.44,5.44,5.44,5.44,5.44,5.44,5.44,5.44,5.44,5.44,5.44,5.44,5.44,5.44,5.44,5.465,5.465,5.491,5.491,5.491,5.517,5.517,5.517,5.543,5.543,5.57,5.597,5.679,5.792,6.032,0,6.259,6.504,6.614,6.768,6.971,7.231,7.368,7.511,7.559,7.709,7.709,7.761,7.813,7.813,7.813,7.866,7.813,7.813,7.761,7.709,7.659,7.559,7.559,7.511,7.511,7.511,7.559,7.559,7.659,7.709,7.709,7.761,7.813,7.813,7.866,7.866,7.919,7.973,7.973,7.973,8.028,8.028,8.084,8.084,8.084,8.141,8.198,8.198,8.256,8.256,8.375,8.497,8.753,9.024,9.313,9.701,10.036,10.212,10.394,10.488,10.583,10.68,10.779,10.88,10.982,10.88,10.88,10.982,11.087,11.194,11.526,11.641,12.254,12.793,13.229,13.859,14.197,14.552,0,14.925,15.119,15.522,15.522,15.522,15.119,14.736,14.372,14.026,13.536,12.935,12.384,12.001,11.526,11.302,11.194,11.194,11.302,11.526,11.641,12.001,12.384,12.518,12.793,12.793,13.229,13.381,13.381,13.381,13.229,13.229,12.935,12.793,12.518,12.001,12.001,11.526,11.194,10.982,10.68,10.488,10.212,9.542,9.166,8.819,8.497,8.198,7.973,7.709,6.577,6.327,0,5.707,5.624,5.57,5.57,5.543,5.543,5.543,5.543,5.543,5.543,5.57,5.57,5.57,5.597,5.597,5.597,5.651,5.651,5.821,6.259,6.69,0,0,7.973,8.623,0,10.123,10.982,10.88,11.087,11.087,11.087,11.087,11.194,11.194,11.194,11.302,11.302,11.302,11.302,11.302,11.302,11.194,11.087,10.982,10.982,10.779,10.779,10.68,10.68,10.68,10.583,10.583,10.583,10.583,10.583,10.583,10.583,10.583,10.583,10.583,10.583,10.583,10.583,10.488,10.488,10.488,10.394,10.394,10.394,10.302,10.302,10.212,10.212,10.123,10.036,9.95,9.865,9.701,9.701,9.542,9.464,9.313,9.239,9.166,9.024,8.955,0,0,0,0,0,0,0,0,0,0,0,0,0,0,8.497,8.623,8.955,9.166,9.313,9.542,9.783,9.95,10.036,10.036,10.123,10.036,10.123,10.123,10.036,0.458,0.458,0.459,0.46,0.461,0.461,0.462,0.463,0.463,0.463,0.463,8.028,7.919,7.761,7.559,7.322,7.098,6.888,6.729,6.652,6.361,6.159,5.939,5.763,5.679,5.651,5.597,5.57,5.517,5.491,5.44,5.34,5.316,5.22,5.174,5.151,5.174,5.174,5.151,5.151,5.151,0,0,0,0,0,0,0,0,0,0,0,0,0,0,0,2.342,2.347,2.342,2.347,2.342,2.342,2.342,2.342,2.338,2.342,2.342,2.342,2.342,2.342,2.342,2.342,2.342,2.347,2.347,2.352,2.361,2.366,2.376,2.381,2.386,2.386,2.386,2.386,2.386,2.381,2.376,2.371,2.361,2.361,2.357,2.347,2.342,2.338,2.338,2.333,2.328,2.324,2.324,2.324,2.324,2.324,2.324,2.319,2.319,2.314,2.314,2.301,2.296,2.287,2.278,2.265,2.243,2.234,2.222,2.213,2.201,0,0,1.96,1.866,0,1.775,1.761,1.745,1.714,1.707,1.702,1.699,1.697,1.692,1.69,1.687,1.682,1.68,1.677,1.673,1.665,1.658,1.656,1.649,1.644,1.642,1.642,1.642,1.644,1.644,1.644,1.642,1.637,1.635,1.633,1.63,1.626,1.624,1.624,1.624,1.621,1.621,1.617,1.615,0,1.612,0,0,1.606,1.603,1.603,1.601,1.599,1.593,1.584,1.573,1.565,0,0,0,0,0,0,0,0,0,0,0,0,0,0,0,0,0,0,0,0,0,0,0,0,0,0,0,0,0,0,0,0,0,0,0,0,0,0,0,0,0,0,0,0,0,0,0,0,0,0,0,0,0,0,0,0,0,0,0
0,0,0,0,0,0,0,0,0,0,0,0,0,0,0,2.932,2.94,2.94,2.932,2.932,2.932,2.932,2.932,2.932,2.94,2.947,2.962,2.977,3.016,3.047,3.08,3.113,3.129,3.146,3.155,3.163,3.172,3.181,3.181,3.189,3.216,3.243,3.317,3.384,3.404,3.454,0,3.485,3.506,3.528,3.528,3.549,3.593,3.649,3.817,0,0,0,0,0,4.28,4.376,0,4.583,4.771,4.891,5.04,5.268,5.415,5.491,5.517,5.543,5.543,5.543,5.543,5.543,5.543,5.543,5.517,5.491,5.465,5.44,5.415,5.389,5.389,5.316,5.316,5.268,5.244,5.244,5.244,5.244,5.244,5.268,5.268,5.316,5.34,5.34,5.415,5.415,5.44,5.465,5.465,5.465,5.465,5.465,5.465,5.465,5.44,5.415,5.415,5.415,5.415,5.415,5.415,5.415,5.415,5.415,5.44,5.44,5.44,5.44,5.44,5.465,5.465,5.465,5.465,5.465,5.44,5.44,5.44,5.44,5.44,5.44,5.44,5.44,5.44,5.465,5.465,5.465,5.465,5.465,5.465,5.465,5.465,5.491,5.491,5.491,5.491,5.517,5.517,5.517,5.543,5.543,5.543,5.597,5.679,5.792,6.032,0,6.259,6.504,6.614,6.808,7.055,7.322,7.415,7.559,7.659,7.761,7.813,7.813,7.866,7.866,7.919,7.919,7.919,7.866,7.813,7.761,7.709,7.659,7.559,7.559,7.511,7.559,7.559,7.659,7.709,7.709,7.709,7.761,7.813,7.813,7.813,7.866,7.866,7.919,7.919,7.973,7.973,8.028,8.028,8.084,8.084,8.141,8.141,8.198,8.198,8.256,8.315,8.436,8.623,8.819,9.166,9.542,9.865,10.123,10.302,10.394,10.583,10.68,10.68,10.779,10.88,10.88,10.88,10.982,10.982,11.087,11.302,11.526,11.879,12.384,12.935,13.536,14.026,14.372,14.552,14.925,14.925,0,14.925,14.925,14.552,14.372,14.026,13.536,12.793,12.384,11.879,11.526,11.302,11.087,11.087,11.087,11.194,11.302,11.526,11.879,12.001,12.384,12.518,12.793,13.229,13.381,13.229,13.229,12.935,12.935,12.518,12.254,11.879,11.526,11.194,10.982,10.779,10.583,10.394,10.212,9.464,8.955,8.56,8.315,8.141,7.973,7.761,6.729,6.504,6.127,0,5.679,5.597,5.57,5.543,5.543,5.543,5.543,5.543,5.543,5.543,5.57,5.57,5.57,5.597,5.597,5.624,5.624,5.651,5.763,6.225,6.614,0,0,7.919,8.56,0,10.123,10.88,10.982,10.982,10.982,11.087,10.982,10.982,11.087,11.087,11.087,11.087,11.087,11.194,11.087,11.087,10.982,10.88,10.88,10.779,10.68,10.68,10.68,10.583,10.583,10.583,10.488,10.488,10.488,10.488,10.583,10.583,10.583,10.583,10.583,10.583,10.583,10.583,10.583,10.488,10.394,10.394,10.394,10.302,10.212,10.123,10.036,9.95,9.865,9.701,9.542,9.464,9.239,9.239,9.166,9.024,8.955,8.819,8.753,8.623,0,0,0,0,0,0,0,0,0,0,0,0,0,0,0,0,0,0,9.542,9.783,10.036,10.212,10.302,10.302,10.302,10.394,10.302,10.302,10.302,0.458,0.458,0.458,0.459,0.46,0.461,0.461,0.462,0.462,0.463,0.463,0.463,0.463,7.973,7.813,7.559,7.231,6.971,6.848,6.69,6.577,6.159,6.001,5.763,5.679,5.624,5.57,5.543,5.491,5.44,5.389,5.316,5.268,5.244,5.174,5.174,5.151,5.151,5.151,5.174,5.174,5.174,0,0,0,0,0,0,0,0,0,0,0,0,0,0,0,2.347,2.347,2.347,2.352,2.352,2.347,2.347,2.347,2.347,2.342,2.342,2.342,2.342,2.342,2.347,2.347,2.347,2.357,2.357,2.361,2.376,2.386,2.39,2.405,2.405,2.405,2.415,2.405,2.4,2.39,2.386,2.381,2.371,2.361,2.361,2.352,2.347,2.342,2.338,2.338,2.333,2.333,2.328,2.328,2.328,2.328,2.324,2.324,2.324,2.319,2.314,2.314,2.31,2.301,2.296,2.296,2.283,2.278,2.265,2.256,2.239,2.213,0,1.997,0,0,1.78,1.769,1.748,1.714,1.704,1.699,1.697,1.692,1.687,1.685,1.68,1.677,1.673,1.668,1.661,1.658,1.656,1.644,1.642,1.642,1.637,1.637,1.642,1.642,1.637,1.637,1.635,1.635,1.635,1.63,1.63,1.628,1.626,1.624,1.624,0,0,0,0,0,0,1.61,1.61,1.61,1.608,1.606,1.603,1.601,1.595,1.588,1.58,0,0,0,0,0,0,0,0,0,0,0,0,0.769,0.768,0.767,0.767,0,0,0,0,0,0,0,0,0,0,0,0,0,0,0,0,0,0,0,0,0,0,0,0,0,0,0,0,0,0,0,0,0,0,0,0,0,0,0,0,0,0,0,0
0,0,0,0,0,0,0,0,0,0,0,0,0,0,0,2.94,2.94,2.94,2.94,2.932,2.932,2.932,2.932,2.94,2.947,2.955,2.97,2.993,3.024,3.055,3.096,3.113,3.138,3.146,3.155,3.163,3.172,3.181,3.181,3.189,3.198,3.216,3.234,3.27,3.317,3.336,3.365,3.394,3.434,3.454,3.485,3.496,3.528,0,3.593,3.649,3.743,3.804,3.842,3.906,4.028,0,0,0,4.46,4.732,4.891,5.018,5.22,5.389,5.465,5.465,5.491,5.491,5.517,5.517,5.491,5.491,5.465,5.44,5.44,5.415,5.415,5.389,5.34,5.34,5.316,5.316,5.268,5.268,5.268,5.244,5.268,5.268,5.316,5.316,5.34,5.389,5.415,5.415,5.44,5.465,5.465,5.465,5.465,5.465,5.465,5.465,5.44,5.44,5.415,5.415,5.415,5.44,5.44,5.44,5.44,5.44,5.44,5.44,5.44,5.44,5.465,5.465,5.465,5.465,5.465,5.44,5.415,5.415,5.389,5.389,5.415,5.415,5.415,5.44,5.44,5.465,5.465,5.465,5.491,5.491,5.491,5.491,5.491,5.491,5.517,5.517,5.517,5.517,5.517,5.517,5.543,5.543,5.543,5.597,5.651,5.792,6.032,6.259,0,6.504,6.652,6.808,7.098,7.368,7.511,7.659,7.709,7.813,7.813,7.866,7.866,7.919,7.919,7.919,7.919,7.866,7.866,7.813,7.761,7.709,7.659,7.659,7.559,7.559,7.659,7.709,7.709,7.709,7.761,7.761,7.813,7.813,7.813,7.866,7.866,7.919,7.919,7.973,7.973,8.028,8.028,8.028,8.084,8.084,8.141,8.198,8.198,8.256,8.256,8.375,8.497,8.753,9.024,9.464,9.783,10.036,10.212,10.394,10.488,10.583,10.68,10.68,10.779,10.779,10.88,10.982,10.982,11.194,11.302,11.526,11.879,12.254,12.518,13.229,13.536,14.026,14.197,14.372,14.552,14.552,14.552,14.372,14.197,13.859,13.381,12.793,12.384,11.879,11.526,11.194,11.087,10.982,10.982,10.982,10.982,11.194,11.302,11.641,12.001,12.384,12.518,12.793,13.229,13.381,13.381,13.381,13.229,12.935,12.518,12.001,11.526,11.087,10.982,10.68,10.583,10.394,10.212,9.464,8.955,8.497,8.256,8.084,7.973,7.709,7.415,6.614,6.361,0,0,5.679,5.597,5.57,5.543,5.543,5.543,5.543,5.543,5.543,5.543,5.57,5.57,5.57,5.57,5.597,5.597,5.624,5.651,5.735,6.095,6.54,0,0,7.659,8.256,9.865,0,10.88,10.779,10.88,10.88,10.88,10.88,10.88,10.88,10.88,10.88,10.88,10.982,10.88,10.88,10.88,10.88,10.88,10.68,10.68,10.68,10.68,10.583,10.583,10.583,10.488,10.488,10.488,10.488,10.488,10.488,10.583,10.583,10.583,10.583,10.583,10.583,10.583,10.583,10.488,10.394,10.394,10.302,10.212,10.123,10.036,9.865,9.701,9.464,9.239,9.166,9.024,8.955,8.819,8.753,8.623,8.56,8.56,8.56,0,0,0,0,0,0,0,0,0,0,0,0,0,0,0,0,0,0,0,9.95,10.212,10.302,10.394,10.583,10.583,10.583,10.68,10.583,10.583,0.458,0.458,0.458,0.458,0.459,0.459,0.461,0.461,0.462,0.462,0.462,0.463,0.463,0.463,7.973,7.813,7.659,7.322,6.971,6.808,6.69,6.259,6.032,0,5.679,5.597,5.57,5.517,5.44,5.389,5.34,5.268,5.244,5.174,5.151,5.151,5.151,5.151,5.151,5.174,5.174,5.174,5.22,0,0,0,0,0,0,0,0,0,0,0,0,0,0,0,2.357,2.357,2.357,2.357,2.357,2.352,2.347,2.352,2.347,2.342,2.342,2.342,2.342,2.342,2.347,2.347,2.347,2.357,2.361,2.376,2.386,2.4,2.415,2.42,0,2.43,2.435,2.43,2.42,2.405,2.4,2.381,2.381,2.371,2.361,2.357,2.352,2.347,2.342,2.338,2.338,2.333,2.333,2.333,2.328,2.328,2.324,2.324,2.324,2.319,2.314,2.314,2.31,2.301,2.301,2.296,2.287,2.287,2.283,2.283,2.278,2.239,0,0,0,0,1.783,1.772,1.748,1.712,1.702,1.697,1.695,1.69,1.687,1.682,1.68,1.675,1.673,1.665,1.661,1.656,1.651,1.642,1.637,1.637,1.637,1.637,1.635,1.635,1.635,1.635,1.635,1.633,1.633,1.633,1.628,0,0,0,0,0,0,0,0,0,0,0,1.612,1.612,1.61,1.608,1.606,1.603,0,0,0,0,0,0,0,0,0,0,0,0,0,0.766,0.765,0.765,0.764,0.765,0.765,0.764,0,0,0,0,0,0,0,0,0,0,0,0,0,0,0,0,0,0,0,0,0,0,0,0,0,0,0,0,0,0,0,0,0,0,0,0,0,0,0,0,0,0,0
0,0,0,0,0,0,0,0,0,0,0,0,0,0,2.947,2.947,2.947,2.947,2.947,2.932,2.932,2.932,2.94,2.947,2.955,2.962,2.977,3.016,3.039,3.08,3.113,3.129,3.146,3.155,3.155,3.163,3.172,3.181,3.181,3.189,3.198,3.216,3.234,3.27,3.317,3.336,3.365,3.394,3.414,3.434,3.444,3.454,3.465,3.485,3.506,3.538,0,3.615,3.696,3.78,3.829,3.893,0,4.249,4.36,0,4.601,4.83,4.933,5.084,5.22,5.316,5.389,5.44,5.44,5.44,5.44,5.44,5.44,5.415,5.415,5.389,5.389,5.34,5.34,5.316,5.316,5.316,5.268,5.268,5.268,5.268,5.268,5.316,5.316,5.34,5.34,5.389,5.415,5.44,5.44,5.44,5.465,5.465,5.465,5.465,5.465,5.44,5.44,5.44,5.415,5.415,5.44,5.44,5.44,5.44,5.44,5.44,5.44,5.44,5.44,5.44,5.44,5.465,5.44,5.44,5.44,5.415,5.415,5.389,5.389,5.389,5.389,5.389,5.415,5.44,5.465,5.491,5.491,5.517,5.517,5.517,5.517,5.517,5.517,5.517,5.543,5.517,5.517,5.517,5.517,5.517,5.543,5.543,5.543,5.57,5.651,5.792,6.001,6.259,0,6.504,6.652,6.808,7.098,7.368,7.559,7.659,7.709,7.761,7.813,7.866,7.866,7.919,7.919,7.919,7.919,7.866,7.866,7.813,7.813,7.761,7.761,7.761,7.761,7.761,7.761,7.813,7.813,7.813,7.813,7.866,7.866,7.866,7.866,7.866,7.866,7.919,7.973,7.973,7.973,7.973,8.028,8.028,8.028,8.084,8.084,8.141,8.198,8.198,8.256,8.315,8.436,8.623,8.955,9.239,9.701,9.95,10.212,10.302,10.394,10.583,10.583,10.68,10.779,10.88,10.88,10.982,11.087,11.194,11.302,11.526,11.879,12.001,12.254,12.793,13.229,13.536,13.859,14.026,14.197,14.197,14.026,13.859,13.536,13.229,12.518,12.254,11.641,11.302,11.194,11.087,10.982,10.88,10.88,10.88,10.982,11.087,11.302,11.641,12.001,12.384,12.518,12.935,13.229,13.536,13.696,13.536,13.381,12.935,12.518,12.001,11.526,11.087,10.982,10.68,10.488,10.302,9.701,9.024,8.497,8.198,8.028,7.973,7.709,7.368,6.69,6.504,6.159,0,5.707,5.651,5.597,5.57,5.543,5.543,5.543,5.543,5.543,5.543,5.543,5.543,5.57,5.57,5.57,5.57,5.597,5.597,5.624,5.679,5.85,6.259,0,0,6.971,7.919,8.623,0,10.394,10.583,10.68,10.68,10.68,10.68,10.68,10.68,10.68,10.68,10.68,10.68,10.779,10.68,10.68,10.68,10.68,10.68,10.68,10.583,10.583,10.583,10.583,10.488,10.488,10.488,10.488,10.488,10.488,10.488,10.583,10.583,10.583,10.583,10.583,10.583,10.583,10.583,10.583,10.394,10.302,10.302,10.123,9.95,9.783,9.464,9.239,8.955,8.819,8.623,8.56,8.497,8.436,8.436,8.375,8.375,0,0,0,0,0,0,0,0,0,0,0,0,0,0,0,0,0,0,0,0,0,0,10.488,10.583,10.68,10.88,10.982,11.087,11.087,0.457,0.457,0.457,0.458,0.458,0.458,0.458,0.459,0.46,0.461,0.461,0.462,0.462,0.463,0.463,0.463,0.463,7.866,7.659,7.322,6.971,6.768,6.614,6.127,0,5.679,5.597,5.543,5.491,5.415,5.316,5.268,5.244,5.22,5.151,5.106,5.106,5.106,5.106,5.106,5.151,5.174,5.174,5.174,0,0,0,0,0,0,0,0,0,0,0,0,0,0,0,0,2.357,2.357,2.357,2.357,2.357,2.352,2.347,2.352,2.347,2.342,2.342,2.342,2.342,2.342,2.342,2.347,2.347,2.357,2.361,2.376,2.39,0,2.415,2.42,2.43,2.435,2.435,2.435,2.42,2.415,2.4,2.386,2.381,2.376,2.366,2.361,2.357,2.347,2.342,2.342,2.338,2.338,2.338,2.333,2.333,2.328,2.328,2.324,2.324,2.319,2.314,2.314,2.31,2.301,2.301,2.296,2.287,2.287,2.283,2.287,2.283,2.252,2.222,0,0,1.943,1.866,1.78,1.748,1.712,1.702,1.697,1.695,1.69,1.685,1.68,1.675,1.668,1.665,1.661,1.656,1.651,1.644,1.642,1.637,1.635,1.635,1.633,1.633,1.633,1.633,1.63,1.63,1.628,1.628,0,0,0,0,0,0,0,0,0,0,0,0,0,0,0,0,1.608,1.608,1.606,0,0,0,0,0,0,0,0,0,0.76,0,0.76,0.761,0.76,0.76,0.76,0.76,0.76,0.76,0.76,0.759,0,0,0,0,0,0,0,0,0,0,0,0,0,0,0,0,0,0,0,0,0,0,0,0,0,0,0,0,0,0,0,0,0,0,0,0,0,0,0,0,0,0
0,0,0,0,0,0,0,0,0,0,0,0,0,0,2.955,2.955,2.955,2.955,2.955,2.94,2.94,2.94,2.947,2.955,2.962,2.977,3,3.024,3.055,3.104,3.129,3.138,3.146,3.155,3.163,3.163,3.172,3.181,3.181,3.189,3.198,3.216,3.243,3.27,3.317,3.336,3.365,3.404,3.414,3.434,3.444,3.454,3.454,3.465,3.475,3.496,3.517,3.549,3.627,0,3.731,3.804,3.855,0,4.203,4.328,0,4.565,4.81,4.891,4.975,5.084,5.22,5.268,5.34,5.34,5.389,5.389,5.389,5.389,5.389,5.34,5.34,5.34,5.316,5.316,5.316,5.316,5.268,5.268,5.316,5.316,5.316,5.316,5.316,5.34,5.389,5.415,5.415,5.415,5.44,5.44,5.44,5.44,5.415,5.415,5.415,5.415,5.415,5.415,5.415,5.415,5.415,5.44,5.44,5.44,5.44,5.44,5.44,5.44,5.44,5.415,5.415,5.44,5.44,5.44,5.415,5.415,5.389,5.389,5.34,5.389,5.389,5.389,5.389,5.44,5.44,5.491,5.517,5.517,5.543,5.543,5.543,5.543,5.543,5.543,5.543,5.543,5.517,5.517,5.517,5.517,5.543,5.543,5.543,5.57,5.651,5.792,6.001,6.259,0,6.504,6.614,6.808,7.098,7.415,7.559,7.659,7.709,7.761,7.813,7.813,7.866,7.866,7.866,7.919,7.919,7.866,7.866,7.866,7.813,7.866,7.866,7.813,7.813,7.866,7.866,7.919,7.919,7.919,7.919,7.919,7.919,7.919,7.919,7.919,7.919,7.919,7.919,7.973,7.973,7.973,7.973,8.028,8.028,8.084,8.084,8.084,8.141,8.198,8.198,8.256,8.375,8.56,8.819,9.239,9.542,9.865,10.123,10.302,10.394,10.488,10.583,10.68,10.779,10.88,10.982,11.087,11.302,11.302,11.526,11.641,12.001,12.001,12.254,12.518,12.793,13.229,13.381,13.536,13.536,13.696,13.381,12.935,12.518,12.254,11.879,11.526,11.302,11.194,11.087,10.982,10.982,10.982,10.982,10.982,10.982,11.194,11.302,11.641,12.254,12.518,12.935,13.381,13.696,13.859,13.859,13.859,13.536,13.381,12.793,12.254,11.641,11.194,10.982,10.68,10.488,10.302,10.036,9.166,8.497,8.198,8.028,7.761,7.559,7.098,6.614,6.361,6.001,5.763,5.679,5.597,5.57,5.543,5.543,5.543,5.543,5.543,5.543,5.543,5.543,5.543,5.543,5.543,5.543,5.543,5.543,5.57,5.57,5.597,5.679,5.85,0,0,6.888,0,7.866,8.753,9.464,0,10.212,10.302,10.394,10.583,10.583,10.583,10.583,10.583,10.583,10.583,10.583,10.583,10.68,10.68,10.68,10.68,10.583,10.583,10.583,10.488,10.488,10.394,10.394,10.394,10.394,10.394,10.394,10.488,10.583,10.583,10.583,10.583,10.583,10.583,10.583,10.583,10.488,10.394,10.302,10.212,9.95,9.701,9.313,9.024,8.753,8.497,8.315,8.256,8.256,8.198,8.198,8.198,8.141,8.198,0,0,0,0,0,0,0,0,0,0,0,0,0,0,0,0,0,0,0,0,0,0,0,0,11.087,11.194,11.302,11.526,11.526,0.456,0.457,0.457,0.457,0.458,0.458,0.458,0.459,0.459,0.46,0.461,0.461,0.462,0.462,0.463,0.463,0.463,7.919,7.709,7.322,6.971,6.729,6.327,6.001,5.763,5.651,5.57,5.517,5.415,5.316,5.244,5.22,5.174,5.106,5.106,5.084,5.084,5.084,5.084,5.106,5.151,5.151,5.174,0,0,0,0,0,0,0,0,0,0,0,0,0,0,0,0,0,0,2.357,2.357,2.357,2.357,2.352,2.347,2.347,2.347,2.338,2.342,2.338,2.342,2.342,2.342,2.342,2.347,2.357,2.366,2.386,2.4,0,2.42,2.43,2.435,2.441,2.441,2.435,2.43,2.415,2.4,2.39,2.381,2.376,2.366,2.361,2.357,2.352,2.347,2.342,2.342,2.342,2.338,2.338,2.333,2.333,2.328,2.328,2.324,2.319,2.319,2.314,2.31,2.301,2.301,2.296,2.296,2.287,2.287,2.283,2.283,2.265,2.234,2.217,0,1.983,0,0,1.722,1.709,1.699,1.697,1.69,1.687,1.68,1.673,1.668,1.661,1.656,1.651,1.644,1.642,1.642,1.637,1.635,1.633,1.633,1.633,1.633,1.63,1.63,1.63,1.63,1.626,1.624,1.624,1.624,1.624,0,0,0,0,0,0,0,0,0,0,0,0,0,0,0,0,0,0,0,0,0,0,0,0,0,0,0,0.756,0,0.755,0.755,0.756,0.756,0.757,0.756,0.756,0.756,0,0,0,0,0,0,0,0,0,0,0,0,0,0,0,0,0,0,0,0,0,0,0,0,0,0,0,0,0,0,0,0,0,0,0,0,0,0,0,0,0,0
0,0,0,0,0,0,0,0,0,0,0,0,0,0,2.97,2.962,2.962,2.962,2.955,2.947,2.947,2.94,2.947,2.962,2.977,3,3.024,3.047,3.08,3.121,3.146,3.146,3.155,3.163,3.163,3.172,3.172,3.181,3.181,3.189,3.198,3.216,3.243,3.27,3.317,3.336,3.384,3.404,3.414,3.434,3.444,3.444,3.454,3.454,3.465,3.475,3.485,3.496,3.538,3.593,0,3.672,3.78,3.842,0,4.158,4.312,4.53,0,4.752,4.851,4.912,5.018,5.151,5.244,5.268,5.316,5.316,5.316,5.34,5.34,5.34,5.34,5.316,5.316,5.316,5.316,5.316,5.316,5.316,5.316,5.316,5.316,5.316,5.34,5.34,5.389,5.415,5.415,5.415,5.415,5.415,5.415,5.389,5.389,5.389,5.389,5.389,5.389,5.389,5.389,5.389,5.415,5.415,5.44,5.44,5.44,5.415,5.44,5.44,5.44,5.415,5.415,5.44,5.44,5.415,5.415,5.389,5.389,5.34,5.34,5.34,5.389,5.389,5.389,5.44,5.465,5.491,5.517,5.543,5.57,5.57,5.57,5.57,5.543,5.543,5.543,5.543,5.543,5.517,5.517,5.517,5.543,5.543,5.543,5.57,5.651,5.763,6.001,6.259,0,6.504,6.614,6.768,7.055,7.415,7.511,7.659,7.709,7.761,7.761,7.813,7.813,7.866,7.866,7.866,7.919,7.866,7.866,7.866,7.866,7.919,7.919,7.919,7.919,7.919,7.973,7.973,7.973,7.973,7.973,7.973,7.973,7.973,7.973,7.973,7.919,7.919,7.919,7.919,7.919,7.973,7.973,7.973,7.973,8.028,8.028,8.084,8.141,8.198,8.198,8.256,8.375,8.56,8.819,9.166,9.464,9.865,10.123,10.302,10.394,10.583,10.68,10.779,10.88,11.087,11.194,11.526,11.641,11.879,12.001,12.254,12.384,12.384,12.518,12.793,12.935,13.229,12.935,13.229,12.935,12.793,12.518,12.384,12.001,11.879,11.526,11.302,11.302,11.194,11.194,11.194,11.087,11.087,11.087,11.087,11.194,11.302,11.641,12.001,12.384,12.793,13.229,13.536,13.859,14.026,14.026,14.026,13.696,13.536,12.935,12.384,11.641,11.194,10.982,10.68,10.488,10.302,10.036,9.024,8.497,8.198,8.028,7.659,7.322,6.69,6.467,0,0,0,5.624,5.597,5.57,5.543,5.543,5.543,5.543,5.543,5.543,5.543,5.517,5.543,5.543,5.517,5.517,5.517,5.517,5.517,5.517,5.543,5.57,0,0,0,0,0,0,0,0,0,0,0,0,0,0,0,0,0,0,0,0,0,0,0,10.68,10.583,10.583,10.583,10.583,10.394,10.394,10.394,10.394,10.394,10.394,10.394,10.394,10.488,10.488,10.488,10.583,10.583,10.583,10.583,10.488,10.394,0,0,0,0,9.701,9.313,9.024,8.753,8.497,8.256,8.198,8.198,8.084,8.084,8.084,8.028,0,0,0,0,0,0,0,0,0,0,0,0,0,0,0,0,0,0,0,0,0,0,0,0,0,0,11.879,11.879,12.001,12.001,0.456,0.456,0.457,0.457,0.457,0.458,0.458,0.458,0.458,0.459,0.46,0.46,0.461,0.461,0.462,0.462,0.462,0.463,0.463,7.761,0,0,6.729,6.225,5.909,5.679,5.597,5.543,5.465,5.389,5.268,5.22,5.106,5.106,5.106,5.084,5.084,5.084,5.084,5.084,5.106,5.106,0,0,0,0,0,0,0,0,0,0,0,0,0,0,0,0,0,0,0,0,0,2.357,2.357,2.352,2.347,2.347,2.347,2.342,2.338,2.338,2.338,2.338,2.338,2.338,2.338,2.342,2.357,2.361,2.386,2.4,0,2.42,2.43,2.435,2.451,2.441,2.441,2.43,2.42,2.405,2.39,2.386,2.376,2.371,2.361,2.357,2.352,2.347,2.342,2.342,2.342,2.338,2.338,2.338,2.333,2.328,2.324,2.324,2.319,2.314,2.31,2.31,2.301,2.296,2.296,2.296,2.283,2.283,2.283,2.283,2.269,2.252,2.23,2.217,0,0,0,0,0,0,1.695,1.69,1.682,1.673,1.668,1.661,1.656,1.651,1.649,1.644,1.637,1.637,1.637,1.635,0,0,0,1.63,1.63,1.628,1.628,1.628,1.626,1.624,1.624,0,0,0,0,0,0,0,0,0,0,0,0,0,0,0,0,0,0,0,0,0,0,0,0,0,0,0,0,0,0,0,0.753,0.753,0,0,0,0,0,0,0,0,0,0,0,0,0,0,0,0,0,0,0,0,0,0,0,0,0,0,0,0,0,0,0,0,0,0,0,0,0,0,0,0,0,0,0,0,0,0,0,0
0,0,0,0,0,0,0,0,0,0,0,0,0,0,2.977,2.97,2.97,2.962,2.962,2.955,2.947,2.947,2.955,2.97,2.993,3.016,3.039,3.072,3.113,3.138,3.155,3.155,3.163,3.163,3.163,3.172,3.172,3.181,3.181,3.189,3.198,3.216,3.243,3.27,3.317,3.336,3.384,3.404,3.414,3.424,3.434,3.444,3.454,3.454,3.465,3.465,3.475,3.485,3.496,3.528,3.582,3.661,0,3.755,3.829,0,4.188,4.312,4.512,0,4.732,4.83,4.912,4.996,5.106,5.174,5.22,5.244,5.268,5.268,5.316,5.316,5.316,5.316,5.268,5.316,5.316,5.316,5.316,5.316,5.316,5.316,5.316,5.316,5.34,5.34,5.389,5.389,5.415,5.415,5.415,5.389,5.389,5.34,5.34,5.316,5.316,5.268,5.316,5.316,5.34,5.34,5.389,5.389,5.415,5.415,5.415,5.415,5.415,5.415,5.415,5.415,5.415,5.415,5.415,5.415,5.389,5.389,5.34,5.316,5.316,5.316,5.34,5.389,5.415,5.44,5.465,5.491,5.543,5.543,5.57,5.57,5.57,5.57,5.57,5.57,5.543,5.543,5.543,5.517,5.517,5.517,5.543,5.543,5.543,5.57,5.651,5.763,5.939,6.225,0,6.467,6.614,6.768,7.055,7.368,7.511,7.659,7.659,7.709,7.761,7.761,7.813,7.813,7.866,7.866,7.866,7.866,7.866,7.866,7.919,7.919,7.973,7.973,7.973,7.973,7.973,7.973,8.028,8.028,8.028,8.028,7.973,7.973,7.973,7.973,7.973,7.973,7.919,7.973,7.973,7.973,7.973,8.028,8.028,8.028,8.084,8.084,8.141,8.198,8.256,8.256,8.436,8.623,8.819,9.239,9.542,9.865,10.212,10.302,10.394,10.583,10.68,10.88,11.087,11.194,11.526,11.879,12.254,12.518,12.518,12.793,13.229,13.229,13.381,13.381,13.536,13.536,13.381,13.381,13.229,12.935,12.518,12.384,12.254,11.879,11.641,11.641,11.526,11.526,11.526,11.526,11.526,11.302,11.302,11.302,11.302,11.641,11.879,12.254,12.518,12.935,13.381,13.696,14.026,14.197,14.197,14.197,14.026,13.536,13.229,12.518,11.879,11.302,10.982,10.68,10.488,10.394,10.212,9.239,8.623,8.256,8.028,0,6.729,6.54,0,0,0,0,5.597,5.57,5.543,5.517,5.517,5.517,5.517,5.517,5.517,5.517,5.491,5.517,5.491,5.491,5.465,5.465,5.465,5.465,5.44,5.465,5.491,5.543,0,0,0,0,0,0,0,0,0,0,0,0,0,0,0,0,0,0,0,0,0,0,0,10.583,10.583,10.583,10.488,10.488,10.488,10.394,10.394,10.394,10.394,10.394,10.394,10.488,10.583,10.583,10.583,10.583,10.583,10.583,10.488,10.583,10.488,0,0,0,0,0,8.753,8.497,8.315,8.198,8.084,8.028,7.973,7.973,7.973,0,0,0,0,0,0,0,0,0,0,0,0,0,0,0,0,0,0,0,0,0,0,0,0,0,0,0,0,0,0.455,0.455,12.518,0.456,0.456,0.457,0.457,0.457,0.458,0.458,0.458,0.458,0.459,0.46,0.46,0.461,0.462,0.462,0.462,0.463,0.463,0.463,0.463,0,0,6.127,5.792,5.651,5.597,5.543,5.44,5.34,5.244,5.174,5.174,5.106,5.106,5.106,5.106,5.106,5.106,5.106,5.106,0,0,0,0,0,0,0,0,0,0,0,0,0,0,0,0,0,0,0,0,0,0,2.347,2.347,2.347,2.342,2.342,2.342,2.338,2.333,2.333,2.333,2.333,2.333,0,0,0,0,0,2.386,2.4,0,2.415,2.43,2.435,2.441,2.441,2.441,2.43,2.415,2.405,2.4,2.381,2.376,2.376,2.361,2.361,2.357,2.347,2.342,2.342,2.342,2.342,2.338,2.338,2.333,2.333,2.324,2.319,2.319,2.31,2.31,2.301,2.296,2.296,2.287,2.287,2.283,2.283,2.283,2.278,2.269,2.256,2.239,0,2.217,0,0,0,0,1.697,1.692,1.687,0,0,0,0,0,0,0,0,0,0,0,0,0,0,0,0,0.862,0.859,0.857,0.855,0.853,0.849,0.845,0,0.838,0.835,0.827,0.824,0.82,0,0,0,0,0,0,0,0,0,0,0,0,0,0,0,0,0,0,0,0,0,0.753,0.752,0,0.752,0.751,0.751,0.751,0.751,0.751,0.751,0.751,0.751,0,0,0,0,0,0,0,0,0,0,0,0,0,0,0,0,0,0,0,0,0,0,0,0,0,0,0,0,0,0,0,0,0,0,0,0,0,0,0,0,0,0
0,0,0,0,0,0,0,0,0,0,0,0,0,0,2.993,2.993,2.977,2.977,2.97,2.962,2.955,2.947,2.962,2.977,3,3.039,3.055,3.096,3.129,3.146,3.163,3.163,3.172,3.172,3.172,3.172,3.172,3.181,3.181,3.189,3.198,3.225,3.243,3.27,3.317,3.336,3.365,3.394,3.414,3.424,3.434,3.444,3.444,3.454,3.454,3.465,3.465,3.475,3.496,3.506,3.538,3.593,3.672,0,3.767,3.829,3.973,4.218,4.328,4.512,0,4.713,4.83,4.912,4.996,5.084,5.151,5.174,5.22,5.244,5.244,5.268,5.268,5.268,5.268,5.268,5.268,5.268,5.316,5.316,5.316,5.316,5.316,5.316,5.316,5.34,5.34,5.34,5.34,5.34,5.34,5.34,5.316,5.268,5.268,5.244,5.244,5.244,5.244,5.244,5.268,5.268,5.316,5.34,5.389,5.389,5.415,5.415,5.415,5.415,5.415,5.415,5.415,5.415,5.415,5.389,5.389,5.34,5.316,5.316,5.316,5.34,5.34,5.389,5.415,5.44,5.465,5.491,5.543,5.57,5.57,5.57,5.57,5.57,5.57,5.57,5.57,5.543,5.543,5.517,5.517,5.517,5.543,5.543,5.543,5.57,5.651,5.735,5.939,6.225,0,6.467,6.614,6.729,7.055,7.368,7.511,7.559,7.659,7.709,7.761,7.761,7.761,7.761,7.813,7.813,7.866,7.866,7.866,7.919,7.919,7.973,7.973,7.973,7.973,7.973,7.973,8.028,8.028,8.028,8.028,8.028,8.028,8.028,8.028,8.028,7.973,7.973,7.973,7.973,7.973,7.973,7.973,8.028,8.028,8.084,8.084,8.141,8.198,8.198,8.256,8.375,8.497,8.753,9.024,9.313,9.701,9.95,10.212,10.302,10.488,10.68,10.779,10.982,11.302,11.526,12.001,12.384,12.793,13.229,13.381,13.696,13.859,13.859,14.026,14.026,14.197,14.026,14.026,13.696,13.536,13.229,12.793,12.518,12.254,12.001,11.879,11.641,11.879,11.879,11.879,11.879,11.879,11.879,11.879,11.641,11.641,12.001,12.254,12.518,12.935,13.229,13.536,13.859,14.026,14.197,14.197,14.197,14.026,13.536,13.229,12.518,11.879,11.302,10.982,10.779,10.583,10.394,10.212,9.464,8.753,8.315,0,7.511,6.614,6.396,0,0,5.679,5.597,5.57,5.57,5.543,5.517,5.517,5.517,5.517,5.491,5.491,5.491,5.465,5.465,5.44,5.44,5.415,5.415,5.389,5.389,5.389,5.34,5.389,5.415,5.465,5.517,0,0,0,0,0,0,0,0,0,0,0,0,0,0,0,0,0,0,0,0,0,0,0,10.583,10.583,10.583,10.488,10.488,10.488,10.488,10.488,10.488,10.488,10.583,10.583,10.583,10.583,10.583,10.583,10.583,10.583,10.583,10.394,10.302,0,0,0,0,8.436,8.256,8.198,8.028,7.973,7.919,7.866,7.813,0,0,0,0,0,0,0,0,0,0,0,0,0,0,0,0,0,0,0,0,0,0,0,0,0,0,0,0,0,0,0,0.456,0.457,0.456,0.456,0.457,0.457,0.457,0.457,0.458,0.458,0.458,0.459,0.459,0.46,0.461,0.461,0.462,0.462,0.462,0.462,0.463,0,0,0,6.032,5.735,5.651,5.57,5.517,5.415,5.316,5.244,5.174,5.174,5.151,5.106,5.106,5.106,5.106,5.106,5.106,0,0,0,0,0,0,0,0,0,0,0,0,0,0,0,0,0,0,0,0,0,0,0,0,2.342,2.338,2.342,2.338,2.338,2.328,2.324,2.324,2.324,2.324,0,0,0,0,0,0,2.376,2.39,2.405,0,2.42,0,2.435,2.441,2.435,2.43,2.415,2.405,2.39,2.381,2.376,2.376,2.366,2.361,2.357,2.347,2.342,2.342,2.342,2.338,2.333,2.328,2.324,2.314,2.314,2.314,2.31,2.301,2.296,2.296,2.287,2.283,2.283,2.278,2.278,2.278,2.278,2.278,2.269,2.256,2.234,2.222,2.217,0,0,0,0,0,0,0,0,0,0,0,0,0,0,0,0,0,0.88,0.878,0.876,0.874,0.871,0.867,0.863,0.86,0.858,0.855,0.852,0.848,0,0,0.837,0.835,0.826,0.823,0.82,0.819,0.817,0.814,0.804,0.801,0.8,0.797,0,0.791,0.788,0.786,0.783,0,0,0.769,0.766,0.765,0.764,0.757,0.754,0.753,0.752,0.752,0.751,0.75,0.75,0.749,0.749,0.749,0.749,0.749,0.748,0.748,0.748,0.748,0,0,0,0,0,0,0,0,0,0,0,0,0,0,0,0,0,0,0,0,0,0,0,0,0,0,0,0,0,0,0,0,0,0,0,0,0,0,0,0
0,0,0,0,0,0,0,0,0,0,0,0,0,3.016,3.016,3,2.993,2.993,2.977,2.97,2.97,2.97,2.993,3.016,3.047,3.072,3.104,3.129,3.146,3.163,3.172,3.181,3.181,3.181,3.181,3.172,3.172,3.181,3.181,3.189,3.207,3.225,3.243,3.27,3.317,3.336,3.365,3.394,3.404,3.414,3.424,3.434,3.444,3.444,3.454,3.454,3.465,3.465,3.485,3.496,3.506,3.549,3.615,3.696,0,3.78,3.868,4.056,4.249,4.36,4.565,0,4.732,4.851,4.933,5.018,5.04,5.106,5.151,5.174,5.22,5.22,5.22,5.244,5.244,5.244,5.244,5.268,5.268,5.268,5.268,5.268,5.268,0,5.316,5.316,5.316,5.316,5.316,5.316,5.316,5.268,5.268,5.244,5.174,5.174,5.174,5.174,5.174,5.174,5.22,5.244,5.268,5.316,5.34,5.389,5.389,5.415,5.415,5.415,5.415,5.415,5.415,5.415,5.389,5.389,5.34,5.34,5.316,5.316,5.316,5.34,5.34,5.389,5.415,5.44,5.465,5.517,5.543,5.57,5.57,5.57,5.597,5.57,5.57,5.57,5.57,5.543,5.543,5.543,5.517,5.517,5.543,5.543,5.543,5.57,5.624,5.735,5.909,6.159,0,6.432,6.577,6.729,6.971,7.322,7.415,7.559,7.659,7.709,7.709,7.761,7.761,7.761,7.813,7.813,7.866,7.866,7.866,7.919,7.919,7.973,7.973,7.973,7.973,7.973,8.028,8.028,8.084,8.084,8.084,8.028,8.028,8.028,8.028,8.028,8.028,7.973,7.973,7.973,7.973,7.973,7.973,8.028,8.028,8.084,8.141,8.198,8.256,8.315,8.375,8.497,8.623,8.819,9.166,9.464,9.783,10.036,10.212,10.394,10.583,10.68,10.982,11.194,11.526,12.001,12.384,12.793,13.381,13.696,14.026,14.197,14.197,14.372,14.197,14.372,14.372,14.197,14.026,13.859,13.536,13.381,12.935,12.793,12.518,12.384,12.254,12.254,12.001,12.254,12.384,12.384,12.254,12.254,12.254,12.254,12.254,12.254,12.518,12.793,13.229,13.381,13.536,13.859,14.026,14.197,14.197,14.197,14.026,13.696,13.381,12.793,12.254,11.641,11.194,10.88,10.68,10.583,10.394,10.212,9.239,0,8.198,0,6.971,0,5.821,0,5.651,5.597,5.57,5.543,5.543,5.517,5.517,5.491,5.491,5.491,5.491,5.465,5.44,5.44,5.415,5.389,5.34,5.316,5.268,5.244,5.22,5.244,5.244,0,5.316,5.316,5.389,5.44,5.517,0,0,0,0,0,0,0,0,0,0,0,0,0,0,0,0,0,0,0,0,0,0,0,10.583,10.583,10.583,10.583,10.583,10.583,10.583,10.583,10.583,10.583,10.583,10.583,10.583,10.583,10.583,10.583,10.394,10.302,10.123,9.542,8.955,8.497,8.256,8.141,8.028,7.919,7.761,7.659,7.559,7.511,0,0,0,0,0,0,0,0,0,0,0,0,0,0,0,0,0,0,0,0,0,0,0,0,0,0,0,0,0,0,0,0,0.457,0.457,0.457,0.457,0.457,0.457,0.458,0.458,0.458,0.458,0.459,0.459,0.46,0.46,0.461,0.461,0.461,0.462,0.462,0.462,0.463,6.971,0,5.939,5.707,5.597,5.543,5.491,5.415,5.316,5.22,5.174,5.151,5.106,5.106,5.106,5.106,5.106,5.151,5.106,0,0,0,0,0,0,0,0,0,0,0,0,0,0,0,0,0,0,0,0,0,0,0,0,0,2.342,2.338,2.338,2.328,2.324,2.319,2.324,2.324,2.324,0,0,0,0,0,2.366,2.381,0,2.405,2.415,2.42,2.43,2.435,2.435,2.43,2.42,2.415,2.405,2.39,2.386,2.376,2.371,2.361,2.361,2.352,2.347,2.342,2.338,2.333,2.328,2.319,2.301,2.301,2.296,2.296,2.296,2.287,2.287,2.283,2.283,2.283,2.278,2.278,2.269,2.265,2.265,2.269,2.269,2.265,2.256,2.243,2.239,2.234,0,0,0,0,0,0,0,0,0,0,0,0,0,0.891,0.889,0.888,0.886,0.881,0.879,0.877,0.875,0.872,0.868,0.865,0.861,0.859,0.855,0.852,0.848,0.843,0.838,0.836,0.835,0.826,0.824,0.82,0.819,0.816,0.814,0,0,0.8,0,0,0.791,0.788,0.786,0.783,0,0,0.769,0.767,0.765,0.763,0.757,0.753,0.752,0.751,0.75,0.75,0.749,0.748,0.747,0.746,0.745,0.745,0.744,0.743,0.743,0.743,0.743,0,0,0,0,0,0,0,0,0,0,0,0,0,0,0,0,0,0,0,0,0,0,0,0,0,0,0,0,0,0,0,0,0,0,0,0,0,0,0,0
0,0,0,0,0,0,0,0,0,0,0,0,3.047,3.024,3.024,3.016,3,3,2.993,2.993,2.993,2.993,3.016,3.047,3.08,3.113,3.129,3.146,3.163,3.181,3.181,3.189,3.189,3.181,3.181,3.181,3.181,3.181,3.181,3.189,3.198,3.216,3.234,3.27,3.298,3.336,3.365,3.384,3.394,3.404,3.414,3.424,3.434,3.444,3.444,3.454,3.454,3.465,3.475,3.485,3.496,3.517,3.56,3.627,3.707,0,3.804,3.92,4.128,4.28,4.376,4.583,0,4.791,4.891,4.954,4.996,5.04,5.106,5.151,5.151,5.174,5.22,5.22,5.22,5.22,5.22,5.244,5.244,5.244,5.244,5.268,5.268,5.268,5.268,5.268,5.268,5.268,5.268,5.268,5.244,5.22,5.174,5.151,5.106,5.084,5.084,5.084,5.106,5.106,5.174,5.22,5.244,5.268,5.316,5.34,5.34,5.389,5.389,5.415,5.415,5.415,5.415,5.389,5.389,5.34,5.34,5.34,5.316,5.316,5.316,5.34,5.389,5.389,5.415,5.44,5.465,5.517,5.543,5.543,5.57,5.57,5.597,5.57,5.57,5.57,5.57,5.543,5.543,5.543,5.517,5.517,5.543,5.543,5.543,5.57,5.624,5.707,5.85,6.127,0,6.396,6.577,6.729,6.929,7.322,7.415,7.559,7.659,7.709,7.709,7.761,7.761,7.813,7.813,7.813,7.866,7.866,7.919,7.919,7.973,7.973,7.973,7.973,8.028,8.028,8.028,8.028,8.084,8.084,8.084,8.084,8.084,8.084,8.084,8.084,8.028,7.973,8.028,8.028,7.973,8.028,8.028,8.084,8.084,8.198,8.198,8.256,8.375,8.436,8.497,8.623,8.819,9.166,9.313,9.701,9.95,10.212,10.302,10.488,10.583,10.779,11.087,11.526,11.879,12.384,12.793,13.381,13.696,14.026,14.197,14.372,14.372,14.552,14.372,14.372,14.552,14.372,14.197,14.026,13.859,13.536,13.229,12.935,12.793,12.518,12.518,12.518,12.518,12.518,12.793,12.518,12.793,12.793,12.518,12.518,12.518,12.518,12.793,12.935,13.229,13.381,13.696,13.859,14.197,14.197,14.197,14.197,13.859,13.696,13.381,12.935,12.384,12.001,11.526,11.194,10.779,10.68,10.583,10.394,10.212,9.783,8.497,0,0,0,5.85,5.679,5.624,5.597,5.57,5.543,5.543,5.517,5.517,5.491,5.491,5.465,5.465,5.44,5.415,5.389,5.389,5.268,5.268,5.244,5.22,5.22,5.174,5.174,5.151,5.174,5.174,5.174,5.174,5.22,5.268,0,5.34,0,0,0,0,0,0,0,0,0,0,0,0,0,0,0,0,0,0,0,0,0,10.68,10.68,10.68,10.68,10.68,10.583,10.583,10.583,10.583,10.583,10.583,10.583,10.583,10.583,10.488,10.583,10.394,10.302,9.865,9.239,8.56,8.256,8.084,7.973,7.866,7.709,0,0,0,0,0,0,0,0,0,0,0,0,0,0,0,0,0,0,0,0,0,0,0,0,0,0,0,0,0,0,0,0,0,0,0,0.458,0.458,0.458,0.457,0.457,0.457,0.457,0.458,0.458,0.458,0.458,0.459,0.459,0.46,0.46,0.461,0.461,0.461,0.462,0.462,0.462,0.462,0.463,6.69,5.85,0,5.597,5.543,5.491,5.415,5.316,5.244,5.174,5.174,5.174,5.151,5.151,5.151,5.151,0,0,0,0,0,0,0,0,0,0,0,0,0,0,0,0,0,0,0,0,0,0,0,0,0,0,0,0,2.324,2.324,2.319,2.314,2.31,2.31,2.31,0,0,0,0,0,0,0,2.386,2.4,2.405,2.415,0,0,2.43,2.435,2.435,2.43,2.42,2.415,2.405,2.39,2.381,2.376,2.366,0.514,2.347,2.342,2.338,2.333,2.328,2.314,2.301,2.296,2.287,2.283,2.283,2.287,2.283,2.283,2.278,2.278,2.269,2.269,2.265,2.265,2.256,2.256,2.256,2.256,2.256,2.256,2.252,2.256,2.252,0,0,0,0,0,0,0,0,0,0,0,0,0,0.891,0.889,0.887,0.886,0.881,0.879,0.877,0.875,0.873,0.869,0.865,0.861,0.859,0.855,0.852,0.847,0.843,0.838,0.836,0.834,0.826,0.822,0.819,0.818,0.816,0.813,0.804,0.801,0.8,0.798,0.794,0.791,0.789,0.786,0.781,0.778,0.774,0.769,0.766,0.765,0.763,0.757,0.753,0.752,0.751,0.75,0.749,0.747,0.745,0.743,0.742,0.741,0.74,0.739,0.739,0,0,0,0,0,0,0,0,0,0,0,0,0,0,0,0,0,0,0,0,0,0,0,0,0,0,0,0,0,0,0,0,0,0,0,0,0,0,0,0,0,0,0
0,0,0,0,0,0,0,0,0,0,0,3.072,3.055,3.055,3.039,3.039,3.024,3.024,3.024,3.039,3.039,3.047,3.08,3.113,3.129,3.146,3.163,3.181,3.189,3.198,3.207,3.207,3.198,3.189,3.189,3.181,3.181,3.181,3.181,3.189,3.189,3.207,3.234,3.261,3.288,3.326,3.355,3.384,3.394,3.394,3.404,3.414,3.424,3.434,3.434,3.444,3.454,3.454,3.465,3.475,3.485,3.496,3.517,3.538,3.593,3.696,0,3.804,3.88,4.056,4.296,4.426,0,4.713,4.851,4.912,4.996,5.04,5.084,5.106,5.151,5.174,5.174,5.22,5.22,5.22,5.22,5.244,5.244,5.244,5.244,5.268,5.268,5.268,5.268,5.268,5.268,5.268,5.244,5.244,5.22,5.174,5.151,5.106,5.084,5.018,5.018,5.04,5.04,5.084,5.106,5.151,5.22,5.244,5.268,5.316,5.34,5.34,5.389,5.389,5.389,5.389,5.389,5.389,5.34,5.34,5.34,5.316,5.316,5.316,5.34,5.34,5.389,5.389,5.415,5.44,5.465,5.517,5.543,5.543,5.57,5.57,5.57,5.57,5.57,5.57,5.57,5.543,5.543,5.543,5.517,5.517,5.543,5.543,5.543,5.57,5.597,5.707,5.85,6.127,0,6.396,6.577,6.69,6.888,7.322,7.415,7.559,7.659,7.709,7.709,7.761,7.761,7.813,7.813,7.866,7.866,7.919,7.973,7.973,7.973,7.973,8.028,8.028,8.028,8.028,8.084,8.084,8.141,8.141,8.141,8.141,8.198,8.141,8.141,8.084,8.084,8.028,8.028,8.028,8.084,8.084,8.141,8.198,8.256,8.315,8.375,8.497,8.56,8.623,8.819,8.955,9.166,9.313,9.701,9.865,10.123,10.212,10.302,10.488,10.68,10.88,11.194,11.641,12.001,12.518,12.935,13.536,14.026,14.197,14.372,0,14.552,14.552,14.552,14.552,14.552,14.372,14.197,14.026,13.859,13.696,13.381,13.229,12.935,12.793,12.935,12.793,12.935,12.935,12.935,12.935,12.935,12.935,12.935,12.793,12.793,12.793,12.935,13.229,13.381,13.536,13.696,13.859,14.026,14.197,14.197,14.197,13.859,13.536,13.381,12.935,12.384,12.001,11.641,11.194,10.88,10.68,10.583,10.488,10.302,9.464,0,0,0,0,5.909,5.707,5.651,5.57,5.57,5.543,5.543,5.517,5.491,5.491,5.465,5.465,5.44,5.415,5.389,5.34,5.268,5.244,5.22,5.174,5.174,5.151,5.151,5.106,5.151,5.151,5.151,5.174,5.22,5.244,5.268,0,5.34,0,0,0,0,0,0,0,0,0,0,0,0,0,0,0,0,0,0,0,0,0,0,0,0,10.68,10.68,10.68,10.68,10.583,10.583,10.583,0,0,0,0,0,0,0,0,0,0,0,0,0,0,0,0,0,0,0,0,0,0,0,0,0,0,0,0,0,0,0,0,0,0,0,0,0,0,0,0,0,0,0,0,0,0,0,0,0,0,0,0.458,0.458,0.458,0.457,0.457,0.457,0.457,0.457,0.458,0.458,0.458,0.458,0.459,0.459,0.46,0.461,0.461,0.462,0.462,0.462,0.462,0.462,0.463,6.729,5.909,0,5.597,5.543,5.491,5.415,5.316,5.22,5.174,5.174,5.174,5.151,5.151,5.151,5.174,0,0,0,0,0,0,0,0,0,0,0,0,0,0,0,0,0,0,0,0,0,0,0,0,0,0,0,2.301,2.301,2.301,2.301,2.296,2.287,2.287,2.296,0,0,0,0,0,0,2.376,2.386,2.4,2.405,2.405,2.415,2.42,2.42,2.43,2.43,2.43,2.42,2.42,2.405,2.39,0.514,0.514,0.513,0.514,2.342,2.338,2.328,2.324,2.31,2.287,2.283,2.283,2.278,2.256,2.243,2.234,2.234,2.234,2.234,2.23,2.23,2.217,2.217,2.222,2.23,2.239,2.252,2.252,2.252,2.252,2.252,2.252,0,0,0,0,0,0,0,0,0,0,0,0,0.893,0.891,0.889,0.889,0.887,0.885,0.881,0.879,0.877,0.875,0.873,0.869,0.866,0.862,0.858,0.855,0.852,0.847,0.843,0.838,0.836,0.829,0.824,0.822,0.819,0.817,0.815,0.812,0.803,0.801,0.8,0.798,0.796,0.792,0.79,0.786,0.782,0.779,0.775,0.77,0.767,0.765,0.764,0.756,0.753,0.752,0.751,0.75,0.748,0.745,0.744,0.742,0.741,0.739,0.739,0.739,0.739,0.739,0.739,0,0,0,0,0,0,0,0,0,0,0,0,0,0,0,0,0,0,0,0,0,0,0,0,0,0,0,0,0,0,0,0,0,0,0,0,0,0,0,0,0
0,0,0,0,0,0,0,0,0,3.096,3.08,3.072,3.072,3.055,3.055,3.047,3.039,3.039,3.039,3.047,3.055,3.08,3.113,3.129,3.146,3.163,3.181,3.189,3.198,3.207,3.216,3.216,3.207,3.198,3.189,3.189,3.181,3.181,3.181,3.189,3.189,3.198,3.225,3.243,3.27,3.317,3.336,3.365,3.384,3.394,3.404,3.404,3.414,3.434,3.434,3.444,3.454,3.454,3.465,3.475,3.485,3.496,3.506,3.528,3.56,3.661,3.767,0,3.855,3.973,4.158,4.296,4.46,0,4.752,4.891,4.975,5.04,5.084,5.151,5.174,5.22,5.22,5.244,5.244,5.244,5.268,5.268,5.268,5.268,5.316,5.316,5.316,5.316,5.316,5.316,5.268,5.268,5.244,5.22,5.22,5.151,5.106,5.084,5.018,4.996,4.996,4.996,5.018,5.04,5.084,5.106,5.174,5.22,5.268,5.316,5.34,5.34,5.34,5.389,5.389,5.389,5.389,5.389,5.34,5.34,5.34,5.34,5.34,5.34,5.34,5.34,5.389,5.389,5.415,5.44,5.465,5.491,5.543,5.543,5.57,5.57,5.57,5.57,5.57,5.57,5.57,5.543,5.543,5.543,5.543,5.543,5.543,5.543,5.543,5.57,5.597,5.679,5.821,6.095,0,6.361,6.54,6.69,6.888,7.231,7.415,7.559,7.709,7.709,7.761,7.761,7.813,7.866,7.919,7.973,7.973,7.973,8.028,8.028,8.028,8.084,8.084,8.084,8.141,8.141,8.141,8.198,8.198,8.198,8.256,8.198,8.198,8.198,8.198,8.198,8.141,8.084,8.084,8.141,8.198,8.198,8.256,8.315,8.436,8.56,8.623,8.819,8.955,9.024,9.166,9.239,9.464,9.701,9.865,10.036,10.212,10.302,10.394,10.583,10.68,10.88,11.194,11.526,12.001,12.384,12.935,13.381,13.859,14.197,14.197,14.372,14.372,14.552,14.552,14.552,14.552,14.372,14.197,14.026,13.859,13.696,13.381,13.229,13.229,12.935,12.935,12.935,12.935,12.935,12.935,12.935,12.935,12.935,12.935,12.935,12.935,12.935,12.935,13.229,13.381,13.536,13.696,13.696,13.859,14.026,14.026,13.859,13.696,13.381,13.229,12.518,12.254,11.879,11.526,11.194,10.88,10.68,10.68,10.488,10.394,10.123,9.239,0,0,0,6.032,5.763,5.651,5.597,5.57,5.543,5.543,5.517,5.491,5.491,5.465,5.44,5.44,5.389,5.389,5.268,5.244,5.22,5.22,5.174,5.174,5.151,5.151,5.151,5.151,5.151,5.151,5.174,5.22,5.244,5.268,0,0,0,0,0,0,0,0,0,0,0,0,0,0,0,0,0,0,0,0,0,0,0,0,10.68,10.68,10.68,10.68,10.68,0,0,0,0,0,0,0,0,0,0,0,0,0,0,0,0,0,0,0,0,0,0,0,0,0,0,0,0,0,0,0,0,0,0,0,0,0,0,0,0,0,0,0,0,0,0,0,0,0,0,0,0,0,0,0,0,0,0.458,0.458,0.458,0.458,0.458,0.458,0.458,0.458,0.458,0.458,0.459,0.459,0.46,0.46,0.461,0.461,0.462,0.462,0.462,0.463,0.463,0,0,0,0,0,0,5.415,5.316,5.244,5.174,5.22,5.174,5.174,5.174,5.174,0,0,0,0,0,0,0,0,0,0,0,0,0,0,0,0,0,0,0,0,0,0,0,0,0,0,0,0,0,2.265,2.265,2.269,2.265,2.265,2.265,2.256,0,0,0,0,0,0,0,0,2.386,2.39,0,0,2.405,2.405,2.415,2.415,2.42,2.42,2.415,2.405,2.39,2.386,0.512,0.511,0.511,0.512,0.512,2.324,2.319,2.269,2.243,2.243,2.217,2.205,2.196,2.188,2.172,2.152,2.144,2.148,2.144,2.148,2.148,2.152,2.172,2.184,2.196,2.205,2.213,2.217,2.226,2.234,2.252,0,0,0,0,0,0,0,0,0,0,0,0.893,0.893,0.891,0.891,0.888,0.887,0.884,0.88,0.878,0.877,0.875,0.873,0.87,0.867,0.863,0.859,0.854,0.85,0.845,0.841,0.838,0.836,0.828,0.824,0.821,0.819,0.817,0.815,0.81,0.803,0.801,0.8,0.798,0.796,0.794,0.79,0.787,0.782,0.779,0.775,0.77,0.767,0.766,0.764,0.757,0.754,0.752,0.751,0.75,0.748,0.746,0.743,0.741,0.741,0.739,0.739,0.739,0.739,0.739,0.739,0,0,0,0,0,0,0,0,0,0,0,0,0,0,0,0,0,0,0,0,0,0,0,0,0,0,0,0,0,0,0,0,0,0,0,0,0,0,0,0,0
0,0,0,0,0,0,0,0,3.08,3.08,3.072,3.072,3.055,3.055,3.039,3.039,3.039,3.039,3.039,3.055,3.072,3.096,3.121,3.146,3.155,3.172,3.181,3.198,3.207,3.216,3.225,3.216,3.207,3.198,3.189,3.189,3.181,3.181,3.181,3.181,3.189,3.198,3.216,3.234,3.261,3.298,3.326,3.355,3.384,3.394,3.394,3.404,3.414,3.424,3.434,3.444,3.444,3.454,3.465,3.475,3.485,3.496,3.506,3.528,3.549,3.627,3.731,0,3.817,3.893,4.07,4.249,4.36,4.638,0,4.851,4.954,5.04,5.106,5.151,5.174,5.244,5.244,5.268,5.268,5.316,5.316,5.316,5.34,5.34,5.34,5.34,5.34,5.34,5.34,5.316,5.316,5.268,5.268,5.244,5.22,5.174,5.151,5.084,5.04,5.018,4.996,5.018,5.018,5.084,5.106,5.151,5.174,5.244,5.268,5.316,5.34,5.34,5.389,5.389,5.415,5.415,5.389,5.389,5.389,5.389,5.389,5.34,5.34,5.34,5.34,5.389,5.389,5.415,5.415,5.44,5.465,5.491,5.491,5.543,5.543,5.543,5.543,5.57,5.543,5.543,5.543,5.543,5.543,5.543,5.543,5.543,5.543,5.543,5.57,5.57,5.597,5.679,5.792,6.001,6.327,0,6.504,6.652,6.808,7.186,7.368,7.559,7.659,7.709,7.813,7.813,7.866,7.919,7.973,7.973,8.028,8.028,8.084,8.084,8.141,8.198,8.256,8.256,8.256,8.315,8.256,8.315,8.375,8.375,8.315,8.315,8.315,8.256,8.256,8.256,8.198,8.141,8.198,8.198,8.256,8.315,8.436,8.623,8.753,8.955,9.166,9.239,9.239,9.313,9.464,9.542,9.701,9.865,10.036,10.212,10.302,10.394,10.394,10.583,10.68,10.88,11.087,11.526,11.879,12.254,12.793,13.229,13.536,13.696,13.859,14.197,14.372,14.372,14.372,14.372,14.372,14.197,14.026,13.859,13.696,13.381,13.229,12.935,12.935,12.793,12.935,12.935,12.935,12.793,12.935,12.935,13.229,13.229,13.229,12.935,12.793,12.935,12.935,12.935,13.229,13.229,13.229,13.536,13.536,13.536,13.536,13.536,13.229,12.793,12.384,12.001,11.641,11.526,11.087,10.982,10.68,10.583,10.583,10.394,10.302,10.212,9.464,0,0,0,6.095,5.792,5.651,5.597,5.57,5.543,5.543,5.517,5.491,5.465,5.465,5.44,5.415,5.389,5.34,5.268,5.244,5.244,5.22,5.174,5.174,5.151,5.151,5.151,5.151,5.151,5.174,5.174,5.22,5.244,5.268,0,0,0,0,0,0,0,0,0,0,0,0,0,0,0,0,0,0,0,0,0,0,0,0,0,0,0,0,0,0,0,0,0,0,0,0,0,0,0,0,0,0,0,0,0,0,0,0,0,0,0,0,0,0,0,0,0,0,0,0,0,0,0,0,0,0,0,0,0,0,0,0,0,0,0,0,0,0,0,0,0,0,0,0,0.461,0.46,0.459,0.458,0.458,0.458,0.458,0.458,0.458,0.458,0.458,0.458,0.459,0.459,0.459,0.46,0.461,0.461,0.461,0.462,0.462,0.462,0,0,0,0,0,0,0,0,5.34,0,5.244,5.22,5.22,5.244,0,5.244,0,0,0,0,0,0,0,0,0,0,0,0,0,0,0,0,0,0,0,0,0,0,0,0,0,0,0,0,2.243,2.234,2.243,2.252,2.243,2.243,2.243,0,0,0,0,0,0,0,0,0,0,0,0,0,2.4,2.405,2.405,2.42,2.42,2.42,2.405,2.405,0.511,0.511,0.511,0.511,0.511,0.511,0.511,0.51,2.265,2.239,2.213,2.201,2.176,2.148,2.105,2.09,2.083,2.075,2.075,0,0,0,2.079,2.086,2.094,2.113,2.144,2.164,0,2.188,0,0,0,0,0,0,0,0,0,0,0,0,0,0,0.893,0.891,0.889,0.889,0.888,0.887,0.884,0.881,0.879,0.877,0.876,0.874,0.872,0.868,0.864,0.859,0.855,0.851,0.845,0.841,0.838,0.835,0.828,0.824,0.82,0.819,0.816,0.814,0.81,0.803,0.801,0.8,0.798,0.796,0.792,0.79,0.787,0.782,0.78,0.775,0.771,0.768,0.766,0.764,0.758,0.754,0.753,0.751,0.75,0.748,0.745,0.743,0.741,0.74,0.739,0.738,0.738,0.738,0.738,0.738,0,0,0,0,0,0,0,0,0,0,0,0,0,0,0,0,0,0,0,0,0,0,0,0,0,0,0,0,0,0,0,0,0,0,0,0,0,0,0,0,0
0,0,0,0,0,0,0,3.08,3.072,3.055,3.055,3.047,3.047,3.047,3.039,3.024,3.024,3.024,3.039,3.055,3.08,3.113,3.138,3.155,3.163,3.181,3.189,3.207,3.216,3.216,3.225,3.216,3.207,3.198,3.189,3.189,3.181,3.181,3.181,3.181,3.181,3.189,3.198,3.225,3.243,3.27,3.317,3.336,3.365,3.384,3.394,3.404,3.414,3.424,3.434,3.444,3.444,3.454,3.465,3.465,3.485,3.485,3.496,3.517,3.538,3.593,3.672,3.78,0,3.842,3.946,4.173,4.296,4.477,0,4.791,4.891,4.996,5.084,5.174,5.244,5.268,5.316,5.34,5.34,5.389,5.389,5.389,5.389,5.389,5.389,5.389,5.415,5.389,5.389,5.389,5.34,5.316,5.316,5.268,5.244,5.22,5.174,5.151,5.106,5.084,5.04,5.084,5.084,5.106,5.151,5.174,5.22,5.268,5.316,5.34,5.389,5.389,5.389,5.389,5.415,5.415,5.389,5.389,5.389,5.389,5.389,5.389,5.389,5.389,5.389,5.389,5.389,5.415,5.415,5.44,5.44,5.44,5.465,5.465,5.491,5.517,5.517,5.543,5.543,5.543,5.543,5.543,5.543,5.543,5.543,5.543,5.543,5.57,5.57,5.57,5.597,5.679,5.792,6.001,6.225,0,6.467,6.614,6.768,7.098,7.368,7.511,7.659,7.709,7.813,7.813,7.919,7.973,8.028,8.028,8.084,8.141,8.198,8.256,8.256,8.375,8.375,8.436,8.497,8.497,8.497,8.56,8.56,8.497,8.497,8.497,8.375,8.315,8.256,8.256,8.198,8.141,8.198,8.256,8.375,8.436,8.623,8.955,9.166,9.239,9.464,9.542,9.542,9.701,9.783,9.865,9.865,10.036,10.123,10.212,10.302,10.394,10.488,10.583,10.68,10.88,11.087,11.194,11.641,12.001,12.384,12.518,12.793,13.229,13.381,13.696,14.026,14.026,14.026,14.026,13.859,13.859,13.696,13.381,13.229,13.229,12.793,12.793,12.793,12.793,12.518,12.793,12.793,12.935,12.935,12.935,12.935,12.935,12.935,12.793,12.793,12.793,12.793,12.793,12.793,12.793,12.793,12.793,12.793,12.793,12.793,12.793,12.384,12.001,11.641,11.302,11.087,10.88,10.68,10.583,10.488,10.394,10.302,10.302,10.212,9.701,9.239,8.198,7.559,0,6.095,5.792,5.651,5.597,5.57,5.543,5.517,5.517,5.491,5.465,5.44,5.415,5.389,5.389,5.34,5.268,5.268,5.244,5.22,5.22,5.174,5.174,5.174,5.174,5.151,5.174,5.174,0,0,0,0,0,0,0,0,0,0,0,0,0,0,0,0,0,0,0,0,0,0,0,0,0,0,0,0,0,0,0,0,0,0,0,0,0,0,0,0,0,0,0,0,0,0,0,0,0,0,0,0,0,0,0,0,0,0,0,0,0,0,0,0,0,0,0,0,0,0,0,0,0,0,0,0,0,0,0,0,0,0,0,0,0,0,0,0,0.462,0.461,0.46,0.459,0.458,0.458,0.458,0.458,0.458,0.458,0.458,0.458,0.458,0.459,0.459,0.46,0.461,0.461,0.461,0.462,0.462,0.462,0,0,0,0,0,0,0,0,0,0,5.268,5.268,5.268,5.268,0,0,0,0,0,0,0,0,0,0,0,0,0,0,0,0,0,0,0,0,0,0,0,0,0,0,0,0,0,0,0,0,0,2.23,2.23,2.23,2.23,0,0,0,0,0,0,0,0,0,0,0,0,0,2.39,2.4,2.4,2.415,2.415,2.415,2.405,2.405,0.51,0.51,0.51,0.51,0.51,0.51,0.509,0.509,0.509,0.509,0.509,0.509,2.079,2.075,2.068,0,0,2.004,0,0,0,0,0,2.025,2.05,0,2.083,0,0,0,0,0,0,0,0,0,0,0,0,0,0,0,0,0,0.891,0.891,0.889,0.889,0.887,0.885,0.884,0.88,0.879,0.877,0.876,0.874,0.871,0.867,0.864,0.859,0.854,0.85,0.845,0.841,0.838,0.835,0.827,0.822,0.819,0.818,0.816,0.813,0.808,0.802,0.801,0.8,0.798,0.796,0.794,0.79,0.787,0.782,0.78,0.777,0.771,0.768,0.766,0.764,0.758,0.754,0.753,0.751,0.75,0.748,0.746,0.743,0.742,0.741,0.739,0.739,0.738,0.738,0.738,0.738,0,0,0,0,0,0,0,0,0,0,0,0,0,0,0,0,0,0,0,0,0,0,0,0,0,0,0,0,0,0,0,0,0,0,0,0,0,0,0,0,0
0,0,0,0,0,0,0,3.055,3.055,3.055,3.047,3.039,3.039,3.024,3.024,3.016,3.024,3.024,3.047,3.072,3.096,3.121,3.146,3.155,3.172,3.189,3.198,3.216,3.225,3.225,3.225,3.216,3.207,3.207,3.198,3.189,3.181,3.181,3.181,3.181,3.181,3.189,3.198,3.216,3.234,3.261,3.298,3.326,3.355,3.384,3.394,3.404,3.414,3.424,3.434,3.444,3.444,3.454,3.465,3.465,3.485,3.485,3.496,3.506,3.528,3.56,3.627,3.731,0,3.817,3.868,0,4.249,4.376,4.694,0,4.851,4.954,5.084,5.244,5.268,5.34,5.389,5.415,5.44,5.44,5.44,5.44,5.44,5.44,5.44,5.465,5.44,5.44,5.44,5.415,5.415,5.415,5.389,5.34,5.316,5.268,5.244,5.22,5.174,5.151,5.151,5.151,5.174,5.22,5.22,5.244,5.268,5.316,5.34,5.389,5.389,5.389,5.389,5.415,5.415,5.415,5.415,5.389,5.389,5.389,5.389,5.389,5.389,5.389,5.389,5.389,5.415,5.415,5.415,5.415,5.415,5.44,5.44,5.44,5.465,5.491,5.491,5.491,5.491,5.517,5.543,5.543,5.543,5.543,5.543,5.543,5.57,5.57,5.57,5.57,5.597,5.679,5.763,5.939,6.159,0,6.396,6.577,6.729,6.971,7.322,7.511,7.659,7.709,7.813,7.866,7.973,8.028,8.084,8.141,8.198,8.256,8.375,8.436,8.56,8.623,8.753,8.753,8.819,8.819,8.819,8.819,8.955,8.819,8.753,8.56,8.56,8.436,8.315,8.256,8.256,8.198,8.198,8.375,8.497,8.753,8.955,9.239,9.464,9.783,9.95,9.865,9.95,9.95,10.036,10.036,10.123,10.212,10.212,10.302,10.302,10.394,10.488,10.583,10.68,10.88,10.982,11.087,11.302,11.641,12.001,12.001,12.384,12.518,12.793,12.935,13.381,13.229,12.935,13.229,13.229,12.793,12.793,12.518,12.518,12.384,12.384,12.254,12.384,12.384,12.384,12.518,12.793,12.793,12.793,12.793,12.793,12.793,12.793,12.793,12.793,12.518,12.518,12.518,12.518,12.518,12.384,12.254,12.384,12.254,12.254,11.879,11.302,10.88,10.583,10.488,10.394,10.302,10.123,10.036,9.95,10.036,10.036,10.036,9.701,9.166,8.56,8.028,6.729,0,6.095,5.792,5.651,5.597,5.57,5.543,5.517,5.491,5.491,5.465,5.415,5.415,5.389,5.389,5.34,5.268,5.244,5.244,5.22,5.22,5.22,5.174,5.174,5.174,5.174,5.174,0,0,0,0,0,0,0,0,0,0,0,0,0,0,0,0,0,0,0,0,0,0,0,0,0,0,0,0,0,0,0,0,0,0,0,0,0,0,0,0,0,0,0,0,0,0,0,0,0,0,0,0,0,0,0,0,0,0,0,0,0,0,0,0,0,0,0,0,0,0,0,0,0,0,0,0,0,0,0,0,0,0,0,0,0,0,0,0,0,0,0.463,0.462,0.461,0,0.459,0,0.458,0.458,0.458,0.458,0.459,0.458,0.459,0.459,0.46,0.46,0.461,0.461,0.462,0.462,0,0,0,0,0,0,0,0,0,0,0,0,0,0,0,0,0,0,0,0,0,0,0,0,0,0,0,0,0,0,0,0,0,0,0,0,0,0,0,0,0,0,0,0,0,0,0,0,0,0,0,0,0,0,0,0,0,0,0,0,0,0,0,0,0,0,2.39,2.4,2.405,2.415,2.42,2.42,0.509,0.509,0.509,0.509,0.509,0.509,0.509,0.509,0.509,0.509,0.509,0.509,0.508,2.039,0,0,0,0,1.963,1.96,1.943,1.947,0,0,0,0,0,0,0,0,0,0,0,0,0,0,0,0,0,0,0,0,0,0,0,0.891,0.889,0.889,0.888,0.887,0.885,0.883,0.879,0.878,0.877,0.876,0.874,0.871,0.867,0.864,0.859,0.854,0.85,0.845,0.84,0.837,0.835,0.826,0.822,0.819,0.818,0.815,0.812,0.808,0.802,0.801,0.8,0.799,0.797,0.795,0.792,0.788,0.784,0.78,0.777,0.772,0.769,0.766,0.765,0.759,0.755,0.753,0.751,0.75,0.749,0.747,0.744,0.742,0.741,0.739,0.739,0.739,0.739,0.738,0.738,0,0,0,0,0,0,0,0,0,0,0,0,0,0,0,0,0,0,0,0,0,0,0,0,0,0,0,0,0,0,0,0,0,0,0,0,0,0,0,0,0
0,0,0,0,0,0,0,3.055,3.047,3.047,3.039,3.039,3.024,3.016,3.016,3.016,3.016,3.024,3.047,3.072,3.104,3.129,3.146,3.163,3.181,3.189,3.207,3.216,3.225,3.225,3.216,3.216,3.216,3.207,3.198,3.189,3.181,3.181,3.181,3.172,3.181,3.181,3.189,3.207,3.225,3.243,3.288,3.317,3.355,3.365,3.384,3.394,3.404,3.424,3.434,3.444,3.444,3.454,3.465,3.465,3.475,3.485,3.496,3.496,3.517,3.549,3.593,3.672,3.767,3.829,0,0,4.158,4.312,4.565,0,4.83,4.933,5.084,5.316,5.34,5.389,5.44,5.465,5.465,5.491,5.491,5.491,5.491,5.491,5.517,5.491,5.491,5.491,5.491,5.465,5.465,5.465,5.44,5.415,5.389,5.34,5.316,5.316,5.244,5.244,5.22,5.244,5.244,5.268,5.268,5.316,5.316,5.34,5.389,5.415,5.415,5.415,5.415,5.415,5.44,5.44,5.415,5.415,5.415,5.415,5.415,5.415,5.415,5.415,5.415,5.415,5.415,5.415,5.415,5.415,5.415,5.415,5.415,5.44,5.44,5.465,5.465,5.465,5.491,5.491,5.517,5.543,5.543,5.543,5.543,5.543,5.57,5.57,5.57,5.57,5.597,5.651,5.707,5.792,6.032,6.225,0,6.467,6.614,6.768,7.186,7.415,7.559,7.709,7.866,7.973,8.028,8.141,8.198,8.256,8.315,8.436,8.56,8.753,8.819,8.955,9.024,9.166,9.024,9.166,9.166,9.166,9.024,9.024,8.819,8.753,8.497,8.436,8.256,8.256,8.198,8.141,8.198,8.256,8.436,8.623,8.955,9.313,9.542,9.865,10.036,10.036,10.123,10.123,10.212,10.212,10.212,10.212,10.212,10.302,10.302,10.302,10.394,10.583,10.68,10.68,10.779,10.88,10.982,11.194,11.302,11.302,11.526,11.526,11.526,11.526,11.526,11.302,11.302,11.194,11.087,10.982,10.779,10.68,10.779,10.779,10.779,10.982,11.087,11.302,11.526,12.001,12.254,12.518,12.518,12.518,12.518,12.793,12.518,12.518,12.384,12.254,12.254,12.254,12.001,12.001,11.879,11.641,11.526,11.194,10.982,10.68,10.394,10.212,9.464,9.313,9.024,8.955,8.819,8.819,8.819,8.819,8.819,8.753,8.497,8.256,8.084,7.709,6.652,6.432,6.001,5.763,5.651,5.597,5.57,5.543,5.517,5.491,5.465,5.44,5.415,5.415,5.389,5.34,5.268,5.268,5.244,5.244,5.244,5.244,5.244,5.244,5.244,5.22,5.22,5.22,0,0,0,0,0,0,0,0,0,0,0,0,0,0,0,0,0,0,0,0,0,0,0,0,0,0,0,0,0,0,0,0,0,0,0,0,0,0,0,0,0,0,0,0,0,0,0,0,0,0,0,0,0,0,0,0,0,0,0,0,0,0,0,0,0,0,0,0,0,0,0,0,0,0,0,0,0,0,0,0,0,0,0,0,0,0,0,0,0,0,0.463,0.463,0,0,0.46,0.46,0.459,0.459,0.459,0.459,0.459,0.459,0.459,0.459,0.46,0,0,0,0,0,0,0,0,0,0,0,0,0,0,0,0,0,0,0,0,0,0,0,0,0,0,0,0,0,0,0,0,0,0,0,0,0,0,0,0,0,0,0,0,0,0,0,0,0,0,0,0,0,0,0,0,0,0,0,0,0,0,0,0,0,0,0,0,0,0,0,0,0,0,0,0,0,0.509,0.509,0.509,0.509,0.509,0.509,0.509,0.509,0.509,0.508,0.509,0.508,0.508,0.508,1.993,1.97,1.963,1.924,1.918,1.912,1.912,1.908,1.899,1.912,1.924,1.943,1.957,0,0,0,0,0,0,0,0,0,0,0,0,0,0,0,0,0,0,0.889,0.888,0.887,0.886,0.884,0.883,0.881,0.879,0.878,0.877,0.875,0.874,0.871,0.867,0.863,0.859,0.853,0.849,0.844,0.839,0.837,0.835,0.826,0.821,0.819,0.817,0.814,0.81,0.803,0.802,0.801,0.8,0.799,0.798,0.796,0.792,0.79,0.786,0.781,0.777,0.773,0.769,0.767,0.765,0.759,0.756,0.753,0.752,0.75,0.749,0.747,0.745,0.743,0.742,0.741,0.74,0.739,0.739,0.738,0.739,0,0,0,0,0,0,0,0,0,0,0,0,0,0,0,0,0,0,0,0,0,0,0,0,0,0,0,0,0,0,0,0,0,0,0,0,0,0,0,0,0
0,0,0,0,0,0,0,3.047,3.039,3.039,3.024,3.016,3.016,3,3,3,3,3.016,3.039,3.055,3.096,3.121,3.146,3.155,3.172,3.189,3.198,3.207,3.216,3.216,3.216,3.216,3.207,3.198,3.189,3.189,3.181,3.181,3.181,3.172,3.181,3.181,3.189,3.198,3.216,3.234,3.27,3.298,3.326,3.355,3.384,3.394,3.404,3.424,3.434,3.444,3.444,3.454,3.465,3.465,3.475,3.485,3.496,3.496,3.506,3.528,3.549,3.615,3.696,3.792,0,3.855,0,0,4.426,0,4.791,4.912,5.106,5.34,5.415,5.465,5.491,5.517,5.543,5.543,5.543,5.543,5.543,5.543,5.543,5.543,5.543,5.543,5.543,5.543,5.517,5.517,5.491,5.491,5.44,5.44,5.415,5.389,5.389,5.316,5.316,5.316,5.316,5.34,5.34,5.34,5.389,5.389,5.415,5.44,5.44,5.44,5.44,5.44,5.44,5.44,5.44,5.44,5.415,5.415,5.415,5.415,5.415,5.415,5.415,5.415,5.415,5.415,5.415,5.415,5.415,5.389,5.389,5.389,5.415,5.44,5.44,5.465,5.465,5.491,5.517,5.517,5.543,5.543,5.543,5.543,5.57,5.57,5.57,5.57,5.597,5.651,5.679,5.763,5.909,6.127,6.396,0,6.577,6.729,6.971,7.231,7.511,7.709,7.919,8.028,8.141,8.256,8.436,8.56,8.819,8.753,8.955,9.024,9.166,9.239,9.239,9.313,9.313,9.313,9.313,9.239,9.239,9.239,9.024,8.819,8.623,8.436,8.315,8.256,8.141,8.084,8.084,8.198,8.315,8.56,8.819,9.239,9.542,9.865,10.036,10.212,10.212,10.212,10.212,10.212,10.212,10.212,10.212,10.212,10.302,10.302,10.302,10.394,10.488,10.583,10.583,10.583,10.68,10.779,10.779,10.779,10.68,10.68,10.68,10.583,10.488,10.394,10.302,10.302,10.212,10.212,10.036,10.036,10.123,10.212,10.212,10.302,10.394,10.583,10.68,10.88,10.982,11.087,11.194,11.526,11.526,11.526,11.641,11.526,11.526,11.526,11.526,11.526,11.302,11.194,10.982,10.779,10.68,10.488,10.302,10.036,9.024,8.497,8.375,8.256,8.198,8.198,8.198,8.198,8.198,8.256,8.256,8.256,8.084,7.973,7.761,6.808,6.577,6.361,6.001,5.735,5.651,5.597,5.57,5.543,5.517,5.491,5.465,5.44,5.415,5.389,5.34,5.34,5.268,5.268,5.268,5.244,5.244,5.268,5.268,5.268,5.268,5.244,5.268,0,0,0,0,0,0,0,0,0,0,0,0,0,0,0,0,0,0,0,0,0,0,0,0,0,0,0,0,0,0,0,0,0,0,0,0,0,0,0,0,0,0,0,0,0,0,0,0,0,0,0,0,0,0,0,0,0,0,0,0.415,0.416,0.416,0.416,0.416,0.416,0.416,0.416,0.416,0.416,0.416,0,0,0.416,0,0,0,0,0,0,0,0,0,0,0,0,0,0,0,0,0,0,0,0.463,0.462,0.462,0.461,0,0,0,0,0.459,0.459,0.459,0.459,0.459,0.46,0,0,0,0,0,0,0,0,0,0,0,0,0,0,0,0,0,0,0,0,0,0,0,0,0,0,0,0,0,0,0,0,0,0,0,0,0,0,0,0,0,0,0,0,0,0,0,0,0,0,0,0,0,0,0,0,0,0,0,0,0,0,0,0,0,0,0,0,0,0,0,0,0,0,0,0,0,0.509,0.509,0.509,0.508,0.509,0.508,0.508,0.508,0.508,0.507,0.508,0.508,0.507,0.507,0.507,1.899,1.881,1.872,1.866,1.866,1.866,1.869,1.869,1.872,1.875,1.884,1.899,0,0,0,0,0,0,0,0,0,0,0,0,0,0,0,0,0,0,0,0.887,0.886,0.884,0.884,0.882,0.879,0.879,0.877,0.876,0.875,0.873,0.869,0.866,0.861,0.858,0.853,0.848,0.843,0.839,0.836,0.828,0.823,0.819,0.818,0.816,0.813,0.809,0.803,0.802,0.801,0.8,0.799,0.798,0.796,0.794,0.791,0.787,0.782,0.779,0.775,0.77,0.767,0.765,0.763,0.756,0.753,0.752,0.75,0.749,0.747,0.745,0.743,0.743,0.741,0.74,0.74,0.74,0.739,0.739,0,0,0,0,0,0,0,0,0,0,0,0,0,0,0,0,0,0,0,0,0,0,0,0,0,0,0,0,0,0,0,0,0,0,0,0,0,0,0,0,0
0,0,0,0,0,0,0,3.039,3.024,3.016,3.016,3,2.993,2.993,2.977,2.993,2.993,3,3.024,3.047,3.08,3.113,3.138,3.155,3.163,3.172,3.181,3.189,3.198,3.198,3.198,3.198,3.198,3.189,3.189,3.189,3.181,3.181,3.172,3.172,3.172,3.181,3.181,3.189,3.207,3.225,3.261,3.288,3.317,3.336,3.365,3.384,3.404,3.414,3.434,3.444,3.444,3.454,3.454,3.465,3.475,3.485,3.485,3.485,3.496,3.506,3.538,3.56,3.627,3.731,3.817,0,3.933,4.218,4.36,4.732,0,4.912,5.106,5.415,5.465,5.491,5.543,5.543,5.543,5.543,5.57,5.543,5.57,5.57,5.57,5.57,5.57,5.57,5.543,5.543,5.543,5.543,5.543,5.543,5.517,5.491,5.491,5.465,5.44,5.44,5.415,5.415,5.415,5.415,5.415,5.415,5.415,5.44,5.44,5.44,5.44,5.44,5.44,5.44,5.44,5.44,5.44,5.44,5.44,5.44,5.44,5.44,5.415,5.415,5.415,5.415,5.415,5.415,5.415,5.415,5.389,5.389,5.389,5.389,5.389,5.415,5.44,5.44,5.44,5.465,5.491,5.517,5.543,5.543,5.543,5.543,5.57,5.57,5.57,5.57,5.597,5.624,5.679,5.735,5.85,6.001,6.225,6.432,0,6.614,6.808,7.055,7.322,7.559,7.866,8.028,8.198,8.375,8.497,8.753,8.955,9.239,9.464,9.542,9.542,9.701,9.701,9.701,9.783,9.542,9.542,9.464,9.313,9.239,9.024,8.819,8.56,8.375,8.256,8.141,8.084,8.028,8.028,8.084,8.256,8.375,8.623,9.024,9.464,9.783,10.036,10.123,10.212,10.212,10.212,10.212,10.212,10.212,10.212,10.212,10.212,10.212,10.302,10.302,10.394,10.394,10.394,10.394,10.394,10.394,10.302,10.302,10.212,10.212,10.036,9.865,9.701,9.464,9.313,9.313,9.166,8.955,9.024,0,9.166,9.239,9.464,9.542,9.783,9.95,10.123,10.212,10.302,10.302,10.394,10.394,10.583,10.583,10.583,10.68,10.68,10.68,10.68,10.68,10.68,10.68,10.583,10.394,10.212,9.542,9.024,8.56,8.256,8.084,7.973,7.919,7.919,7.813,7.813,7.919,7.919,7.973,7.973,7.973,7.813,0,0,0,6.504,6.225,5.939,5.735,5.651,5.597,5.57,5.543,5.517,5.491,5.465,5.44,5.415,5.389,5.34,5.316,5.268,5.268,5.268,5.268,5.268,0,5.316,5.316,5.316,5.316,5.316,0,0,0,0,0,0,0,0,0,0,0,0,0,0,0,0,0,0,0,0,0,0,0,0,0,0,0,0,0,0,0,0,0,0,0,0,0,0,0,0,0,0,0,0,0,0,0,0,0,0,0,0,0,0,0,0,0,0,0.414,0.414,0.415,0.415,0.415,0.415,0.415,0.415,0.416,0.416,0.416,0.416,0.416,0.416,0.416,0.416,0.417,0,0,0,0,0,0,0,0,0,0,0,0,0,0,0,0,0,0,0,0.461,0.461,0.461,0.46,0.46,0.459,0.459,0.459,0.459,0.459,0.459,0,0,0,0,0,0,0,0,0,0,0,0,0,0,0,0,0,0,0,0,0,0,0,0,0,0,0,0,0,0,0,0,0,0,0,0,0,0,0,0,0,0,0,0,0,0,0,0,0,0,0,0,0,0,0,0,0,0,0,0,0,0,0,0,0,0,0,0,0,0,0,0,0,0,0,0,0,0,0.508,0.508,0.508,0.508,0.507,0.507,0.507,0.507,0.507,0.506,0.507,0.506,0,0.507,0.507,1.863,0.508,1.851,1.848,1.851,1.86,1.86,1.86,1.863,1.863,1.869,0,0,0,0,0,0,0,0,0,0,0,0,0,0,0,0,0,0,0,0.889,0.887,0.886,0.884,0.883,0.881,0.879,0.878,0.877,0.875,0.874,0.872,0.867,0.864,0.86,0.857,0.851,0.845,0.84,0.838,0.835,0.826,0.82,0.818,0.816,0.814,0.81,0.803,0.802,0.801,0.801,0.8,0.799,0.798,0.797,0.795,0.792,0.788,0.782,0.78,0.775,0.77,0.767,0.766,0.763,0.757,0.753,0.752,0.75,0.749,0.748,0.745,0.743,0.743,0.742,0.74,0.74,0.74,0.739,0.739,0,0,0,0,0,0,0,0,0,0,0,0,0,0,0,0,0,0,0,0,0,0,0,0,0,0,0,0,0,0,0,0,0,0,0,0,0,0,0,0,0
0,0,0,0,0,0,0,3.016,3.016,3,3,2.977,2.97,2.97,2.97,2.97,2.97,2.993,3,3.024,3.055,3.096,3.113,3.138,3.146,3.163,3.172,3.181,3.181,3.189,3.189,3.189,3.189,3.189,3.189,3.181,3.181,3.172,3.172,3.163,3.163,3.172,3.181,3.189,3.198,3.216,3.234,3.27,3.298,3.326,3.355,3.384,3.394,3.404,3.424,3.434,3.444,3.454,3.454,3.465,3.465,3.475,3.485,3.485,3.496,3.496,3.517,3.549,3.593,3.696,3.804,0,3.88,4.128,4.312,4.638,0,4.871,5.084,5.415,5.491,5.517,5.543,5.543,5.57,5.57,5.57,5.57,5.57,5.57,5.57,5.57,5.57,5.57,5.57,5.57,5.57,5.57,5.57,5.543,5.543,5.543,5.543,5.517,5.491,5.491,5.491,5.465,5.465,5.465,5.465,5.465,5.465,5.465,5.465,5.465,5.465,5.465,5.44,5.44,5.44,5.44,5.44,5.44,5.44,5.44,5.44,5.44,5.415,5.415,5.415,5.415,5.415,5.415,5.415,5.415,5.389,5.389,5.389,5.389,5.389,5.389,5.415,5.44,5.44,5.465,5.491,5.517,5.517,5.543,5.543,5.543,5.57,5.57,5.57,5.57,5.597,5.624,5.651,5.679,5.763,5.85,6.095,6.259,0,6.504,6.652,6.808,6.971,7.322,7.761,8.028,8.198,8.436,8.623,8.955,9.166,9.313,9.464,9.701,9.701,9.783,9.783,9.783,9.783,9.783,9.701,9.542,9.464,9.239,8.955,8.753,8.56,8.375,8.256,8.141,8.028,7.973,7.973,8.028,8.141,8.256,8.436,8.753,9.166,9.542,9.865,10.036,10.123,10.123,10.036,10.036,10.036,10.036,10.123,10.123,10.123,10.123,10.123,10.212,10.212,10.212,10.212,10.123,10.123,10.036,9.865,9.783,9.542,9.313,9.024,8.753,8.56,8.497,8.497,8.436,8.436,8.436,8.375,8.436,8.497,8.497,8.623,8.819,8.955,9.024,9.239,0,9.313,9.313,0,9.701,9.865,9.95,10.123,10.212,10.212,10.302,10.302,10.394,10.302,10.302,10.123,9.464,8.955,8.56,8.256,8.084,7.919,0,7.368,7.415,7.322,7.368,7.368,0,7.559,7.659,0,0,0,0,6.729,6.577,6.396,6.095,5.85,5.707,5.651,5.597,5.543,5.543,5.517,5.491,5.465,5.44,5.415,5.389,5.34,5.316,5.316,5.268,0,5.316,5.316,5.34,5.34,5.34,0,0,0,0,0,0,0,0,0,0,0,0,0,0,0,0,0,0,0,0,0,0,0,0,0,0,0,0,0,0,0,0,0,0,0,0,0,0,0,0,0,0,0,0,0,0,0,0,0,0,0,0,0,0,0,0,0,0.411,0,0,0.412,0.413,0.413,0.414,0.415,0.415,0.415,0.415,0.415,0.415,0.416,0.416,0.416,0.416,0.416,0.416,0.416,0.416,0.417,0.417,0.418,0,0,0,0,0,0,0,0,0,0,0,0,0,0,0,0,0,0,0,0.46,0.46,0,0,0.459,0.459,0,0,0,0,0,0,0,0,0,0,0,0,0,0,0,0,0,0,0,0,0,0,0,0,0,0,0,0,0,0,0,0,0,0,0,0,0,0,0,0,0,0,0,0,0,0,0,0,0,0,0,0,0,0,0,0,0,0,0,0,0,0,0,0,0,0,0,0,0,0,0,0,0,0,0,0,0,0,0,0,0,0.507,0.507,0.507,0.507,0.506,0.505,0.505,0.505,0.505,0.505,0.506,0.506,1.86,0.507,0.507,1.845,0.508,1.833,1.842,1.848,1.851,1.854,1.854,1.854,0,0,0,0,0,0,0,0,0,0,0,0,0,0,0,0,0,0,0,0,0.889,0.887,0.886,0.884,0.883,0.881,0.879,0.877,0.876,0.875,0.873,0.869,0.866,0.862,0.859,0.853,0.847,0.841,0.838,0.835,0.826,0.821,0.819,0.817,0.815,0.811,0.808,0.803,0.801,0.801,0.8,0.8,0.799,0.798,0.797,0.795,0.792,0.789,0.782,0.78,0.777,0.771,0.767,0.766,0.764,0.757,0.753,0.752,0.75,0.749,0.748,0.745,0.744,0.743,0.742,0.741,0.74,0.74,0.739,0.739,0,0,0,0,0,0,0,0,0,0,0,0,0,0,0,0,0,0,0,0,0,0,0,0,0,0,0,0,0,0,0,0,0,0,0,0,0,0,0,0,0
0,0,0,0,0,0,0,0,0,2.977,2.97,2.97,2.955,2.955,2.955,2.955,2.955,2.97,2.993,3.016,3.039,3.055,3.096,3.113,3.138,3.146,3.155,3.163,3.163,3.172,3.172,3.181,3.181,3.181,3.181,3.181,3.172,3.172,3.163,3.163,3.163,3.163,3.181,3.189,3.189,3.207,3.225,3.243,3.288,3.317,3.336,3.355,3.384,3.394,3.414,3.424,3.444,3.444,3.454,3.465,3.465,3.475,3.485,3.485,3.496,3.496,3.517,3.538,3.56,3.672,3.792,3.868,0,4.114,0,4.583,0,4.851,5.04,5.415,5.465,5.491,5.543,5.543,5.57,5.57,5.57,5.57,5.57,5.57,5.57,5.57,5.57,5.57,5.57,5.57,5.57,5.57,5.57,5.57,5.57,5.543,5.543,5.543,5.543,5.543,5.543,5.517,5.517,5.517,5.517,5.517,5.491,5.491,5.491,5.465,5.465,5.465,5.465,5.465,5.44,5.44,5.44,5.44,5.44,5.44,5.44,5.415,5.415,5.415,5.415,5.415,5.415,5.415,5.415,5.415,5.415,5.389,5.389,5.389,5.389,5.415,5.415,5.44,5.44,5.465,5.491,5.491,5.517,5.543,5.543,5.543,5.57,5.57,5.57,5.57,5.597,5.597,5.651,5.679,5.735,5.792,5.939,6.127,6.361,6.54,0,6.652,6.729,7.055,7.511,7.919,8.084,8.256,8.497,8.819,9.024,9.239,9.313,9.464,9.542,9.701,9.701,9.701,9.701,9.542,9.542,9.464,9.239,9.166,8.819,8.56,8.436,8.256,8.141,8.084,7.973,7.919,7.919,7.973,8.028,8.141,8.256,8.436,8.753,9.024,9.464,9.701,9.783,9.865,9.865,9.865,9.865,9.783,9.783,9.865,9.783,9.865,9.865,9.865,9.865,9.865,9.865,9.542,9.313,9.239,8.955,8.623,8.436,8.375,8.256,8.198,8.198,8.141,8.141,8.141,8.084,8.084,8.084,8.084,8.141,8.198,8.198,8.198,8.256,0,0,0,0,0,0,0,0,0,0,0,9.783,9.783,9.95,9.95,9.95,9.95,9.166,8.753,8.375,8.198,8.028,7.813,7.511,7.231,7.098,7.055,7.055,7.055,7.098,7.231,7.322,7.322,7.322,7.231,7.055,6.729,6.614,6.432,6.127,5.939,5.792,5.679,5.624,5.57,5.543,5.543,5.517,5.465,5.465,5.44,5.389,5.34,5.316,5.268,5.268,5.268,0,5.316,5.34,5.34,0,0,0,0,0,0,0,0,0,0,0,0,0,0,0,0,0,0,0,0,0,0,0,0,0,0,0,0,0,0,0,0,0,0,0,0,0,0,0,0,0,0,0,0,0,0,0,0,0,0,0,0,0,0,0,0,0,0.41,0.41,0.411,0.411,0.411,0,0.412,0.412,0.413,0.413,0.414,0.415,0.415,0.415,0.415,0.415,0.415,0.415,0.416,0.416,0.416,0.416,0.416,0.417,0.417,0.417,0.418,0,0,0.42,0.42,0,0,0,0,0,0,0,0,0,0,0,0,0,0,0,0,0,0,0,0,0,0,0,0,0,0,0,0,0,0,0,0,0,0,0,0,0,0,0,0,0,0,0,0,0,0,0,0,0,0,0,0,0,0,0,0,0,0,0,0,0,0,0,0,0,0,0,0,0,0,0,0,0,0,0,0,0,0,0,0,0,0,0,0,0,0,0,0,0,0,0,0,0,0,0,0,0,0,0,0,0.507,0.506,0.506,0.505,0.505,0.504,0.504,0.504,0.504,0.504,0.504,0.504,0.504,0.505,0.506,0.507,0.507,0.508,0.508,0.508,0.508,1.848,1.851,1.851,0,0,0,0,0,0,0,0,0,0,0,0,0,0,0,0,0,0,0,0,0,0,0.887,0.886,0.884,0.883,0.881,0.878,0.877,0.875,0.874,0.871,0.867,0.863,0.86,0.857,0.849,0.842,0.838,0.836,0.826,0.821,0.819,0.817,0.815,0.813,0.809,0.806,0.802,0.801,0.801,0.8,0.8,0.799,0.798,0.797,0.795,0.792,0.789,0.782,0.781,0.777,0.771,0.768,0.766,0.764,0.756,0.754,0.752,0.751,0.75,0.748,0.746,0.744,0.743,0.742,0.741,0.741,0.74,0.739,0.739,0,0,0,0,0,0,0,0,0,0,0,0,0,0,0,0,0,0,0,0,0,0,0,0,0,0,0,0,0,0,0,0,0,0,0,0,0,0,0,0,0
0,0,0,0,0,0,0,0,0,0,0,2.947,2.947,2.94,2.947,2.947,2.947,2.955,2.97,2.993,3.024,3.047,3.055,3.096,3.113,3.129,3.146,3.146,3.155,3.155,3.163,3.163,3.163,3.172,3.163,3.163,3.163,3.163,3.163,3.163,3.163,3.163,3.172,3.181,3.189,3.198,3.216,3.234,3.261,3.298,3.317,3.336,3.365,3.394,3.404,3.424,3.434,3.444,3.454,3.454,3.465,3.475,3.475,3.485,3.485,3.496,3.506,3.517,3.538,3.649,3.767,3.868,0,4.085,4.28,4.53,0,4.83,5.018,5.415,5.465,5.517,5.517,5.543,5.543,5.543,5.57,5.543,5.57,5.543,5.543,5.543,5.543,5.543,5.543,5.543,5.543,5.57,5.57,5.57,5.57,5.57,5.57,5.57,5.57,5.543,5.543,5.543,5.543,5.543,5.543,5.517,5.517,5.517,5.491,5.491,5.465,5.465,5.465,5.465,5.44,5.44,5.44,5.44,5.415,5.415,5.415,5.415,5.415,5.415,5.415,5.415,5.415,5.415,5.415,5.415,5.415,5.415,5.415,5.415,5.415,5.415,5.415,5.415,5.44,5.465,5.465,5.491,5.517,5.543,5.543,5.543,5.57,5.57,5.57,5.57,5.597,5.597,5.651,5.651,5.707,5.763,5.85,6.001,6.225,6.396,6.54,6.614,0,6.808,7.186,7.659,7.973,8.141,8.315,8.56,8.819,9.024,9.239,9.239,9.313,9.313,9.313,9.313,9.313,9.313,9.239,9.166,9.024,8.819,8.623,8.436,8.315,8.198,8.084,8.028,7.973,7.866,7.813,7.813,7.866,7.973,7.973,8.084,8.315,8.56,8.955,9.166,9.313,9.464,9.313,9.313,9.313,9.464,9.313,9.313,9.313,9.313,9.313,9.239,9.239,9.024,9.024,8.56,8.497,8.375,8.256,8.198,8.141,8.084,8.084,8.028,8.028,8.028,8.028,8.028,7.973,7.973,7.973,7.973,7.973,7.973,8.028,8.028,8.028,8.028,8.084,0,8.141,0,8.256,8.436,8.497,8.623,0,0,0,0,9.239,9.239,9.239,8.955,8.56,8.315,8.141,7.973,7.709,7.368,7.098,6.888,6.808,6.808,6.808,6.808,6.848,6.929,6.971,6.971,6.929,6.729,6.652,6.577,6.396,6.127,5.85,5.763,5.679,5.651,5.597,5.57,5.543,5.517,5.491,5.465,5.44,5.415,5.389,5.34,5.268,5.268,5.268,0,5.316,5.316,5.34,5.34,5.389,5.415,5.415,0,0,0,0,0,0,0,0,0,0,0,0,0,0,0,0,0,0,0,0,0,0,0,0,0,0,0,0,0,0,0,0,0,0,0,0,0,0,0,0,0,0.407,0.407,0.407,0.407,0.407,0.407,0.407,0.407,0.408,0.408,0.408,0.409,0.409,0.41,0.41,0.411,0.411,0.411,0,0.412,0.412,0.412,0.413,0.413,0.414,0.414,0.414,0.414,0.414,0.415,0.415,0.415,0.415,0.416,0.416,0.416,0.416,0.417,0.417,0.418,0.418,0.419,0.42,0.42,0.42,0.42,0,0,0,0,0,0,0,0,0,0,0,0,0,0,0,0,0,0,0,0,0,0,0,0,0,0,0,0,0,0,0,0,0,0,0,0,0,0,0,0,0,0,0,0,0,0,0,0,0,0,0,0,0,0,0,0,0,0,0,0,0,0,0,0,0,0,0,0,0,0,0,0,0,0,0,0,0,0,0,0,0,0,0,0,0,0,0,0,0,0,0,0,0,0,0,0,0,0,0.506,0.505,0.505,0.504,0.504,0.503,0.503,0.503,0.503,0.503,0.503,0.503,0.504,0.504,0.505,0.506,0.507,0.507,0.508,0.508,0.508,0.508,0,1.86,0,0,0,0,0,0,0,0,0,0,0,0,0,0,0,0,0,0,0,0,0,0,0.888,0.885,0.883,0.882,0.881,0.877,0.876,0.875,0.872,0.868,0.865,0.861,0.858,0.851,0.843,0.838,0.835,0.824,0.82,0.818,0.817,0.815,0.813,0.81,0.807,0.805,0.802,0.801,0.801,0.8,0.8,0.799,0.798,0.797,0.795,0.792,0.788,0.786,0.781,0.777,0.772,0.768,0.766,0.764,0.757,0.754,0.752,0.751,0.75,0.748,0.747,0.745,0.743,0.742,0.741,0.741,0.74,0.739,0.739,0,0,0,0,0,0,0,0,0,0,0,0,0,0,0,0,0,0,0,0,0,0,0,0,0,0,0,0,0,0,0,0,0,0,0,0,0,0,0,0,0
0,0,0,0,0,0,0,0,0,0,0,2.94,2.94,2.94,2.94,2.94,2.947,2.955,2.97,2.977,3,3.024,3.047,3.072,3.096,3.113,3.121,3.129,3.138,3.146,3.155,3.155,3.155,3.163,3.163,3.163,3.163,3.163,3.163,3.163,3.163,3.163,3.172,3.181,3.181,3.189,3.207,3.225,3.243,3.27,3.298,3.326,3.355,3.384,3.404,3.414,3.424,3.444,3.444,3.454,3.465,3.465,3.475,3.485,3.485,3.496,3.496,3.517,3.538,3.649,3.792,3.868,0,4.114,4.296,4.512,4.81,0,4.996,5.389,5.44,5.491,5.491,5.517,5.543,5.543,5.543,5.543,5.543,5.543,5.543,5.543,5.543,5.543,5.543,5.543,5.543,5.543,5.57,5.57,5.57,5.57,5.57,5.57,5.57,5.57,5.543,5.543,5.543,5.543,5.543,5.517,5.517,5.517,5.491,5.491,5.465,5.465,5.465,5.44,5.44,5.44,5.44,5.415,5.415,5.415,5.415,5.415,5.415,5.415,5.415,5.415,5.415,5.415,5.415,5.415,5.415,5.415,5.415,5.415,5.415,5.415,5.44,5.44,5.44,5.44,5.465,5.491,5.517,5.543,5.543,5.543,5.57,5.57,5.57,5.57,5.57,5.597,5.624,5.651,5.679,5.735,5.792,5.909,6.032,6.259,6.396,6.54,0,6.69,6.929,7.368,7.813,8.028,8.198,8.375,8.56,8.753,8.955,8.955,9.024,9.024,9.024,9.024,9.024,9.024,8.955,8.819,8.753,8.623,8.497,8.375,8.256,8.198,8.084,8.028,7.973,7.866,7.813,7.813,7.813,7.866,0,7.973,8.028,8.084,8.198,8.256,8.436,8.955,8.955,8.955,8.955,8.955,9.024,8.955,8.955,8.955,8.819,8.623,8.497,8.436,8.256,8.256,8.198,8.141,8.084,8.028,8.028,7.973,7.973,7.919,7.919,7.919,7.866,7.866,7.866,7.866,7.866,7.866,7.866,7.866,7.866,7.919,7.973,7.973,7.973,7.973,8.028,8.028,8.084,8.141,8.198,8.256,8.375,8.436,8.497,8.56,8.623,8.623,8.56,8.436,8.256,8.084,7.919,7.559,7.186,6.971,6.729,6.69,6.652,6.652,6.614,6.652,6.69,6.69,6.69,6.614,6.577,6.504,6.361,6.127,5.939,5.763,5.679,5.651,5.624,5.597,5.57,5.543,5.543,5.517,5.491,5.465,5.44,5.415,5.389,5.34,0,0,0,0,5.268,0,5.316,5.34,0,0,0,0,0,0,0,0,0,0,0,0,0,0,0,0,0,0,0,0,0,0,0,0,0,0,0,0,0,0,0,0,0,0,0,0,0,0,0,0,0.405,0.406,0.406,0.406,0.406,0.406,0.407,0.407,0.407,0.407,0.407,0.407,0.407,0.407,0.408,0.408,0.409,0.409,0.41,0.41,0.411,0.411,0.411,0.411,0.411,0,0.412,0.412,0.412,0.412,0.413,0.413,0.414,0.414,0.414,0.415,0.415,0.415,0.416,0.416,0.416,0.416,0.417,0.417,0.418,0.419,0.419,0.42,0.42,0.42,0.42,0.42,0.42,0.42,0.42,0,0,0,0,0,0,0,0,0,0,0,0,0,0,0,0,0,0,0,0,0,0,0,0,0,0,0,0,0,0,0,0,0,0,0,0,0,0,0,0,0,0,0,0,0,0,0,0,0,0,0,0,0,0,0,0,0,0,0,0,0,0,0,0,0,0,0,0,0,0,0,0,0,0,0,0,0,0,0,0,0,0,0,0,0,0,0,0,0,0,0,0,0,0.505,0.504,0.504,0.504,0.503,0.502,0.502,0.502,0.502,0.502,0.502,0.502,0.503,0.504,0.504,0.505,0.506,0.507,0.507,0.508,0.508,0.508,0.508,0,0,0,0,0,0,0,0,0,0,0,0,0,0,0,0,0,0,0,0,0,0,0.891,0.888,0.886,0.884,0.882,0.88,0.877,0.876,0.874,0.871,0.867,0.864,0.859,0.852,0.845,0.838,0.836,0.824,0.82,0.818,0.816,0.815,0.813,0.81,0.808,0.806,0.802,0.801,0.801,0.801,0.8,0.799,0.798,0.798,0.796,0.795,0.792,0.789,0.785,0.781,0.778,0.773,0.768,0.766,0.764,0.757,0.754,0.752,0.751,0.75,0.748,0.747,0.745,0.743,0.742,0.741,0.74,0.74,0.739,0.739,0,0,0,0,0,0,0,0,0,0,0,0,0,0,0,0,0,0,0,0,0,0,0,0,0,0,0,0,0,0,0,0,0,0,0,0,0,0,0,0,0
0,0,0,0,0,0,0,0,0,0,0,2.932,2.932,2.94,2.932,2.932,2.94,2.947,2.962,2.97,2.993,3,3.024,3.047,3.072,3.096,3.104,3.113,3.121,3.138,3.146,3.146,3.146,3.155,3.155,3.155,3.163,3.163,3.163,3.163,3.163,3.163,3.163,3.172,3.181,3.189,3.198,3.216,3.234,3.261,3.288,3.317,3.336,3.365,3.394,3.404,3.424,3.444,3.444,3.454,3.454,3.465,3.465,3.475,3.485,3.496,3.496,3.517,3.549,3.649,3.792,3.88,0,4.128,4.312,4.565,4.81,0,4.996,5.389,5.44,5.44,5.465,5.491,5.491,5.491,5.491,5.491,5.491,5.491,5.491,5.491,5.491,5.491,5.491,5.517,5.543,5.543,5.543,5.57,5.57,5.57,5.57,5.57,5.57,5.57,5.57,5.543,5.543,5.543,5.543,5.543,5.517,5.491,5.491,5.491,5.465,5.465,5.465,5.44,5.44,5.44,5.415,5.415,5.415,5.415,5.415,5.415,5.415,5.415,5.44,5.44,5.44,5.44,5.44,5.44,5.44,5.44,5.44,5.44,5.44,5.44,5.44,5.44,5.44,5.44,5.465,5.491,5.517,5.517,5.543,5.543,5.57,5.57,5.57,5.57,5.57,5.597,5.624,5.651,5.679,5.707,5.763,5.821,5.939,6.095,6.259,6.396,6.577,0,6.768,7.098,7.511,7.866,8.028,8.198,8.315,8.436,8.56,8.56,8.623,8.623,8.623,8.753,8.753,8.623,8.623,8.623,8.56,8.497,8.436,8.315,8.256,8.198,8.084,8.028,7.973,7.919,7.709,7.709,7.761,7.761,7.761,7.919,7.973,8.028,8.084,0,8.198,8.256,8.315,8.315,8.375,8.56,8.56,8.56,8.497,8.375,8.256,8.256,8.256,8.198,8.141,8.084,8.028,8.028,7.973,7.973,7.973,7.866,7.866,7.813,7.761,7.761,7.761,7.761,7.761,7.709,7.659,7.659,7.659,7.761,7.761,7.761,7.761,7.761,7.761,7.813,7.866,7.919,7.866,7.973,8.028,8.084,8.198,8.198,8.256,8.315,8.315,8.315,8.256,8.141,8.028,7.761,7.368,6.729,6.69,6.614,6.577,6.54,6.504,6.467,6.467,6.467,6.432,6.432,6.432,6.361,0,0,0,0,0,0,0,0,0,0,0,0,0,0,0,0,0,1.122,1.117,1.115,1.113,1.111,5.244,5.268,5.268,0,5.316,0,0,0,0,0,0,0,0,0,0,0,0,0,0,0,0,0,0,0,0,0,0,0,0,0,0,0,0,0,0,0,0,0,0,0,0,0,0,0,0,0.404,0.405,0.405,0.405,0.406,0.406,0.406,0.406,0.406,0.407,0.407,0.407,0.407,0.407,0.407,0.408,0.408,0.408,0.409,0.409,0.41,0.41,0.411,0.41,0.411,0.411,0.411,0.411,0.411,0.411,0.412,0.412,0.412,0,0.413,0.413,0.414,0.414,0.415,0.415,0.415,0.416,0.416,0.416,0.417,0.417,0.418,0.419,0.419,0.42,0.42,0.42,0.42,0.419,0.419,0.419,0,0.418,0.418,0,0.419,0.419,0.419,0.42,0.42,0.421,0.422,0,0.424,0,0,0,0,0,0,0,0,0,0,0,0,0,0,0,0,0,0,0,0,0,0,0,0,0,0,0,0,0,0,0,0,0,0,0,0,0,0,0,0,0,0,0,0,0,0,0,0,0,0,0,0,0,0,0,0,0,0,0,0,0,0,0,0,0,0,0,0,0,0,0,0,0,0,0,0,0,0,0,0,0.505,0.504,0.503,0.503,0.502,0.502,0.502,0.502,0.502,0.502,0.502,0.502,0.502,0.503,0.503,0.505,0.506,0.506,0.507,0.508,0.508,0.508,0.508,0,0,0,0,0,0,0,0,0,0,0,0,0,0,0,0,0,0,0,0,0,0,0.891,0.889,0.886,0.885,0.882,0.881,0.878,0.876,0.873,0.87,0.865,0.86,0.857,0.847,0.839,0.836,0.824,0.819,0.818,0.816,0.814,0.813,0.81,0.809,0.807,0.806,0.802,0.801,0.801,0.801,0.8,0.799,0.798,0.797,0.796,0.794,0.791,0.788,0.785,0.781,0.778,0.774,0.769,0.766,0.765,0.757,0.754,0.752,0.751,0.75,0.749,0.747,0.745,0.743,0.742,0.741,0.74,0.739,0.739,0.739,0,0,0,0,0,0,0,0,0,0,0,0,0,0,0,0,0,0,0,0,0,0,0,0,0,0,0,0,0,0,0,0,0,0,0,0,0,0,0,0,0
0,0,0,0,0,0,0,0,0,0,0,2.932,2.932,2.932,2.932,2.932,2.94,2.947,2.955,2.962,2.977,2.993,3.016,3.024,3.047,3.055,3.08,3.096,3.104,3.113,3.121,3.129,3.146,3.146,3.146,3.155,3.155,3.155,3.155,3.155,3.155,3.163,3.163,3.172,3.181,3.181,3.189,3.198,3.225,3.243,3.27,3.288,3.317,3.336,3.384,3.394,3.414,3.434,3.444,3.454,3.454,3.465,3.475,3.485,3.485,3.496,3.506,3.528,3.56,3.672,3.817,0,3.933,4.188,4.328,4.601,0,4.83,5.018,5.389,5.415,5.44,5.44,5.44,5.465,5.465,5.465,5.44,5.44,5.44,5.44,5.44,5.44,5.44,5.465,5.491,5.491,5.517,5.543,5.543,5.543,5.57,5.57,5.57,5.57,5.57,5.57,5.57,5.543,5.543,5.543,5.543,5.517,5.491,5.491,5.491,5.465,5.465,5.465,5.465,5.44,5.415,5.415,5.415,5.415,5.389,5.389,5.389,5.415,5.415,5.44,5.44,5.44,5.44,5.44,5.44,5.44,5.44,5.44,5.44,5.44,5.44,5.44,5.44,5.44,5.44,5.465,5.491,5.491,5.517,5.543,5.543,5.57,5.57,5.57,5.57,5.57,5.597,5.597,5.651,5.651,5.679,5.707,5.763,5.821,5.909,6.095,6.225,6.504,6.614,0,6.808,7.098,7.511,7.813,7.973,8.141,8.198,8.256,8.256,8.256,8.256,8.315,8.315,8.315,8.315,8.315,8.315,8.256,8.315,8.256,8.256,8.198,8.141,8.084,7.973,7.973,7.919,7.709,7.659,7.659,7.659,7.709,7.761,7.813,7.919,7.973,8.028,8.084,8.084,8.084,8.084,8.084,8.084,8.028,8.028,7.973,8.141,8.141,8.084,8.028,8.028,8.028,7.973,7.866,7.866,7.866,7.813,7.761,7.659,7.709,7.659,7.659,7.659,7.659,7.659,7.559,7.559,7.511,7.559,7.511,7.511,7.511,7.511,7.511,7.511,7.511,7.559,7.559,7.559,7.559,0,0,0,0,0,8.028,8.084,8.141,8.141,8.084,0,0,0,0,6.652,6.614,6.54,6.54,6.467,0,0,0,0,0,0,0,0,0,0,0,0,1.146,1.146,1.146,1.146,1.144,1.144,1.142,1.139,1.136,1.132,0,0,1.123,1.12,1.117,1.115,1.113,1.111,1.109,0,0,0,0,0,0,0,0,0,0,0,0,0,0,0,0,0,0,0,0,0,0,0,0,0,0,0,0,0,0,0,0,0,0,0,0,0,0,0,0,0.402,0.403,0.403,0.403,0,0.404,0.405,0.405,0.406,0.406,0.406,0.406,0.406,0.406,0.407,0.407,0.407,0.407,0.407,0.407,0.407,0.408,0.408,0.409,0.409,0.409,0.41,0.41,0.41,0.41,0.411,0.411,0.411,0.411,0.411,0.411,0.411,0.412,0.412,0,0.413,0.413,0.413,0.414,0.415,0.415,0.415,0.416,0.416,0.417,0.417,0.417,0.418,0.419,0.419,0.419,0.419,0.418,0.418,0.418,0.418,0.417,0.417,0.417,0.418,0.418,0.419,0.42,0.42,0,0,0.422,0,0.424,0.425,0.426,0.427,0.429,0.43,0.43,0.43,0.43,0,0,0,0,0,0,0,0,0,0,0,0,0,0,0,0,0,0,0,0,0,0,0,0,0,0,0,0,0,0,0,0,0,0,0,0,0,0,0,0,0,0,0,0,0,0,0,0,0,0,0,0,0,0,0,0,0,0,0,0,0,0,0,0,0,0,0,0,0,0,0,0.505,0.504,0.503,0.503,0.502,0.502,0.502,0.502,0.501,0.501,0.502,0.502,0.502,0.502,0.503,0.504,0.505,0.506,0.507,0.507,0.508,0.508,0.508,0,0,0,0,0,0,0,0,0,0,0,0,0,0,0,0,0,0,0,0,0,0,0.889,0.887,0.884,0.883,0.881,0.878,0.877,0.875,0.872,0.867,0.862,0.858,0.849,0.841,0,0,0.819,0.817,0.815,0.813,0.81,0.81,0.809,0.807,0.806,0.805,0.804,0.801,0.801,0.801,0.8,0.799,0.798,0.797,0.796,0.794,0.79,0.787,0.784,0.781,0.778,0.773,0.769,0.766,0.765,0.758,0.755,0.753,0.751,0.75,0.749,0.747,0.744,0.743,0.741,0.741,0.739,0.739,0.738,0.738,0,0,0,0,0,0,0,0,0,0,0,0,0,0,0,0,0,0,0,0,0,0,0,0,0,0,0,0,0,0,0,0,0,0,0,0,0,0,0,0,0
0,0,0,0,0,0,0,0,0,0,0,2.932,2.932,2.932,2.932,2.932,2.932,2.94,2.947,2.962,2.97,2.993,3,3.016,3.024,3.047,3.055,3.072,3.08,3.096,3.104,3.121,3.129,3.138,3.138,3.146,3.146,3.155,3.155,3.155,3.155,3.163,3.163,3.163,3.172,3.181,3.181,3.189,3.207,3.225,3.243,3.27,3.298,3.326,3.365,3.394,3.414,3.434,3.444,3.454,3.465,3.465,3.475,3.485,3.485,3.496,3.506,3.549,3.615,3.755,0,3.868,4.056,4.264,4.41,4.694,0,4.871,5.018,5.34,5.389,5.415,5.415,5.415,5.415,5.415,5.415,5.415,5.389,5.415,5.389,5.415,5.415,5.415,5.44,5.465,5.465,5.517,5.517,5.543,5.57,5.57,5.57,5.57,5.57,5.57,5.57,5.57,5.543,5.543,5.543,5.543,5.517,5.491,5.491,5.465,5.465,5.465,5.465,5.44,5.44,5.415,5.415,5.415,5.389,5.389,5.389,5.389,5.389,5.415,5.44,5.44,5.44,5.44,5.44,5.44,5.44,5.44,5.44,5.44,5.44,5.44,5.44,5.44,5.44,5.465,5.465,5.491,5.491,5.517,5.543,5.543,5.57,5.57,5.57,5.57,5.597,5.597,5.597,5.651,5.651,5.679,5.679,5.707,5.763,5.85,5.909,6.127,6.396,6.54,6.69,0,6.848,7.186,7.511,7.761,7.973,8.028,8.084,8.084,8.084,8.084,8.084,8.141,8.141,8.141,8.141,8.198,8.198,8.198,8.084,8.028,7.973,7.813,7.559,7.368,7.186,6.971,6.929,6.888,6.848,6.848,6.808,6.729,6.729,6.768,6.808,6.929,7.055,7.186,7.231,7.368,7.511,7.559,7.559,7.559,7.511,7.415,7.415,7.368,7.415,7.761,7.761,7.659,7.659,7.659,7.659,7.559,7.559,7.511,7.559,7.559,7.559,7.559,7.559,7.559,7.559,7.511,7.511,7.511,7.511,7.511,7.511,7.511,7.511,7.511,7.511,7.511,0,0,0,0,0,0,0,7.813,7.866,7.973,7.973,0,0,0,0,0,0,0,0,0,0,0,0,1.153,1.151,1.15,1.15,1.149,1.148,1.147,1.146,1.146,1.146,1.144,1.144,1.142,1.144,1.14,1.14,1.139,1.138,1.138,1.135,1.129,1.126,1.124,1.123,1.119,1.117,1.115,1.113,1.111,1.109,0,0,0,0,0,0,0,0,0,0,0,0,0,0,0,0,0,0,0,0,0,0,0,0,0,0,0,0,0,0,0,0,0,0,0,0,0,0,0,0.402,0.402,0.402,0.402,0.403,0,0.404,0.404,0.405,0.405,0.405,0.406,0.406,0.406,0.406,0.406,0.406,0.407,0.407,0.407,0.407,0.407,0.407,0.408,0.408,0.408,0.409,0.409,0.409,0.409,0.41,0.41,0.41,0.41,0.411,0.411,0.411,0.411,0.411,0.411,0.412,0.412,0.412,0,0.413,0.413,0.414,0.414,0.415,0.415,0.416,0.416,0.416,0.417,0.418,0.418,0.418,0.418,0.418,0.417,0.417,0.417,0.417,0.417,0.416,0.417,0.417,0.417,0.418,0.419,0.42,0.42,0.421,0.422,0,0.424,0.425,0.426,0.427,0.428,0.429,0.429,0.43,0.43,0.43,0,0.43,0,0,0,0,0,0,0,0,0,0,0,0,0,0,0,0,0,0,0,0,0,0,0,0,0,0,0,0,0,0,0,0,0,0,0,0,0,0,0,0,0,0,0,0,0,0,0,0,0,0,0,0,0,0,0,0,0,0,0,0,0,0,0,0,0,0,0,0.505,0.504,0.503,0.503,0.502,0.502,0.502,0.501,0.501,0.501,0.501,0.502,0.502,0.502,0.502,0.503,0.504,0.506,0.507,0.507,0.508,0.508,0.508,0,0,0,0,0,0,0,0,0,0,0,0,0,0,0,0,0,0,0,0,0,0,0,0.885,0.883,0.882,0.88,0.877,0.876,0.873,0.869,0.864,0.859,0.856,0.843,0.837,0,0.819,0.816,0.813,0.81,0.808,0.806,0.806,0.806,0.806,0.805,0.804,0.804,0.802,0.801,0.801,0.8,0.799,0.798,0.797,0.796,0.792,0.79,0.787,0.782,0.78,0.777,0,0.768,0.766,0.765,0.758,0.755,0.753,0.751,0.75,0.748,0.746,0.743,0.742,0.739,0.739,0.739,0.738,0.738,0.738,0,0,0,0,0,0,0,0,0,0,0,0,0,0,0,0,0,0,0,0,0,0,0,0,0,0,0,0,0,0,0,0,0,0,0,0,0,0,0,0,0
