0,0,0,0,0,0,0,0,0,0,2.947,2.947,2.94,2.932,2.932,2.932,2.932,2.932,2.932,2.925,2.932,0,0,0,0,0,0,4.871,4.891,4.891,4.891,4.891,4.891,0,0,4.996,5.04,5.106,5.244,5.34,5.465,5.543,5.597,5.651,5.651,5.651,5.651,5.651,5.651,5.651,5.651,5.651,5.679,5.679,5.679,5.707,5.735,5.735,5.735,5.707,5.707,5.679,5.679,5.679,5.651,5.651,5.597,5.597,5.597,5.57,5.57,5.543,5.543,5.543,5.543,5.517,5.517,5.517,5.517,5.517,5.491,5.491,5.465,5.465,5.44,5.44,5.44,5.415,5.389,5.389,5.389,5.34,5.34,5.34,5.316,5.316,5.316,5.244,5.244,5.22,5.174,5.151,5.151,5.106,5.106,5.106,5.151,5.174,5.22,5.244,5.316,5.389,5.44,5.491,5.543,5.543,5.57,5.57,5.57,5.57,5.57,5.57,5.57,5.57,5.543,5.543,5.543,5.543,5.543,5.543,5.543,5.517,5.517,5.517,5.491,5.491,5.465,5.465,5.44,5.44,5.44,5.44,5.44,5.44,5.44,5.465,5.491,5.517,5.517,5.543,5.543,5.57,5.57,5.57,5.597,5.624,5.735,0,6.127,6.577,0,0,0,8.198,8.436,8.375,8.375,8.315,8.256,0,0,0,0,0,0,0,0,0,0,0,0,0,0,0,0,0,0,0,0,0,0,0,0,0,0,0,7.973,8.028,8.084,8.084,8.141,8.256,8.623,9.464,0,10.488,11.087,0,12.384,13.859,14.026,14.197,14.372,14.372,14.372,14.372,14.372,14.372,14.372,14.372,14.372,14.372,14.197,14.197,14.026,13.696,12.935,12.518,12.384,12.254,12.001,11.641,11.526,11.526,11.526,11.641,12.001,12.001,12.254,12.384,12.793,12.935,13.229,13.381,13.381,13.536,13.536,13.536,13.536,13.536,13.536,13.536,13.536,13.536,13.536,13.536,13.536,13.536,13.536,13.536,13.696,13.696,13.696,13.696,13.859,13.859,13.859,13.859,13.859,13.859,13.859,13.859,13.859,13.859,13.696,13.696,13.696,13.696,13.696,13.696,13.696,13.696,13.696,13.696,13.696,13.536,13.536,13.536,13.536,13.536,13.381,13.381,0,0,0,0,0,0,0,0,0,0,0,0,0,0,0,0,0,13.229,13.229,13.229,13.229,13.229,13.381,13.381,13.381,13.381,13.381,13.229,13.229,12.935,12.935,12.935,12.793,12.518,12.384,12.254,12.254,12.001,12.001,12.001,12.001,12.001,12.254,12.254,12.384,12.384,12.384,12.384,12.384,12.254,12.001,11.879,11.879,11.641,11.302,11.302,11.194,11.087,10.982,10.982,10.88,10.779,10.88,10.982,11.087,11.526,11.879,12.384,12.793,13.229,13.536,13.536,13.536,13.536,13.229,12.935,12.518,12.001,11.879,11.194,10.88,10.779,10.68,10.68,10.68,10.68,10.68,10.779,10.779,10.88,11.087,11.087,11.194,11.526,0,11.641,11.879,12.001,12.384,12.384,12.254,12.001,0,12.254,12.384,12.518,12.793,12.935,13.229,13.381,13.536,13.696,13.696,13.696,13.696,13.536,13.536,12.935,12.384,12.254,11.641,11.302,11.087,10.88,10.68,10.583,10.394,10.212,9.95,9.701,8.753,8.375,8.256,8.141,8.028,7.973,7.973,7.866,7.813,7.813,7.813,7.709,7.761,7.709,7.761,7.813,7.813,7.866,7.866,7.866,7.866,7.813,7.761,7.761,7.659,7.511,7.415,7.322,7.231,7.186,7.055,6.929,6.768,6.652,6.54,6.259,5.792,5.651,5.57,5.517,5.44,5.415,5.415,5.415,5.389,5.389,5.34,5.316,5.268,5.244,5.174,5.151,5.106,5.084,5.04,5.04,5.084,5.084,0,5.151,5.174,5.22,5.22,5.22,5.22,5.174,5.151,5.106,5.084,5.04,5.018,4.975,4.975,4.975,4.996,4.996,5.018,4.996,5.018,4.996,4.975,4.933,4.891,4.851,4.771,4.713,4.601,4.565,4.53,4.477,4.426,4.41,4.376,4.36,4.328,4.312,4.296,4.264,4.203,4.128,4.056,3.987,3.933,3.88,3.868,3.842,3.829,3.817,3.817,3.804,3.792,3.792,3.78,0,0,0,0,0,1.612,1.612,1.612,1.612,1.61,1.608,1.603,1.599,1.593,1.586,1.577,1.556,1.554,1.548,1.548,1.546,1.544,1.54,1.54,1.54,1.54,1.538,1.536,1.538,1.536,1.536,1.536,1.534,1.528,1.528,1.526,1.52,1.52,1.518,1.514,1.512,1.512,1.512,1.512,1.508,1.508,1.506,1.5,1.492,1.491,1.487,1.479,1.466,0,0,1.418,1.403,1.392,1.388,1.383,1.378,1.373,1.37,1.37,1.366,1.366,1.366,1.365,1.363,1.365,1.362,1.363,1.362,1.36,1.36,1.357,1.357,1.357,0,0,0,0,0,0,0,0,0,0,0,0,0,0,0,0,0,0,0,0,0,0,0,0,0,0,0
0,0,0,0,0,0,0,0,0,0,0,2.955,2.947,2.947,2.94,2.94,2.94,2.932,2.94,2.932,2.932,0,0,0,0,0,0,4.81,4.851,4.851,4.851,4.851,4.871,4.891,4.912,4.954,5.018,5.084,5.22,5.316,5.44,5.543,5.57,5.597,5.624,5.624,5.597,5.597,5.597,5.597,5.624,5.651,5.651,5.679,5.679,5.707,5.707,5.735,5.707,5.707,5.679,5.679,5.679,5.679,5.651,5.651,5.624,5.597,5.597,5.57,5.57,5.57,5.543,5.543,5.543,5.543,5.517,5.517,5.517,5.491,5.491,5.465,5.44,5.44,5.44,5.415,5.389,5.389,5.34,5.34,5.316,5.316,5.316,5.268,5.268,5.268,5.268,5.22,5.22,5.174,5.151,5.106,5.106,5.084,5.084,5.084,5.106,5.151,5.174,5.22,5.268,5.34,5.415,5.465,5.517,5.543,5.543,5.57,5.57,5.57,5.57,5.57,5.543,5.543,5.543,5.517,5.517,5.517,5.517,5.491,5.491,5.491,5.491,5.491,5.491,5.465,5.44,5.44,5.44,5.415,5.415,5.415,5.44,5.44,5.44,5.465,5.491,5.517,5.517,5.543,5.543,5.57,5.57,5.597,5.624,5.651,5.909,0,6.396,6.729,0,0,0,8.375,8.623,8.623,8.623,8.56,8.436,8.375,0,0,0,0,0,0,0,0,0,0,0,0,0,0,0,0,0,0,0,0,0,0,0,0,0,8.028,8.028,8.084,8.084,8.198,8.198,8.436,8.955,9.701,10.212,10.583,11.194,0,12.384,13.859,13.859,14.197,14.197,14.372,14.372,14.372,14.372,14.372,14.372,14.372,14.372,14.197,14.197,14.026,13.859,13.536,12.935,12.793,12.384,12.254,12.001,11.879,11.641,11.641,11.879,11.879,12.001,12.254,12.518,12.793,12.935,13.381,13.536,13.536,13.696,13.696,13.696,13.696,13.696,13.536,13.536,13.536,13.536,13.381,13.381,13.381,13.381,13.381,13.229,13.229,13.381,13.381,13.381,13.536,13.536,13.696,13.696,13.696,13.696,13.696,13.696,13.696,13.696,13.696,13.696,13.696,13.696,13.696,13.696,13.696,13.696,13.696,13.696,13.696,13.696,13.696,13.536,13.536,13.536,13.536,13.381,13.381,0,0,0,0,0,0,0,0,0,0,0,0,0,0,0,0,0,13.381,13.229,13.229,13.381,13.381,13.229,13.381,13.381,13.229,13.381,13.229,13.229,13.229,12.935,12.935,12.935,12.793,12.518,12.384,12.384,12.254,12.254,12.001,12.254,12.254,12.254,12.384,12.518,12.518,12.518,12.518,12.518,12.384,12.384,12.254,12.001,11.879,11.641,11.641,11.526,11.302,11.194,11.194,11.194,11.194,11.302,11.302,11.641,12.001,12.384,12.935,13.229,13.536,13.696,13.696,13.696,13.696,13.381,12.935,12.384,12.001,11.526,10.88,10.779,10.68,10.583,10.583,10.583,10.583,10.68,10.68,10.68,10.779,10.88,10.88,11.087,11.194,11.526,11.526,0,12.001,12.001,12.001,12.001,11.879,12.001,0,12.254,12.254,12.384,12.793,12.935,13.229,13.381,13.381,13.536,13.536,13.536,13.381,12.935,12.793,12.384,12.001,11.641,11.302,11.087,10.88,10.68,10.583,10.394,10.302,10.036,9.701,8.753,8.375,8.198,8.084,8.028,7.973,7.919,7.866,7.813,7.813,7.813,7.813,7.761,7.761,7.761,7.813,7.761,7.761,7.761,7.761,7.761,7.709,7.659,7.559,7.511,7.368,7.231,7.186,7.055,6.971,6.929,6.848,6.729,6.614,6.467,6.259,5.763,5.651,5.57,5.517,5.44,5.415,5.389,5.389,5.389,5.389,5.34,5.316,5.268,5.22,5.174,5.151,5.106,5.04,5.018,5.018,5.04,5.084,5.084,5.106,5.151,5.174,5.174,5.174,5.151,5.151,5.106,5.084,5.04,5.018,4.996,4.975,4.975,4.975,4.996,4.996,4.996,4.996,5.018,4.975,4.954,4.912,4.871,4.83,4.732,4.638,4.53,4.477,4.426,4.393,4.36,4.344,4.328,4.312,4.28,4.264,4.249,4.188,4.158,4.07,4.014,3.946,3.92,3.893,3.868,3.842,3.829,3.829,3.817,3.817,3.804,3.804,3.804,0,0,0,0,0,0,1.612,1.612,1.612,1.612,1.61,1.608,1.603,1.599,1.593,1.577,1.556,1.552,1.548,1.546,1.544,1.538,1.536,1.536,1.538,1.536,1.534,1.534,1.532,1.528,1.532,1.528,1.526,1.52,1.52,1.518,1.514,1.512,1.508,1.508,1.508,1.506,1.506,1.506,1.506,1.502,1.502,1.496,1.489,1.487,1.479,1.466,1.453,0,0,0,0,1.388,1.383,1.378,1.376,1.373,1.37,1.37,1.368,1.366,1.366,1.365,1.363,1.365,1.362,1.363,1.363,1.362,1.36,1.36,1.36,1.36,0,0,0,0,0,0,0,0,0,0,0,0,0,0,0,0,0,0,0,0,0,0,0,0,0,0,0
0,0,0,0,0,0,0,0,0,0,0,2.962,2.955,2.955,2.955,2.947,2.947,2.94,2.94,2.94,2.94,0,0,0,0,0,4.83,4.83,4.851,4.83,4.851,4.83,4.851,0,0,4.912,4.954,5.018,5.106,5.244,5.389,5.465,5.543,5.57,5.57,5.597,5.57,5.57,5.57,5.57,5.597,5.624,5.651,5.651,5.679,5.679,5.707,5.735,5.707,5.707,5.679,5.679,5.679,5.679,5.651,5.651,5.651,5.624,5.597,5.597,5.57,5.57,5.57,5.543,5.543,5.543,5.543,5.517,5.517,5.517,5.491,5.465,5.44,5.44,5.44,5.415,5.389,5.34,5.34,5.316,5.316,5.268,5.268,5.268,5.268,5.244,5.244,5.22,5.174,5.174,5.151,5.106,5.106,5.106,5.084,5.106,5.106,5.151,5.174,5.244,5.268,5.34,5.415,5.465,5.491,5.543,5.543,5.57,5.57,5.57,5.57,5.57,5.543,5.543,5.517,5.517,5.491,5.491,5.465,5.465,5.465,5.465,5.465,5.465,5.465,5.44,5.44,5.415,5.415,5.415,5.415,5.415,5.44,5.44,5.44,5.465,5.491,5.517,5.543,5.543,5.543,5.57,5.597,5.651,5.651,5.707,0,6.032,6.504,6.848,0,0,0,8.436,0,8.819,8.753,8.623,8.56,8.436,0,0,0,0,0,0,0,0,0,0,0,0,0,0,0,0,0,0,0,0,0,0,0,0,0,8.084,8.084,8.141,8.198,8.198,8.315,8.623,9.313,9.95,10.302,10.68,11.302,0,12.384,13.696,13.859,14.197,14.197,14.197,14.372,14.372,14.372,14.197,14.197,14.197,14.197,14.197,14.026,13.859,13.696,13.229,12.935,12.793,12.384,12.384,12.001,12.001,11.879,11.879,11.879,11.879,12.254,12.384,12.518,12.935,13.229,13.536,13.696,13.859,13.859,13.859,13.696,13.696,13.696,13.536,13.536,13.536,13.381,13.381,13.229,13.229,13.229,12.935,12.935,12.935,12.935,13.229,13.381,13.381,13.381,13.536,13.536,13.696,13.696,13.696,13.696,13.696,13.696,13.696,13.696,13.536,13.696,13.696,13.696,13.696,13.696,13.696,13.859,13.859,13.859,13.696,13.696,13.696,13.536,13.536,13.536,13.536,0,0,0,0,0,0,0,0,0,0,0,0,0,0,0,0,0,13.381,13.381,13.381,13.381,13.381,13.229,13.381,13.381,13.381,13.381,13.229,13.229,13.229,13.229,13.229,12.935,12.793,12.793,12.518,12.518,12.518,12.384,12.384,12.384,12.384,12.518,12.793,12.793,12.935,12.793,12.793,12.793,12.793,12.518,12.384,12.254,12.001,12.001,11.879,11.641,11.526,11.526,11.526,11.641,11.526,11.641,11.879,12.001,12.518,13.229,13.536,13.696,13.696,14.026,13.859,13.859,13.696,13.381,12.935,12.254,11.879,11.302,10.779,10.68,10.583,10.583,10.488,10.488,10.583,10.583,10.583,10.68,10.779,10.982,10.982,11.194,11.194,11.302,0,11.879,11.879,12.001,12.001,11.879,11.879,11.879,12.001,0,12.254,12.384,12.518,12.935,12.935,13.229,13.381,13.381,13.381,13.381,13.229,12.935,12.518,12.254,12.001,11.641,11.302,11.087,10.982,10.779,10.583,10.488,10.302,10.123,9.783,8.753,8.315,8.198,8.084,8.028,7.973,7.919,7.866,7.866,7.866,7.866,7.866,7.813,7.761,7.761,7.761,7.709,7.659,7.659,7.659,7.559,7.511,7.415,7.368,7.186,7.098,7.055,6.971,6.888,6.848,6.808,6.768,6.69,6.577,6.432,6.225,5.763,5.651,5.57,5.491,5.415,5.415,5.389,5.389,5.389,5.34,5.34,5.316,5.268,5.22,5.151,5.106,5.084,5.04,4.996,4.996,4.996,5.018,5.04,5.084,5.084,5.106,5.106,5.106,5.106,5.084,5.084,5.04,5.018,4.996,4.975,4.975,4.975,4.975,4.975,4.996,4.996,4.996,4.996,4.954,4.912,4.891,4.851,4.732,4.657,4.565,4.426,4.393,4.36,4.328,4.312,4.312,4.28,4.264,4.249,4.233,4.203,4.114,4.07,4.028,3.973,3.933,3.906,3.88,3.855,3.842,3.829,3.829,3.817,3.804,3.804,3.804,3.804,0,0,0,0,1.617,0,1.615,1.615,1.615,1.615,1.612,1.608,1.603,1.601,1.593,1.58,1.554,1.55,1.546,1.544,1.54,1.536,1.534,1.532,1.532,1.532,1.528,1.526,1.526,1.526,1.522,1.52,1.518,1.514,1.512,1.512,1.506,1.506,1.502,1.502,1.502,1.5,1.5,1.498,1.498,1.496,1.494,1.489,1.483,1.479,1.47,1.448,0,0,1.414,0,1.388,1.383,1.379,1.378,1.374,1.373,1.37,1.37,1.368,1.366,1.365,1.365,1.363,1.363,1.362,1.363,1.362,1.362,1.36,1.36,1.36,1.36,0,0,0,0,0,0,0,0,0,0,0,0,0,0,0,0,0,0,0,0,0,0,0,0,0,0,0
0,0,0,0,0,0,0,0,0,0,0,2.97,2.97,2.962,2.955,2.955,2.947,2.947,2.955,2.947,2.947,0,0,0,0,0,4.83,4.83,4.83,4.83,4.83,4.83,4.83,4.851,4.891,4.912,4.933,4.996,5.04,5.174,5.268,5.415,5.465,5.517,5.543,5.543,5.543,5.543,5.543,5.543,5.57,5.597,5.624,5.651,5.651,5.679,5.679,5.707,5.707,5.679,5.679,5.679,5.679,5.679,5.679,5.651,5.651,5.651,5.651,5.624,5.597,5.57,5.57,5.57,5.543,5.543,5.543,5.517,5.517,5.517,5.491,5.491,5.465,5.44,5.44,5.415,5.415,5.389,5.34,5.34,5.316,5.316,5.316,5.316,5.268,5.244,5.244,5.22,5.22,5.174,5.151,5.151,5.106,5.106,5.106,5.106,5.151,5.151,5.174,5.22,5.268,5.34,5.389,5.465,5.491,5.543,5.543,5.543,5.543,5.543,5.543,5.543,5.543,5.517,5.491,5.465,5.465,5.465,5.44,5.44,5.44,5.44,5.44,5.44,5.44,5.44,5.415,5.415,5.415,5.415,5.415,5.415,5.44,5.44,5.44,5.465,5.491,5.517,5.543,5.543,5.57,5.597,5.624,5.679,5.707,5.792,0,6.159,6.54,0,7.415,7.919,8.198,8.497,0,8.819,8.819,8.623,8.623,8.497,8.375,8.198,8.084,8.028,0,0,0,0,0,0,0,0,0,0,0,0,0,0,0,0,0,0,0,0,0,0,8.198,8.198,8.256,8.315,8.436,8.819,9.542,10.212,10.394,10.68,11.526,0,12.384,13.536,13.859,14.026,14.197,14.197,14.197,14.197,14.197,14.197,14.197,14.197,14.197,14.026,13.859,13.859,13.696,13.229,12.935,12.793,12.518,12.384,12.384,12.001,12.001,12.001,12.001,12.001,12.254,12.384,12.518,12.935,13.381,13.536,13.696,13.859,13.859,13.859,13.696,13.696,13.536,13.536,13.381,13.381,13.229,13.229,12.935,12.935,12.935,12.793,12.793,12.793,12.935,12.935,13.229,13.229,13.381,13.381,13.536,13.696,13.696,13.696,13.696,13.696,13.696,13.696,13.696,13.696,13.696,13.696,13.696,13.696,13.859,13.859,13.859,13.859,13.859,13.859,13.859,13.859,13.859,13.696,13.536,13.536,0,0,0,0,0,0,0,0,0,0,0,0,0,0,0,0,0,13.536,13.536,13.381,13.536,13.536,13.381,13.536,13.381,13.381,13.381,13.381,13.381,13.381,13.229,13.229,13.229,12.935,12.935,12.793,12.793,12.793,12.793,12.518,12.518,12.518,12.793,12.935,12.935,13.229,13.229,12.935,12.935,12.935,12.793,12.384,12.384,12.254,12.001,11.879,11.879,11.641,11.526,11.641,11.641,11.879,11.879,12.001,12.254,12.793,13.229,13.536,13.859,13.859,14.026,14.026,13.859,13.696,13.381,12.793,12.254,11.641,10.88,10.68,10.583,10.488,10.394,10.394,10.394,10.394,10.488,10.583,10.68,10.779,10.982,11.087,11.194,11.302,0,11.641,11.879,11.879,12.001,12.001,11.879,11.879,11.879,12.001,0,12.254,12.384,12.518,12.935,12.935,13.229,13.229,13.381,13.381,13.229,12.935,12.793,12.518,12.384,12.001,11.879,11.526,11.194,10.982,10.88,10.68,10.488,10.302,10.123,9.865,8.819,8.375,8.198,8.084,8.028,8.028,7.973,7.973,7.919,7.919,7.973,7.919,7.866,7.761,7.709,7.659,7.659,7.511,7.511,7.415,7.415,7.368,7.322,7.098,7.055,6.971,6.929,6.888,6.808,6.768,6.729,6.729,6.652,6.54,6.396,6.159,5.763,5.651,5.57,5.491,5.415,5.389,5.389,5.34,5.34,5.34,5.316,5.316,5.244,5.22,5.151,5.106,5.084,4.996,4.975,4.975,4.996,4.996,5.018,5.018,5.04,5.04,5.04,5.04,5.04,5.04,5.018,4.996,4.996,4.975,4.954,4.954,4.954,4.954,4.954,4.975,4.975,4.975,4.954,4.912,4.891,4.851,4.81,4.657,4.565,4.46,4.376,4.328,4.312,4.296,4.28,4.264,4.249,4.233,4.203,4.114,4.07,4.028,3.987,3.973,3.92,3.906,3.88,3.868,3.855,3.829,3.829,3.817,3.804,3.804,3.804,3.804,3.792,3.78,0,0,0,0,0,0,0,1.615,1.615,1.615,1.612,1.608,1.606,1.599,1.584,1.554,1.55,1.546,1.544,1.54,1.536,1.534,1.534,1.534,1.534,1.532,1.528,1.528,1.526,1.522,1.52,1.518,1.512,1.508,1.502,1.502,1.5,1.5,1.498,1.498,1.496,1.494,1.492,1.491,1.491,1.489,1.483,1.475,1.464,1.434,1.428,0,1.414,1.403,1.391,1.383,1.379,1.378,1.376,1.374,1.373,1.37,1.37,1.368,1.366,1.366,1.365,1.365,1.363,1.363,1.362,1.362,1.363,1.362,1.362,1.36,1.36,0,0,0,0,0,0,0,0,0,0,0,0,0,0,0,0,0,0,0,0,0,0,0,0,0,0,0
0,0,0,0,0,0,0,0,0,0,0,0,2.97,2.97,2.962,2.962,2.955,2.955,2.955,2.962,2.962,0,0,0,0,0,4.83,4.83,4.83,4.83,4.83,4.83,4.851,4.851,4.871,4.891,4.912,4.933,4.975,5.04,5.151,5.22,5.316,5.389,5.415,5.44,5.44,5.465,5.491,5.543,5.57,5.57,5.597,5.651,5.651,5.679,5.679,5.707,5.707,5.679,5.679,5.679,5.679,5.679,5.651,5.651,5.651,5.651,5.651,5.624,5.597,5.597,5.57,5.57,5.543,5.543,5.543,5.543,5.517,5.517,5.517,5.491,5.491,5.465,5.44,5.44,5.415,5.415,5.389,5.34,5.316,5.316,5.316,5.316,5.268,5.268,5.244,5.22,5.22,5.174,5.174,5.151,5.151,5.106,5.106,5.151,5.151,5.151,5.174,5.22,5.268,5.34,5.389,5.44,5.491,5.517,5.543,5.543,5.543,5.543,5.543,5.543,5.517,5.491,5.465,5.44,5.44,5.44,5.415,5.415,5.415,5.415,5.415,5.415,5.415,5.415,5.415,5.415,5.415,5.415,5.415,5.415,5.44,5.44,5.465,5.491,5.491,5.517,5.543,5.543,5.57,5.597,5.651,5.679,5.735,5.85,0,6.259,6.577,6.929,7.511,7.973,8.198,8.497,0,8.753,8.819,8.623,8.56,8.375,8.256,8.141,7.973,7.866,7.659,7.511,0,0,0,0,0,0,0,0,0,0,0,0,0,0,0,0,0,0,8.198,8.198,8.198,8.256,8.375,8.436,8.623,9.166,9.865,10.212,10.488,10.779,11.526,0,12.384,13.381,13.696,14.026,14.026,14.197,14.197,14.197,14.197,14.197,14.197,14.197,14.026,14.026,13.859,13.696,13.536,13.229,12.935,12.793,12.793,12.518,12.384,12.384,12.254,12.001,12.001,12.254,12.254,12.384,12.518,12.793,13.229,13.381,13.536,13.696,13.696,13.696,13.536,13.536,13.381,13.381,13.229,12.935,12.935,12.793,12.793,12.793,12.518,12.518,12.518,12.518,12.793,12.935,12.935,12.935,13.229,13.381,13.536,13.536,13.696,13.696,13.696,13.696,13.696,13.696,13.696,13.696,13.696,13.696,13.696,13.859,13.859,13.859,13.859,14.026,14.026,13.859,13.859,13.859,13.859,13.859,13.859,13.696,0,0,0,0,0,0,0,0,0,0,0,0,0,0,0,0,0,0,13.696,13.536,13.536,13.536,13.536,13.536,13.536,13.536,13.536,13.381,13.536,13.381,13.381,13.381,13.381,13.229,13.229,12.935,12.935,12.793,12.793,12.935,12.935,12.935,12.935,13.229,13.229,13.381,13.381,13.229,13.229,12.935,12.793,12.793,12.518,12.384,12.254,12.001,12.001,11.879,11.879,11.879,11.879,12.001,12.001,12.254,12.384,12.793,13.229,13.696,13.859,14.026,14.026,14.026,13.859,13.536,13.381,12.793,12.001,11.526,10.68,10.583,10.488,10.394,10.302,10.394,10.394,10.394,10.488,10.583,10.68,10.779,11.087,11.194,11.302,11.302,0,11.641,11.879,12.001,12.001,12.001,12.001,12.001,11.879,12.001,0,12.254,12.384,12.793,12.935,12.935,13.229,13.229,13.381,13.381,13.229,12.935,12.935,12.793,12.384,12.254,12.001,11.879,11.526,11.194,10.982,10.68,10.583,10.394,10.212,10.036,9.542,8.497,8.256,8.198,8.141,8.084,8.028,7.973,7.973,7.973,7.973,7.919,7.813,7.709,7.659,7.559,7.511,7.415,7.368,7.322,7.322,7.231,7.055,6.971,6.929,6.848,6.808,6.768,6.729,6.729,6.69,6.69,6.614,6.54,6.361,6.127,5.735,5.651,5.57,5.491,5.415,5.389,5.34,5.34,5.316,5.316,5.316,5.268,5.244,5.174,5.151,5.106,5.04,5.018,4.975,4.954,4.975,4.975,4.975,4.996,4.996,5.018,4.996,4.996,4.996,4.975,4.996,4.975,4.954,4.933,4.933,4.933,4.933,4.933,4.954,4.933,4.954,4.933,4.933,4.912,4.871,4.83,4.694,4.583,4.46,4.393,4.328,4.312,4.28,4.264,4.249,4.218,4.188,4.173,4.085,4.056,4.014,3.973,3.946,3.933,3.893,3.88,3.868,3.855,3.842,3.829,3.817,3.817,3.804,3.804,3.804,3.792,3.792,3.792,0,0,0,0,0,1.615,1.617,1.619,1.619,1.619,1.617,1.615,1.612,1.61,1.595,1.577,1.552,1.546,1.544,1.542,1.538,1.536,1.536,1.536,1.538,1.536,1.536,1.534,1.532,1.528,1.522,1.518,1.514,1.508,1.5,1.498,1.498,1.496,1.494,1.494,1.491,1.491,1.489,1.489,1.485,1.483,1.475,1.464,1.446,1.427,1.42,1.409,1.398,1.388,1.381,1.378,1.376,1.376,1.376,1.373,1.373,1.37,1.37,1.368,1.366,1.365,1.365,1.363,1.363,1.363,1.363,1.362,1.362,1.362,1.362,1.36,1.36,0,0,0,0,0,0,0,0,0,0,0,0,0,0,0,0,0,0,0,0,0,0,0,0,0,0,0
0,0,0,0,0,0,0,0,0,0,0,0,2.97,2.97,2.97,2.962,2.962,2.962,2.962,2.97,3,0,0,0,0,0,0,0,4.851,4.732,4.752,4.851,4.851,4.851,4.871,4.891,4.912,4.912,4.933,4.975,5.04,5.106,5.174,5.268,5.34,5.389,5.389,5.415,5.44,5.517,5.543,5.57,5.597,5.624,5.651,5.679,5.679,5.679,5.679,5.679,5.679,5.679,5.679,5.679,5.651,5.651,5.651,5.651,5.651,5.624,5.597,5.597,5.57,5.57,5.57,5.543,5.543,5.543,5.543,5.543,5.517,5.517,5.517,5.491,5.465,5.465,5.44,5.415,5.415,5.389,5.34,5.34,5.316,5.316,5.316,5.268,5.244,5.22,5.22,5.22,5.174,5.174,5.151,5.106,5.151,5.106,5.151,5.151,5.174,5.22,5.268,5.316,5.34,5.389,5.44,5.491,5.491,5.517,5.543,5.517,5.517,5.491,5.465,5.465,5.44,5.415,5.415,5.389,5.389,5.34,5.389,5.389,5.389,5.389,5.415,5.389,5.389,5.389,5.389,5.415,5.415,5.415,5.44,5.44,5.465,5.491,5.517,5.543,5.543,5.543,5.57,5.597,5.679,5.735,0,0,6.001,6.361,6.614,0,7.559,7.919,8.084,8.315,8.497,8.56,8.497,8.436,8.315,8.256,8.084,7.973,7.659,0,0,7.098,6.971,0,0,0,0,0,7.511,7.709,0,0,0,0,8.436,8.436,8.436,8.375,8.256,8.256,8.256,8.256,8.256,8.315,8.436,8.56,8.955,9.313,9.95,10.302,10.583,10.88,11.526,0,12.254,12.935,13.536,13.859,13.859,14.026,14.026,14.197,14.197,14.197,14.197,14.197,14.026,14.026,13.859,13.696,13.536,13.229,12.935,12.935,12.793,12.518,12.518,12.384,12.384,12.254,12.001,12.001,12.254,12.254,12.384,12.518,12.793,13.229,13.381,13.381,13.381,13.381,13.381,13.229,12.935,12.935,12.935,12.793,12.793,12.518,12.518,12.518,12.518,12.518,12.518,12.518,12.518,12.793,12.935,12.935,13.229,13.381,13.536,13.536,13.696,13.696,13.696,13.696,13.696,13.696,13.696,13.696,13.696,13.696,13.859,13.859,13.859,14.026,14.026,14.026,14.026,14.026,14.026,14.026,14.026,14.026,14.026,13.859,0,0,0,0,0,0,0,0,0,0,0,0,0,0,0,0,0,0,0,13.229,13.536,13.536,13.536,13.536,13.536,13.536,13.536,13.536,13.536,13.381,13.381,13.381,13.381,13.229,13.229,13.229,13.229,13.229,13.229,13.229,13.229,13.229,13.229,13.381,13.381,13.381,13.381,13.381,13.229,13.229,12.935,12.793,12.518,12.254,12.254,12.001,12.001,11.879,11.879,11.879,11.879,12.001,12.001,12.254,12.518,12.518,13.229,13.536,13.859,14.026,14.026,13.859,13.536,13.381,12.793,12.254,11.641,10.779,10.583,10.488,10.394,10.302,10.302,10.302,10.302,10.394,10.488,10.583,10.68,10.779,10.982,11.087,0,11.526,11.526,11.641,11.879,12.001,0,0,0,0,0,0,12.254,12.384,12.518,12.793,12.793,13.229,13.229,13.229,13.381,13.381,13.229,13.229,12.935,12.793,12.518,12.384,12.254,12.001,11.641,11.526,11.194,10.88,10.68,10.583,10.302,10.212,9.783,8.753,8.497,8.315,8.198,8.141,8.084,8.028,8.028,7.973,7.973,7.919,7.813,7.709,7.559,7.511,7.415,7.322,7.231,7.186,7.186,6.971,6.971,6.888,6.848,6.808,6.768,6.729,6.69,6.69,6.652,6.614,6.577,6.467,6.259,6.095,5.707,5.624,5.57,5.465,5.415,5.34,5.316,5.316,5.316,5.316,5.268,5.268,5.244,5.174,5.151,5.106,5.04,5.018,4.975,4.954,4.975,4.975,4.975,4.996,4.996,4.996,4.996,4.996,4.996,4.975,4.975,4.954,4.954,4.933,4.912,4.912,4.933,4.933,4.933,4.933,4.933,4.933,4.912,4.891,4.851,4.81,4.638,4.512,4.41,4.344,4.312,4.28,4.249,4.218,4.188,4.158,4.128,4.056,4.014,3.973,3.946,3.933,3.906,3.893,3.88,3.868,3.868,3.855,3.842,3.829,3.817,3.817,3.804,3.804,3.792,3.792,3.792,0,0,0,0,0,0,1.615,1.617,1.617,1.621,1.621,1.621,1.619,1.617,1.612,1.606,1.586,1.554,1.548,1.544,1.542,1.54,1.538,1.538,1.538,1.538,1.536,1.536,1.534,1.532,1.528,1.522,1.518,1.512,1.508,1.5,1.498,1.496,1.494,1.492,1.491,1.491,1.489,1.487,1.485,1.485,1.481,1.474,1.459,1.443,1.423,1.416,1.403,1.391,1.384,1.378,1.376,1.376,1.374,1.373,1.371,1.371,1.37,1.368,1.366,1.365,1.365,1.363,1.362,1.363,1.362,1.362,1.36,1.362,1.36,1.36,1.357,1.36,0,0,0,0,0,0,0,0,0,0,0,0,0,0,0,0,0,0,0,0,0,0,0,0,0,0,0
0,0,0,0,0,0,0,0,0,0,0,0,2.97,2.97,2.97,2.962,2.955,2.955,2.97,2.97,2.97,2.97,0,0,0,0,0,0,4.871,4.871,4.81,4.871,4.871,4.891,4.891,4.891,4.912,4.912,4.954,4.975,5.018,5.084,5.106,5.174,5.244,5.268,5.316,5.389,5.415,5.491,5.543,5.57,5.597,5.624,5.651,5.651,5.679,5.679,5.679,5.651,5.651,5.651,5.651,5.651,5.651,5.651,5.651,5.651,5.651,5.651,5.597,5.597,5.57,5.57,5.57,5.57,5.543,5.543,5.543,5.543,5.543,5.543,5.543,5.517,5.491,5.491,5.465,5.44,5.44,5.415,5.389,5.34,5.34,5.316,5.316,5.268,5.244,5.244,5.22,5.22,5.174,5.174,5.151,5.151,5.106,5.106,5.151,5.151,5.151,5.174,5.22,5.244,5.316,5.389,5.415,5.44,5.465,5.491,5.491,5.491,5.465,5.465,5.44,5.415,5.415,5.389,5.389,5.34,5.316,5.316,5.316,5.316,5.34,5.34,5.34,5.389,5.389,5.389,5.389,5.389,5.415,5.415,5.44,5.44,5.465,5.491,5.517,5.543,5.543,5.543,5.57,5.624,5.679,5.735,5.821,0,6.001,6.396,6.614,6.971,7.511,7.866,8.084,8.198,8.315,8.436,8.315,8.315,8.256,8.084,8.028,7.813,7.415,7.231,7.055,6.971,6.848,6.808,0,7.055,7.186,7.415,7.659,7.866,8.084,0,8.315,8.436,8.497,8.497,8.436,8.436,8.375,8.315,8.315,8.256,8.375,8.436,8.56,8.753,9.024,9.542,10.036,10.302,10.583,10.88,11.526,0,12.254,12.793,13.381,13.536,13.696,13.859,14.026,14.026,14.197,14.197,14.197,14.197,14.026,14.026,13.859,13.696,13.229,12.935,12.935,12.793,12.793,12.518,12.518,12.384,12.254,12.254,12.001,12.001,12.001,12.254,12.254,12.384,12.793,12.935,12.935,13.229,13.229,13.229,13.229,12.793,12.793,12.793,12.518,12.518,12.518,12.384,12.384,12.384,12.384,12.384,12.384,12.518,12.518,12.793,12.793,12.935,13.229,13.381,13.536,13.536,13.696,13.696,13.696,13.859,13.859,13.859,13.859,13.859,13.859,13.859,13.859,14.026,14.026,14.026,14.026,14.026,14.026,14.026,14.026,14.026,14.026,14.026,14.026,14.026,0,0,0,0,0,0,0,0,0,0,0,0,0,0,0,0,0,13.859,13.859,13.696,13.536,13.696,13.536,13.536,13.536,13.536,13.536,13.536,13.536,13.381,13.381,13.381,13.381,13.381,13.381,13.229,13.229,13.229,13.229,13.229,13.381,13.381,13.536,13.536,13.536,13.696,13.536,13.536,13.381,13.229,12.935,12.793,12.518,12.384,12.254,12.001,12.001,11.879,11.641,11.641,11.641,11.641,11.879,11.879,12.001,12.384,12.518,12.793,13.381,13.381,13.381,13.229,12.793,12.518,12.001,11.526,10.779,10.583,10.394,10.394,10.302,10.212,10.212,10.212,10.302,10.302,10.394,10.488,10.583,10.68,10.88,11.087,11.194,11.302,11.526,0,11.641,11.879,0,0,0,0,0,0,0,12.384,12.518,12.793,12.935,12.935,13.229,13.381,13.381,13.381,13.229,13.229,12.935,12.793,12.793,12.518,12.384,12.254,12.001,11.641,11.302,11.087,10.88,10.583,10.394,10.212,10.036,9.701,8.623,8.497,8.315,8.256,8.141,8.084,8.028,7.973,7.973,7.866,7.813,7.709,7.559,7.415,7.322,7.231,7.186,7.098,6.971,6.929,6.888,6.808,6.768,6.729,6.729,6.69,6.652,6.614,6.614,6.577,6.54,6.396,6.225,6.001,5.679,5.624,5.543,5.465,5.389,5.34,5.316,5.316,5.316,5.268,5.268,5.244,5.244,5.174,5.151,5.106,5.084,5.018,4.975,4.954,4.954,4.954,4.975,4.975,4.975,4.975,4.975,4.954,4.954,4.954,4.954,4.954,4.933,4.912,4.912,4.912,4.912,4.912,4.933,4.912,4.933,4.933,4.912,4.891,4.83,4.791,4.583,4.46,4.376,4.312,4.28,4.249,4.218,4.188,4.128,4.056,4.014,3.973,3.946,3.933,3.92,3.893,3.893,3.88,3.868,3.868,3.855,3.855,3.829,3.829,3.817,3.804,3.804,3.792,3.78,3.78,0,0,0,0,0,0,1.617,1.615,1.617,0,0,1.624,1.624,1.621,1.619,1.617,1.61,1.593,1.556,1.55,1.546,1.544,1.542,1.54,1.538,1.538,1.54,1.538,1.538,1.536,1.534,1.532,1.526,1.52,1.514,1.508,1.5,1.496,1.494,1.492,1.491,1.491,1.489,1.487,1.485,1.483,1.483,1.481,1.472,1.453,1.43,1.423,1.413,1.398,1.386,1.383,1.378,1.376,1.374,1.373,1.371,1.371,1.368,1.366,1.365,1.363,1.362,1.36,1.36,1.357,1.357,1.355,1.352,1.355,1.352,1.352,1.352,1.352,1.35,0,0,0,0,0,0,0,0,0,0,0,0,0,0,0,0,0,0,0,0,0,0,0,0,0,0,0
0,0,0,0,0,0,0,0,0,0,0,0,2.97,2.97,2.97,2.962,2.962,2.962,2.962,2.977,2.977,2.993,2.993,3.104,0,0,0,0,0,4.891,4.891,4.891,4.891,4.891,4.891,4.891,4.891,4.912,4.933,4.954,4.975,5.018,5.04,5.106,5.174,5.22,5.244,5.268,5.34,5.44,5.517,5.543,5.57,5.597,5.624,5.651,5.651,5.651,5.651,5.651,5.624,5.624,5.624,5.651,5.651,5.651,5.651,5.651,5.651,5.597,5.597,5.597,5.57,5.57,5.57,5.57,5.57,5.57,5.57,5.57,5.57,5.57,5.57,5.543,5.543,5.517,5.491,5.491,5.465,5.44,5.415,5.389,5.34,5.316,5.316,5.268,5.244,5.22,5.22,5.22,5.174,5.151,5.151,5.151,5.106,5.106,5.106,5.106,5.151,5.151,5.174,5.22,5.244,5.316,5.34,5.389,5.415,5.415,5.44,5.44,5.44,5.415,5.389,5.389,5.389,5.34,5.316,5.316,5.316,5.268,5.268,5.268,5.316,5.316,5.34,5.316,5.34,5.34,5.389,5.389,5.415,5.415,5.44,5.465,5.465,5.491,5.517,5.543,5.543,5.543,5.57,5.624,5.679,5.735,5.821,0,6.095,6.432,6.652,6.971,7.415,7.813,8.028,8.141,8.198,8.256,8.256,8.256,8.141,8.028,7.866,7.559,7.322,7.055,6.971,6.888,6.848,6.808,6.929,7.098,7.322,7.511,7.761,7.919,8.084,8.198,8.315,8.375,8.436,8.497,8.497,8.436,8.375,8.375,8.375,8.375,8.436,8.497,8.623,8.955,9.166,9.542,10.036,10.302,10.583,10.779,11.194,11.879,0,12.384,12.935,13.381,13.536,13.696,13.859,14.026,14.026,14.197,14.197,14.197,14.197,14.026,13.859,13.696,13.381,13.229,12.935,12.793,12.793,12.518,12.518,12.384,12.254,12.254,12.001,12.001,12.001,12.001,12.001,12.254,12.384,12.518,12.793,12.793,12.935,12.935,12.793,12.518,12.518,12.518,12.518,12.518,12.518,12.384,12.384,12.384,12.384,12.384,12.384,12.384,12.518,12.793,12.793,12.935,13.229,13.381,13.536,13.696,13.859,13.859,13.859,13.859,14.026,14.026,14.026,13.859,13.859,14.026,14.026,14.026,14.197,14.026,14.026,14.026,14.026,14.026,14.026,14.026,14.026,14.026,14.026,13.859,0,0,0,0,0,0,0,0,0,0,0,0,0,0,0,0,0,0,13.859,13.229,13.229,13.536,13.536,13.381,13.536,13.381,13.381,13.536,13.536,13.381,13.381,13.381,13.381,13.381,13.381,13.381,13.381,13.381,13.381,13.381,13.536,13.536,13.536,13.536,13.696,13.696,13.536,13.536,13.381,13.381,13.229,12.793,12.518,12.384,12.254,12.001,12.001,11.641,11.641,11.526,11.526,11.526,11.526,11.641,11.641,11.879,12.254,12.384,12.384,12.518,12.384,12.254,12.001,11.526,11.194,10.68,10.583,10.394,10.302,10.302,10.212,10.123,10.123,10.212,10.212,10.302,10.394,10.394,10.583,10.68,10.779,10.88,10.982,11.087,11.194,11.302,0,11.641,11.879,11.879,0,0,0,12.001,12.254,12.384,12.518,12.793,12.935,12.935,13.229,13.229,13.381,13.381,13.381,13.229,13.229,12.935,12.935,12.793,12.518,12.384,12.254,12.001,11.526,11.194,10.88,10.68,10.488,10.302,10.123,9.783,8.819,8.56,8.375,8.256,8.198,8.084,8.028,7.973,7.919,7.866,7.709,7.559,7.415,7.368,7.322,7.186,7.055,6.929,6.888,6.848,6.768,6.729,6.69,6.69,6.652,6.614,6.614,6.577,6.54,6.504,6.432,6.259,6.095,5.909,5.679,5.597,5.543,5.465,5.34,5.316,5.316,5.268,5.268,5.268,5.268,5.244,5.22,5.174,5.151,5.151,5.084,5.04,4.975,4.954,4.954,4.954,4.954,4.954,4.954,4.954,4.954,4.933,4.933,4.912,4.912,4.912,4.912,4.912,4.912,4.912,4.912,4.912,4.912,4.912,4.912,4.912,4.891,4.851,4.81,4.657,4.53,4.41,4.344,4.312,4.264,4.249,4.203,4.158,4.114,4.014,3.987,3.946,3.92,3.906,3.906,3.893,3.88,3.868,3.868,3.855,3.855,3.842,3.829,3.817,3.804,3.804,3.792,3.78,3.767,0,0,0,0,0,1.621,1.621,1.617,1.617,1.619,0,1.624,1.624,1.624,1.624,1.621,1.619,0,1.601,1.56,1.552,1.548,1.546,1.544,1.542,1.54,1.54,1.54,1.54,1.54,1.536,1.536,1.532,1.526,1.522,1.518,1.508,1.5,1.496,1.492,1.491,1.489,1.489,1.485,1.485,1.483,1.481,1.481,1.477,1.464,1.432,1.427,1.418,1.404,1.392,1.383,1.379,1.378,1.374,1.373,1.373,1.371,1.37,1.368,1.365,1.362,1.36,1.357,1.355,1.352,1.35,1.349,1.349,1.346,1.349,1.346,1.346,1.344,1.346,1.344,0,0,0,0,0,0,0,0,0,0,0,0,0,0,0,0,0,0,0,0,0,0,0,0,0,0,0
0,0,0,0,0,0,0,0,0,0,0,0,2.962,2.962,2.955,2.947,2.947,2.947,2.962,2.97,2.993,2.977,2.993,3.055,0,0,0,0,0,0,4.891,4.891,4.891,4.891,4.891,4.891,4.912,4.912,4.933,4.933,4.975,4.996,5.018,5.084,5.106,5.151,5.22,5.268,5.389,5.44,5.491,5.543,5.57,5.597,5.597,5.624,5.624,5.624,5.624,5.597,5.597,5.597,5.597,5.597,5.597,5.624,5.624,5.624,5.651,5.624,5.597,5.597,5.57,5.57,5.57,5.57,5.57,5.57,5.57,5.57,5.57,5.597,5.57,5.57,5.543,5.543,5.543,5.517,5.491,5.465,5.415,5.415,5.389,5.34,5.316,5.268,5.244,5.244,5.22,5.22,5.174,5.151,5.151,5.151,5.106,5.106,5.106,5.106,5.106,5.151,5.151,5.174,5.22,5.268,5.316,5.34,5.34,5.389,5.415,5.415,5.389,5.389,5.389,5.34,5.34,5.316,5.316,5.268,5.268,5.268,5.268,5.268,5.268,5.268,5.316,5.316,5.316,5.34,5.34,5.389,5.415,5.415,5.44,5.465,5.465,5.491,5.517,5.543,5.543,5.543,5.57,5.624,5.679,5.735,5.821,0,6.032,6.361,6.577,6.808,7.186,7.559,7.866,7.973,8.084,8.198,8.198,8.141,8.084,0,7.659,7.368,7.098,7.055,6.888,6.888,6.848,6.848,7.055,7.186,7.368,7.659,7.813,7.973,8.084,8.198,8.256,8.375,8.436,8.497,8.436,8.436,8.436,8.375,8.375,8.375,8.436,8.56,8.623,8.955,9.239,9.701,10.036,10.302,10.394,10.68,10.982,11.526,12.001,0,12.384,12.793,13.229,13.381,13.536,13.859,14.026,14.026,14.197,14.197,14.026,14.026,13.696,13.696,13.229,13.229,12.935,12.793,12.518,12.384,12.384,12.254,12.001,12.001,11.879,11.879,11.641,11.879,11.879,12.001,12.254,12.384,12.384,12.518,12.518,12.518,12.384,12.384,12.254,12.384,12.384,12.384,12.384,12.384,12.384,12.384,12.518,12.384,12.384,12.384,12.518,12.793,12.935,13.229,13.229,13.381,13.536,13.696,13.859,13.859,13.859,13.859,14.026,14.026,14.026,14.026,14.026,14.026,14.026,14.197,14.197,14.197,14.026,14.026,14.026,14.026,14.026,14.026,13.859,13.859,13.859,13.859,0,0,0,0,0,0,0,0,0,0,0,0,0,0,0,0,0,0,0,12.001,12.518,13.536,13.536,13.381,13.381,13.381,13.381,13.381,13.536,13.536,13.381,13.536,13.536,13.536,13.536,13.536,13.536,13.536,13.536,13.536,13.536,13.696,13.696,13.696,13.696,13.859,13.696,13.696,13.536,13.381,13.229,12.935,12.518,12.384,12.254,12.001,11.879,11.641,11.526,11.302,11.302,11.302,11.302,11.302,11.302,11.526,11.641,11.879,11.879,11.879,11.641,11.526,11.194,10.68,10.68,10.488,10.394,10.302,10.212,10.123,10.123,10.123,10.123,10.123,10.212,10.302,10.302,10.394,10.583,10.583,10.68,10.779,10.88,10.982,10.982,11.194,11.302,11.526,0,11.879,11.879,12.001,12.254,12.001,12.254,12.384,12.518,12.793,12.935,12.935,13.229,13.381,13.381,13.381,13.381,13.229,13.229,12.935,12.935,12.793,12.793,12.518,12.384,12.001,11.641,11.302,10.982,10.68,10.488,10.394,10.212,9.95,9.464,8.753,8.497,8.315,8.198,8.141,8.028,7.973,7.919,7.866,7.709,7.559,7.415,7.322,7.231,7.098,7.055,6.888,6.848,6.808,6.729,6.69,6.69,6.652,6.614,6.577,6.54,6.54,6.467,6.396,6.327,6.159,6.001,5.707,5.624,5.57,5.517,5.44,5.34,5.268,5.316,5.268,5.268,5.268,5.244,5.244,5.22,5.174,5.151,5.151,5.084,5.04,4.996,4.975,4.954,4.954,4.954,4.954,4.933,4.933,4.912,4.912,4.912,4.912,4.891,4.891,4.891,4.891,4.891,4.891,4.912,4.912,4.912,4.912,4.891,4.891,4.871,4.83,4.791,4.601,4.477,4.376,4.328,4.28,4.264,4.233,4.188,4.128,4.028,4.014,3.973,3.933,3.92,3.906,3.893,3.88,3.868,3.868,3.868,0,0,0,0,0,0,0,1.709,1.704,1.697,1.692,1.687,1.68,1.668,1.649,1.63,1.626,1.624,1.621,1.621,1.624,1.626,1.628,1.628,1.628,1.624,1.624,1.617,1.608,1.588,1.554,1.552,1.548,1.546,1.544,1.542,1.542,1.542,1.542,1.54,1.538,1.538,1.534,1.528,1.522,1.514,1.5,1.496,1.494,1.491,1.487,1.487,1.485,1.483,1.481,1.479,1.479,1.477,1.472,1.457,0,1.423,1.413,1.401,1.388,1.381,1.378,1.376,1.373,1.373,1.371,1.371,1.37,1.365,1.363,1.36,1.357,1.352,1.35,1.349,1.346,1.344,1.344,1.341,1.34,1.34,1.34,1.337,1.337,1.337,0,0,0,0,0,0,0,0,0,0,0,0,0,0,0,0,0,0,0,0,0,0,0,0,0,0,0
0,0,0,0,0,0,0,0,0,0,0,0,0,2.947,2.947,2.947,2.947,2.94,2.955,2.97,2.993,2.993,3,3.096,0,0,0,0,0,0,4.891,4.891,4.891,4.912,4.912,4.912,4.912,4.933,4.933,4.933,4.975,4.996,5.018,5.04,5.106,5.151,5.22,5.268,5.34,5.44,5.491,5.543,5.57,5.57,5.597,5.597,5.597,5.597,5.597,5.57,5.57,5.57,5.57,5.597,5.597,5.597,5.597,5.597,5.597,5.597,5.597,5.597,5.597,5.597,5.597,5.597,5.597,5.597,5.597,5.597,5.597,5.597,5.597,5.57,5.57,5.543,5.543,5.543,5.517,5.491,5.44,5.415,5.389,5.34,5.34,5.244,5.244,5.22,5.22,5.174,5.174,5.151,5.151,5.106,5.106,5.106,5.106,5.106,5.106,5.106,5.151,5.151,5.22,5.22,5.268,5.268,5.34,5.34,5.34,5.389,5.389,5.34,5.34,5.34,5.316,5.268,5.268,5.244,5.244,5.244,5.244,5.244,5.244,5.268,5.268,5.316,5.316,5.316,5.34,5.389,5.415,5.415,5.44,5.465,5.465,5.491,5.517,5.543,5.543,5.543,5.57,5.624,5.679,5.707,5.821,0,6.001,6.259,6.504,6.69,6.929,7.231,7.511,7.761,7.919,8.028,8.028,8.028,7.973,0,7.415,7.186,6.929,6.888,6.888,6.848,6.848,6.929,7.098,7.322,7.511,7.761,7.919,8.028,8.084,8.256,8.315,8.375,8.436,8.436,8.436,8.436,8.436,8.436,8.375,8.375,8.436,8.497,8.623,8.819,9.166,9.464,9.95,10.212,10.302,10.488,10.68,10.982,11.302,11.879,12.254,0,12.518,12.935,13.381,13.696,13.859,14.026,14.026,14.026,14.026,13.859,13.859,13.536,13.229,12.935,12.793,12.518,12.384,12.384,12.254,12.001,11.879,11.641,11.641,11.526,11.302,11.302,11.526,11.641,11.641,12.001,12.001,12.001,12.254,12.254,12.001,12.001,12.001,12.254,12.254,12.254,12.384,12.384,12.518,12.518,12.518,12.518,12.518,12.518,12.793,12.935,12.935,13.229,13.381,13.536,13.696,13.859,13.859,13.859,13.859,13.859,14.197,14.197,14.197,14.197,14.026,14.026,14.197,14.197,14.197,14.026,14.026,14.026,14.026,13.859,13.859,13.859,13.859,13.696,13.696,13.696,0,0,0,0,0,0,5.415,5.415,5.415,5.44,5.44,5.465,5.465,5.543,0,0,0,0,0,11.879,11.641,13.229,13.536,13.536,13.536,13.536,13.536,13.536,13.536,13.536,13.536,13.536,13.536,13.536,13.536,13.536,13.536,13.536,13.696,13.696,13.696,13.696,13.696,13.859,13.859,13.859,13.859,13.696,13.696,13.536,13.381,13.229,12.793,12.518,12.384,12.254,12.001,11.641,11.526,11.302,11.194,11.302,11.194,11.194,11.194,11.302,11.302,11.526,11.526,11.526,11.302,11.087,10.982,10.68,10.488,10.394,10.302,10.212,10.212,10.123,10.123,9.95,10.036,10.123,10.212,10.212,10.302,10.394,10.488,10.583,10.68,10.68,10.779,10.779,10.88,10.982,11.087,11.194,11.302,11.526,0,11.879,11.879,0,12.001,12.254,12.518,12.793,12.935,12.935,13.229,13.381,13.381,13.381,13.381,13.381,13.381,13.229,12.935,12.793,12.793,12.518,12.254,11.879,11.302,11.194,10.88,10.68,10.488,10.302,10.123,9.865,9.464,8.753,8.497,8.315,8.198,8.084,8.028,7.973,7.919,7.813,7.709,7.511,7.368,7.231,7.186,7.098,6.888,6.848,6.848,6.729,6.69,6.652,6.614,6.577,6.54,6.504,6.396,6.396,6.327,6.225,6.127,6.032,5.85,5.651,5.597,5.543,5.465,5.389,5.316,5.268,5.244,5.244,5.244,5.244,5.22,5.22,5.22,5.151,5.151,5.106,5.084,5.04,4.975,4.954,4.954,4.954,4.933,4.933,4.912,4.912,4.912,4.891,4.891,4.891,0,0,4.871,0,0,0,0,0,0,2.296,2.287,0,0,0,0,0,0,0,0,4.264,4.249,4.218,4.173,4.114,4.028,3.987,3.946,3.92,3.893,3.893,3.88,3.868,3.868,0,0,0,0,0,0,0,0,1.722,1.714,0,0,0,0,1.687,1.675,1.658,1.644,1.633,1.626,1.624,1.624,1.626,1.628,0,1.633,1.63,1.63,1.628,1.624,1.615,1.603,1.584,1.556,1.552,1.548,1.546,1.544,1.544,1.544,1.544,1.542,1.54,1.538,1.536,1.528,1.526,1.518,1.512,1.496,1.494,1.489,1.487,1.485,1.483,1.481,1.481,1.479,0,1.475,1.47,1.453,1.428,0,0,0,0,0,1.376,0,1.374,1.373,1.373,1.371,1.365,1.363,1.362,1.357,1.352,1.35,1.346,1.341,1.34,1.337,1.335,1.333,1.333,1.333,1.333,1.332,1.332,1.332,0,0,0,0,0,0,0,0,0,0,0,0,0,0,0,0,0,0,0,0,0,0,0,0,0,0,0
0,0,0,0,0,0,0,0,0,0,0,0,0,2.94,2.932,2.94,2.932,2.932,2.947,2.962,2.97,2.993,3.016,3.024,0,0,0,0,0,0,0,4.912,4.912,4.912,4.912,4.912,4.912,4.933,4.933,4.933,4.954,4.975,4.996,5.04,5.084,5.151,5.174,5.268,5.34,5.44,5.491,5.543,5.57,5.57,5.57,5.57,5.597,5.57,5.57,5.543,5.543,5.543,5.543,5.543,5.57,5.57,5.57,5.57,5.597,5.597,5.597,5.597,5.597,5.597,5.597,5.597,5.597,5.597,5.624,5.597,5.597,5.624,5.597,5.597,5.57,5.57,5.543,5.543,5.517,5.491,5.465,5.44,5.415,5.389,5.34,5.244,5.244,5.22,5.22,5.174,5.151,5.151,5.106,5.106,5.084,5.084,5.084,5.084,5.084,5.084,5.106,5.151,5.151,5.22,5.22,5.244,5.268,5.316,5.316,5.316,5.316,5.316,5.316,5.268,5.268,5.268,5.244,5.22,5.22,5.22,5.22,5.22,5.22,5.244,5.268,5.268,5.316,5.316,5.316,5.389,5.415,5.415,5.44,5.465,5.491,5.491,5.517,5.543,5.543,5.543,5.57,5.624,5.651,5.707,5.763,5.909,0,6.095,6.327,6.54,6.69,6.808,6.971,7.098,7.415,7.659,7.659,0,0,0,0,0,6.808,6.808,6.808,6.888,6.888,6.929,7.186,7.368,7.559,7.761,7.919,8.028,8.141,8.198,8.315,8.375,8.436,8.497,8.436,8.436,8.436,8.375,8.375,8.375,8.436,8.497,8.56,8.753,9.024,9.313,9.701,9.95,10.212,10.302,10.488,10.68,10.88,11.194,11.641,12.001,12.384,0,12.935,13.229,13.696,13.859,13.859,14.026,14.026,13.859,13.859,13.696,13.229,12.935,12.793,12.518,12.254,12.001,12.001,11.879,11.526,11.526,11.302,11.194,11.087,11.194,11.194,11.194,11.302,11.526,11.641,11.641,11.879,11.879,11.879,11.879,11.879,12.001,12.254,12.384,12.384,12.518,12.793,12.793,12.793,12.793,12.793,12.793,12.935,13.229,13.229,13.381,13.381,13.536,13.696,13.859,13.859,13.859,14.026,14.026,14.197,14.197,14.197,14.197,14.197,14.197,14.197,14.197,14.197,14.197,14.026,14.026,13.859,13.859,13.859,13.859,13.696,13.696,13.696,13.696,0,0,0,0,0,5.415,5.415,5.44,5.44,5.44,5.44,5.465,5.491,5.491,0,0,0,0,0,0,10.779,12.254,13.229,13.229,13.536,13.536,13.536,13.696,13.696,13.696,13.696,13.696,13.696,13.696,13.696,13.696,13.859,13.859,13.859,13.859,14.026,14.026,14.026,14.026,14.026,14.026,14.026,13.859,13.859,13.696,13.536,13.381,13.229,12.793,12.518,12.384,12.254,12.001,11.641,11.526,11.302,11.302,11.302,11.194,11.194,11.194,11.302,11.302,11.302,11.194,11.087,10.88,10.583,10.488,10.394,10.302,10.212,10.212,10.123,10.123,9.95,9.95,10.036,10.036,10.212,10.212,10.212,10.302,10.394,10.488,10.583,10.583,10.68,10.68,10.68,10.779,10.88,10.982,11.194,11.194,11.641,11.641,11.879,0,12.001,12.254,12.384,12.518,12.793,12.935,13.229,13.229,13.381,13.381,13.381,13.381,13.229,13.229,12.935,12.793,12.518,12.254,12.001,11.641,11.194,10.982,10.779,10.583,10.394,10.302,10.036,9.783,9.313,8.753,8.497,8.315,8.198,8.084,8.028,7.973,7.919,7.813,7.659,7.511,7.368,7.231,7.186,7.055,6.971,6.848,6.729,6.652,6.577,6.54,6.504,6.396,6.327,6.159,6.159,6.225,6.127,6.032,6.001,5.909,5.679,5.597,5.543,5.517,5.44,5.34,5.268,5.244,5.244,5.244,5.244,5.244,5.22,5.22,5.174,5.151,5.151,5.106,5.106,5.04,5.018,4.954,4.954,0,0,4.933,0,0,0,0,2.31,2.31,2.31,2.314,2.314,2.314,2.314,2.31,2.31,2.301,2.296,2.287,2.287,2.287,2.283,2.278,0,0,0,0,0,0,0,0,0,0,4.028,0,3.933,3.906,3.893,3.88,3.868,3.868,0,0,0,0,0,0,0,0,0,1.722,0,0,0,1.697,0,0,1.68,0,0,0,1.633,1.63,1.628,1.63,1.633,0,1.637,1.644,1.642,0,1.633,1.624,1.617,1.61,1.593,1.567,1.558,1.554,1.552,1.548,1.548,1.548,1.544,1.544,1.542,1.54,1.536,1.532,1.526,1.518,1.5,1.498,1.492,1.489,1.487,1.485,1.483,1.483,1.481,1.479,1.477,1.472,1.459,1.43,0,0,0,1.392,0,0,0,0,0,0,1.374,1.373,1.366,1.363,1.357,1.349,1.346,1.341,1.34,1.337,1.335,1.332,1.33,1.33,1.33,1.329,1.329,1.329,1.33,0,0,0,0,0,0,0,0,0,0,0,0,0,0,0,0,0,0,0,0,0,0,0,0,0,0,0
0,0,0,0,0,0,0,0,0,0,0,0,0,2.932,2.932,2.932,2.932,2.932,2.932,2.955,2.97,2.977,3,3.024,3.047,0,0,0,0,0,0,0,0,0,4.912,4.933,4.933,4.933,4.954,4.954,4.975,4.975,4.996,5.04,5.084,5.106,5.22,5.268,5.34,5.44,5.491,5.543,5.543,5.57,5.57,5.57,5.57,5.543,5.543,5.543,5.517,5.517,5.517,5.517,5.543,5.543,5.543,5.57,5.57,5.597,5.597,5.597,5.597,5.597,5.597,5.624,5.624,5.597,5.624,5.624,5.624,5.624,5.597,5.597,5.57,5.57,5.57,5.543,5.543,5.517,5.465,5.44,5.415,5.389,5.34,5.316,5.244,5.244,5.22,5.174,5.151,5.151,5.106,5.084,5.084,5.04,5.04,5.04,5.04,5.04,5.084,5.084,5.106,5.151,5.174,5.22,5.244,5.244,5.268,5.268,5.268,5.268,5.268,5.268,5.244,5.22,5.22,5.174,5.174,5.174,5.174,0,5.22,5.22,5.244,5.268,5.316,5.316,5.34,5.389,5.415,5.415,5.44,5.465,5.491,5.517,5.517,5.543,5.543,5.543,5.57,5.597,5.651,5.679,5.735,5.821,6.001,0,6.159,6.432,6.577,6.614,0,0,6.971,0,7.186,0,0,0,0,0,6.729,6.768,6.848,6.888,6.971,7.098,7.322,7.511,7.709,7.919,7.973,8.084,8.198,8.256,8.315,8.436,8.436,8.436,8.497,8.436,8.436,8.375,8.436,8.375,8.375,8.497,8.497,8.56,8.819,9.166,9.464,9.701,9.95,10.212,10.302,10.394,10.68,10.88,11.087,11.526,12.001,12.384,0,12.793,13.381,13.696,13.696,13.859,13.859,13.859,13.859,13.381,13.229,12.935,12.793,12.384,12.254,12.001,11.641,11.526,11.526,11.194,11.194,10.982,10.982,10.982,10.982,11.087,11.087,11.194,11.302,11.302,11.302,11.526,11.641,11.879,11.879,12.254,12.254,12.384,12.518,12.793,12.793,12.935,12.935,12.935,12.935,12.935,13.229,13.381,13.381,13.381,13.536,13.696,13.859,14.026,14.026,14.026,14.026,14.197,14.197,14.197,14.197,14.197,14.197,14.197,14.197,14.197,14.197,14.197,13.859,13.859,13.859,13.696,13.696,13.696,13.696,13.696,13.536,13.696,0,0,0,0,5.415,5.415,5.44,5.44,5.44,5.465,5.465,5.465,5.491,5.517,5.909,0,0,0,0,0,10.212,11.087,12.254,12.793,13.536,13.696,13.696,13.696,13.859,13.859,13.859,13.859,14.026,14.026,14.026,14.026,14.026,14.026,14.026,14.197,14.197,14.197,14.197,14.197,14.197,14.197,14.197,14.197,14.026,14.026,13.859,13.696,13.536,13.381,13.229,12.793,12.793,12.384,12.254,11.879,11.641,11.641,11.526,11.526,11.302,11.302,11.194,11.194,11.194,11.087,10.88,10.583,10.583,10.394,10.394,10.302,10.212,10.212,10.123,10.036,9.95,9.95,10.036,10.036,10.123,10.212,10.212,10.302,10.302,10.394,10.488,10.488,10.583,10.583,10.68,10.68,10.68,10.779,10.982,11.087,11.302,11.526,11.641,11.879,12.001,0,12.254,12.384,12.518,12.793,12.935,12.935,13.229,13.229,13.229,13.229,12.935,12.793,12.518,12.384,12.254,11.879,11.641,11.194,10.88,10.68,10.583,10.394,10.302,10.123,9.865,9.464,8.819,8.56,8.375,8.256,8.198,8.084,7.973,7.919,7.866,7.761,7.559,7.511,7.322,7.186,7.098,7.055,6.888,6.768,6.577,6.504,6.432,6.361,6.159,6.001,5.939,5.85,5.85,6.001,6.032,5.85,5.821,5.792,5.624,5.57,5.517,5.465,5.389,5.316,5.244,5.244,5.22,5.22,5.22,5.244,5.22,5.22,5.174,5.174,5.151,5.151,5.106,0,0,0,0,2.265,2.269,2.269,2.278,2.287,2.287,2.301,2.301,2.31,2.31,2.314,2.314,2.314,2.314,2.31,2.31,2.301,2.296,2.287,2.283,2.283,2.283,2.283,2.283,2.287,2.287,2.296,0,0,0,0,0,0,0,0,0,0,0,0,0,0,0,0,0,0,0,0,0,1.745,1.738,1.722,1.72,1.709,1.702,1.697,1.692,1.687,1.682,1.673,0,1.649,1.644,1.635,1.635,1.635,1.637,1.644,1.649,1.656,1.651,1.651,1.649,1.635,1.626,1.619,1.615,1.606,1.593,1.573,1.56,1.556,1.554,1.552,1.548,1.548,1.546,1.544,1.54,1.538,1.532,1.526,1.518,1.502,1.496,1.491,1.489,1.489,1.485,1.485,1.483,1.481,1.481,1.479,1.472,1.453,1.427,0,1.404,1.392,1.384,1.381,1.378,1.378,1.378,1.376,1.374,1.371,1.365,1.362,1.355,1.346,1.344,1.337,1.335,1.332,1.33,1.329,1.327,1.327,1.327,1.327,1.327,1.327,0,0,0,0,0,0,0,0,0,0,0,0,0,0,0,0,0,0,0,0,0,0,0,0,0,0,0,0
0,0,0,0,0,0,0,0,0,0,0,0,0,2.925,2.925,2.925,2.925,2.925,2.932,2.947,2.962,2.97,2.993,3.016,3.039,0,0,0,0,0,0,0,0,0,0,0,4.954,4.933,4.954,4.954,4.954,4.975,4.996,5.04,5.084,5.151,5.22,5.268,5.389,5.44,5.491,5.543,5.543,5.543,5.57,5.57,5.543,5.543,5.517,5.491,5.491,5.465,5.491,5.491,5.491,5.517,5.517,5.543,5.57,5.57,5.597,5.597,5.597,5.597,5.597,5.597,5.597,5.597,5.624,5.624,5.624,5.597,5.597,5.597,5.57,5.57,5.57,5.543,5.543,5.517,5.465,5.465,5.415,5.389,5.389,5.316,5.244,5.244,5.22,5.174,5.151,5.151,5.106,5.084,5.04,5.04,5.04,5.04,5.04,5.04,5.084,5.084,5.106,5.151,5.174,5.174,5.22,5.244,5.244,5.244,5.244,5.244,5.244,5.22,5.22,5.174,5.174,5.174,5.174,5.174,5.174,5.174,5.22,5.22,5.244,5.268,5.316,5.316,5.34,5.389,5.415,5.415,5.465,5.465,5.491,5.517,5.517,5.543,5.543,5.543,5.57,5.597,5.651,5.679,5.707,5.763,5.85,6.001,0,6.259,6.467,0,0,0,0,0,0,0,0,0,0,0,0,6.768,6.848,6.929,7.055,7.186,7.415,7.709,7.866,8.028,8.028,8.141,8.256,8.315,8.375,8.436,8.497,8.497,8.497,8.436,8.436,8.436,8.375,8.375,8.375,8.436,8.497,8.56,8.753,8.955,9.239,9.464,9.701,9.865,10.123,10.212,10.394,10.583,10.779,10.982,11.526,12.001,12.384,0,12.935,13.536,13.696,13.696,13.696,13.859,13.696,13.536,13.229,12.935,12.518,12.384,12.254,11.879,11.641,11.526,11.302,11.194,11.087,10.88,10.88,10.88,10.88,10.88,10.88,10.982,11.087,11.087,11.302,11.302,11.526,11.641,12.001,12.254,12.384,12.518,12.793,12.935,13.229,13.229,13.229,13.229,13.229,13.229,13.229,13.381,13.381,13.381,13.536,13.696,13.859,14.026,14.026,14.197,14.197,14.197,14.197,14.197,14.372,14.197,14.197,14.197,14.197,14.197,14.197,14.026,13.859,13.859,13.696,13.696,13.536,13.536,13.536,13.536,13.536,13.696,0,0,0,5.44,5.44,5.44,5.44,5.465,5.465,5.465,5.465,5.491,5.517,5.543,5.735,0,0,0,0,9.239,0,10.488,11.526,12.384,13.536,13.536,13.696,13.859,14.026,14.026,14.026,14.197,14.026,14.197,14.197,14.197,14.197,14.197,14.197,14.197,14.197,14.197,14.372,14.372,14.372,14.372,14.372,14.197,14.197,14.197,14.197,14.197,14.026,13.859,13.696,13.536,13.381,12.935,12.793,12.384,12.254,12.001,11.879,11.641,11.526,11.302,11.194,11.194,11.087,10.982,10.779,10.583,10.488,10.394,10.302,10.212,10.212,10.123,10.123,10.036,10.036,9.95,9.95,9.95,10.036,10.123,10.123,10.212,10.302,10.302,10.394,10.394,10.394,10.488,10.583,10.583,10.68,10.68,10.88,10.88,11.194,11.302,11.302,11.526,11.879,12.001,0,12.254,12.254,12.384,12.518,12.793,12.793,12.935,12.793,12.793,12.518,12.254,12.001,11.879,11.641,11.302,11.087,10.779,10.68,10.583,10.394,10.212,10.123,9.865,9.542,9.313,8.623,8.436,8.256,8.198,8.084,8.028,7.919,7.813,7.761,7.659,7.511,7.322,7.231,7.186,6.971,6.768,6.69,6.577,6.361,6.159,6.001,5.792,5.679,5.679,5.651,5.651,5.679,5.792,5.792,5.707,5.679,5.624,5.57,5.543,5.465,5.415,5.34,5.268,5.244,5.22,5.22,5.174,5.22,5.22,5.22,0,0,0,2.269,2.265,2.265,2.256,2.256,2.256,2.256,2.265,2.265,2.269,2.269,2.283,2.287,2.296,2.301,2.31,2.31,2.314,2.314,2.314,2.31,2.31,2.31,2.296,2.296,2.287,2.283,2.287,2.287,2.283,2.283,2.283,2.287,2.287,2.287,2.287,2.283,0,2.278,0,0,0,0,0,0,0,0,0,0,0,0,1.764,0,0,1.756,1.745,1.738,1.73,1.72,1.709,1.702,1.697,1.692,1.69,1.685,1.675,1.665,1.658,1.651,1.644,1.642,1.642,1.649,1.651,0,1.658,1.661,1.661,1.658,1.656,1.642,1.633,1.624,1.617,1.612,1.603,1.593,1.567,1.56,1.554,1.552,1.55,1.548,1.546,1.544,1.542,1.536,1.532,1.526,1.518,1.502,1.496,1.491,1.491,1.489,1.487,1.485,1.485,1.485,0,1.481,1.47,1.452,1.427,1.42,1.404,1.388,1.381,0,1.379,1.378,1.378,1.374,1.371,1.363,1.36,1.352,1.344,1.34,1.333,1.332,1.329,1.327,1.327,1.326,1.326,1.326,1.326,1.326,1.326,0,0,0,0,0,0,0,0,0,0,0,0,0,0,0,0,0,0,0,0,0,0,0,0,0,0,0,0
0,0,0,0,0,0,0,0,0,0,0,0,0,2.918,2.925,2.918,2.918,2.918,2.925,2.932,2.947,2.962,2.993,3,3.024,3.072,0,0,0,0,0,0,0,0,0,0,4.975,4.954,4.954,4.954,4.975,4.996,5.018,5.04,5.106,5.151,5.22,5.316,5.389,5.44,5.491,5.543,5.543,5.543,5.543,5.543,5.543,5.543,5.491,5.491,5.465,5.465,5.465,5.465,5.465,5.491,5.517,5.543,5.543,5.57,5.57,5.57,5.597,5.597,5.597,5.624,5.624,5.597,5.597,5.597,5.597,5.624,5.597,5.597,5.597,5.57,5.57,5.543,5.543,5.517,5.491,5.465,5.44,5.415,5.389,5.34,5.268,5.244,5.22,5.22,5.151,5.151,5.106,5.084,5.04,5.04,5.04,5.04,5.04,5.04,5.084,5.106,5.106,5.174,5.174,5.174,5.22,5.22,5.244,5.244,5.22,5.22,5.22,5.22,5.174,5.174,5.151,5.151,5.151,5.151,5.174,5.174,5.22,5.22,5.268,5.316,5.316,5.34,5.389,5.389,5.415,5.44,5.465,5.491,5.491,5.517,5.517,5.543,5.543,5.543,5.57,5.57,5.624,5.651,5.679,5.707,5.821,5.909,6.095,0,0,0,0,0,0,0,0,0,0,0,0,0,0,0,6.929,7.055,7.231,7.368,7.709,7.866,8.028,8.084,8.198,8.256,8.315,8.375,8.436,8.497,8.497,8.497,8.497,8.497,8.436,8.436,8.375,8.315,8.315,8.375,8.436,8.436,8.56,8.753,8.955,9.166,9.313,9.701,9.865,10.036,10.302,10.394,10.583,10.779,11.087,11.526,12.254,12.793,0,13.381,13.536,13.696,13.696,13.696,13.696,13.696,13.381,13.229,12.935,12.518,12.384,12.001,11.879,11.641,11.302,11.194,11.194,10.982,10.88,10.88,10.779,10.88,10.88,10.982,10.982,11.087,11.194,11.302,11.526,11.879,12.001,12.384,12.518,12.793,12.935,13.229,13.381,13.536,13.381,13.381,13.381,13.381,13.381,13.381,13.536,13.536,13.536,13.696,14.026,14.026,14.197,14.197,14.197,14.372,14.372,14.372,14.372,14.372,14.197,14.197,14.197,14.197,14.197,14.026,14.026,13.696,13.696,13.696,13.536,13.536,13.536,13.536,13.536,13.696,0,0,0,5.465,5.465,5.44,5.465,5.465,5.465,5.465,5.465,5.491,5.517,5.543,5.651,6.095,0,0,0,8.497,0,10.123,10.88,12.001,13.536,13.536,13.859,14.026,14.197,14.197,14.197,14.197,14.197,14.197,14.197,14.197,14.197,14.197,14.197,14.372,14.372,14.372,14.372,14.372,14.372,14.372,14.372,14.372,14.372,14.372,14.372,14.372,14.197,14.197,14.026,14.026,13.696,13.536,13.229,12.935,12.518,12.384,12.254,11.879,11.641,11.526,11.194,11.194,10.982,10.779,10.583,10.583,10.394,10.302,10.302,10.212,10.212,10.123,10.036,9.95,9.95,9.865,9.865,9.865,9.95,9.95,10.036,10.036,10.123,10.212,10.302,10.302,10.302,10.394,10.488,10.488,10.583,10.68,10.68,10.88,10.982,11.194,11.194,11.302,11.526,11.879,11.879,12.001,12.254,12.254,12.384,12.384,12.518,12.384,12.384,12.254,11.879,11.641,11.526,11.087,10.982,10.779,10.68,10.488,10.394,10.302,10.212,9.95,9.783,9.464,9.166,8.623,8.436,8.256,8.198,8.084,8.028,7.973,7.813,7.709,7.659,7.559,7.511,7.322,7.186,7.055,6.729,6.614,6.54,6.225,0,0,0,0,5.517,0,0,5.389,0,0,0,0,5.624,5.57,5.517,5.465,5.389,5.34,5.268,5.244,5.22,5.174,5.174,5.174,0,0,0,0,0,2.278,2.269,2.265,2.256,2.252,2.256,2.256,2.256,2.265,2.269,2.278,2.283,2.287,2.296,2.301,2.301,2.31,2.31,2.314,2.314,2.319,2.314,2.314,2.31,2.301,2.296,2.296,2.296,2.287,2.287,2.283,2.283,2.287,2.287,2.287,2.287,2.287,2.283,2.278,2.269,2.265,2.252,0,0,2.136,2.098,0,0,0,0,0,1.785,1.769,1.761,1.759,1.753,1.745,1.738,1.722,1.72,1.712,1.704,1.697,1.695,1.69,1.687,1.68,1.673,1.665,1.658,1.651,1.649,1.644,0,1.649,1.656,1.658,1.661,1.665,1.661,1.658,1.656,1.644,1.635,1.624,1.619,1.615,1.608,1.593,1.571,1.558,1.554,1.552,1.548,1.546,1.544,1.542,1.538,1.534,1.528,1.522,1.52,1.5,1.494,1.492,1.491,1.491,1.489,1.489,0,0,1.485,0,0,0,1.432,0,0,0,0,0,0,0,0,0,0,1.357,1.349,1.341,1.335,1.333,1.33,1.327,1.326,1.326,1.324,1.323,1.323,1.323,0,0,0,0,0,0,0,0,0,0,0,0,0,0,0,0,0,0,0,0,0,0,0,0,0,0,0,0,0,0
0,0,0,0,0,0,0,0,0,0,0,0,0,2.91,2.918,2.91,2.91,2.91,2.918,2.932,2.94,2.955,2.97,2.993,3.039,3.055,3.096,0,0,0,0,0,0,0,0,0,0,4.975,4.975,4.975,4.996,5.018,5.04,5.084,5.151,5.174,5.244,5.316,5.415,5.44,5.491,5.517,5.543,5.543,5.543,5.543,5.543,5.543,5.517,5.491,5.465,5.465,5.465,5.465,5.465,5.491,5.517,5.543,5.543,5.57,5.57,5.597,5.597,5.597,5.597,5.597,5.597,5.597,5.597,5.597,5.597,5.597,5.597,5.597,5.57,5.57,5.543,5.543,5.543,5.517,5.491,5.465,5.44,5.44,5.415,5.34,5.268,5.244,5.22,5.22,5.174,5.151,5.106,5.084,5.084,5.04,5.04,5.04,5.084,5.084,5.106,5.106,5.151,5.174,5.22,5.22,5.22,5.22,5.22,5.22,5.22,5.22,5.22,5.174,5.174,5.151,5.106,5.106,0,5.151,5.174,5.174,5.22,5.244,5.268,5.316,5.34,5.34,5.389,5.415,5.44,5.44,5.465,5.491,5.491,5.517,5.517,5.543,5.543,5.543,5.57,5.57,5.597,5.624,5.651,5.679,5.763,5.821,6.001,0,0,0,0,0,0,0,0,0,0,0,0,0,0,6.929,7.098,7.322,7.511,7.709,7.919,8.028,8.084,8.198,8.256,8.315,8.375,8.497,8.56,8.56,8.56,8.56,8.56,8.497,8.436,8.436,8.315,8.315,8.315,8.315,8.375,8.375,8.436,8.56,8.623,8.955,9.166,9.239,9.464,9.783,10.036,10.212,10.394,10.583,10.88,11.302,11.879,12.384,0,12.935,13.381,13.696,13.696,13.696,13.696,13.696,13.536,13.229,12.935,12.793,12.518,12.384,12.001,11.879,11.526,11.302,11.302,11.087,10.982,10.88,10.88,10.982,10.982,10.982,11.087,11.087,11.194,11.302,11.526,11.879,12.254,12.518,12.793,12.935,13.229,13.381,13.696,13.696,13.696,13.536,13.536,13.536,13.536,13.536,13.536,13.536,13.696,13.859,14.026,14.197,14.197,14.372,14.372,14.552,14.552,14.552,14.552,14.552,14.372,14.372,14.372,14.372,14.197,14.197,14.026,13.859,13.696,13.696,13.696,13.696,13.696,13.696,13.696,13.696,0,0,0,5.491,5.465,5.465,5.491,5.491,5.491,5.491,5.491,5.517,5.543,5.543,5.597,5.909,0,0,6.971,0,9.464,0,10.583,11.526,13.536,13.696,14.026,14.026,14.197,14.372,14.372,14.372,14.372,14.372,14.197,14.197,14.197,14.197,14.372,14.372,14.372,14.372,14.372,14.372,14.372,14.372,14.372,14.552,14.552,14.552,14.552,14.552,14.372,14.372,14.372,14.372,14.197,14.026,13.696,13.381,13.229,12.793,12.518,12.001,11.641,11.526,11.194,11.087,10.88,10.583,10.583,10.394,10.394,10.302,10.212,10.212,10.212,10.123,9.95,9.95,9.95,9.783,9.783,9.783,9.865,9.865,9.865,9.95,10.036,10.123,10.212,10.212,10.302,10.302,10.302,10.394,10.488,10.583,10.68,10.68,10.779,10.982,10.982,10.982,11.194,11.302,11.526,11.641,11.879,11.879,12.001,12.001,12.001,11.879,11.526,11.302,11.087,10.982,10.779,10.68,10.583,10.394,10.302,10.212,10.123,9.95,9.783,9.542,9.239,9.024,8.497,8.315,8.256,8.141,8.084,8.028,7.919,7.813,7.709,7.659,7.559,7.415,7.368,7.231,7.055,6.69,6.577,6.396,0,0,0,0,5.151,4.871,5.22,0,0,0,0,0,0,0,0,5.517,5.465,5.389,5.316,5.268,5.244,5.22,5.174,0,0,0,0,2.301,0,0,0,2.278,2.269,2.269,2.265,2.265,2.265,2.269,2.269,2.269,2.278,2.283,2.287,2.296,2.301,2.31,2.314,2.314,2.314,2.319,2.324,2.319,2.314,2.314,2.31,2.31,2.301,2.301,2.296,2.287,2.287,2.287,2.287,2.287,2.296,2.296,2.287,2.287,2.283,2.278,2.269,2.269,2.252,2.222,0,0,2.124,2.105,2.09,0,2.057,0,1.791,1.772,1.764,1.759,1.756,1.748,1.738,1.722,1.714,1.709,1.704,1.699,1.695,1.692,1.687,1.682,1.675,1.668,1.661,1.656,1.651,1.651,1.651,1.651,1.656,1.661,1.665,1.668,1.668,1.661,1.658,1.651,1.642,1.633,1.624,1.617,1.612,1.603,1.573,1.563,1.556,1.554,1.552,1.548,1.546,1.544,1.544,1.54,1.536,1.534,1.526,1.518,1.5,1.496,1.494,1.492,1.491,1.489,1.489,1.489,1.485,1.481,1.472,1.453,1.439,0,0,0,0,0,0,0,1.381,1.376,0,0,0,0,0,0,0,0,0,0,0,0,0,0,0,0,0,0,0,0,0,0,0,0,0,0,0,0,0,0,0,0,0,0,0,0,0,0,0,0,0,0,0,0
0,0,0,0,0,0,0,0,0,0,0,0,0,2.91,2.91,2.91,2.91,2.91,2.918,2.925,2.932,2.947,2.977,3,3.024,3.047,3.08,3.113,0,0,0,0,0,0,0,0,0,0,4.996,5.018,5.018,5.04,5.084,5.151,5.174,5.244,5.316,5.389,5.44,5.491,5.517,5.543,5.543,5.543,5.543,5.543,5.543,5.543,5.517,5.491,5.491,5.465,5.465,5.44,5.465,5.465,5.491,5.517,5.543,5.543,5.57,5.57,5.57,5.597,5.597,5.597,5.597,5.597,5.57,5.57,5.57,5.57,5.57,5.57,5.543,5.543,5.543,5.543,5.517,5.517,5.491,5.491,5.465,5.44,5.415,5.389,5.34,5.268,5.244,5.22,5.174,5.151,5.106,5.106,5.084,5.04,5.04,5.084,5.084,5.106,5.151,5.151,5.174,5.22,5.22,5.22,5.22,5.22,5.22,5.22,5.22,5.22,5.22,5.174,5.174,5.151,5.106,5.106,0,5.151,5.174,5.22,5.22,5.268,5.268,5.316,5.34,5.389,5.389,5.415,5.44,5.465,5.465,5.491,5.491,5.517,5.517,5.543,5.543,5.543,5.543,5.57,5.597,5.597,5.651,5.679,5.735,5.821,5.909,0,0,0,0,0,0,0,0,0,0,0,0,0,6.929,7.231,7.415,7.659,7.813,7.919,8.028,8.198,8.256,8.315,8.375,8.497,8.56,8.623,8.753,8.753,8.623,8.623,8.623,8.497,8.436,8.436,8.315,8.256,8.256,8.256,8.315,8.315,8.375,8.436,8.56,8.623,8.819,9.024,9.239,9.464,9.783,10.036,10.302,10.394,10.68,10.982,11.526,12.001,12.793,0,13.229,13.536,13.536,13.696,13.696,13.696,13.536,13.536,13.229,12.935,12.793,12.518,12.384,12.001,11.879,11.641,11.526,11.194,11.194,10.982,10.982,10.982,10.982,11.087,11.087,11.194,11.526,11.641,11.879,12.254,12.384,12.793,12.935,13.229,13.536,13.536,13.696,13.696,13.696,13.696,13.696,13.536,13.536,13.536,13.536,13.696,13.859,13.859,14.197,14.197,14.372,14.372,14.552,14.552,14.925,14.925,14.736,14.552,14.552,14.552,14.372,14.372,14.372,14.197,14.197,14.026,13.859,13.859,13.859,13.859,13.859,13.859,13.859,14.026,0,0,0,5.517,5.491,5.491,5.517,5.517,5.517,5.517,5.517,5.543,5.543,5.543,5.597,5.792,6.327,6.729,0,0,8.955,0,10.394,11.526,13.536,13.859,13.859,14.197,14.372,14.372,14.372,14.372,14.372,14.372,14.372,14.372,14.197,14.372,14.372,14.372,14.372,14.372,14.372,14.372,14.372,14.552,14.552,14.552,14.552,14.552,14.552,14.552,14.552,14.552,14.552,14.552,14.372,14.372,14.026,13.859,13.536,13.229,12.793,12.384,12.001,11.526,11.194,11.087,10.88,10.583,10.583,10.488,10.394,10.302,10.302,10.212,10.212,10.123,10.036,9.95,9.865,9.783,9.783,9.701,9.701,9.783,9.783,9.783,9.95,10.036,10.123,10.212,10.212,10.302,10.302,10.394,10.394,10.488,10.583,10.68,10.68,10.779,10.88,10.88,11.087,11.194,11.194,11.302,11.194,11.194,11.194,11.194,11.087,10.779,10.68,10.68,10.583,10.488,10.394,10.302,10.212,10.123,10.036,9.783,9.701,9.464,9.239,9.024,8.56,8.375,8.256,8.198,8.084,8.028,7.919,7.866,7.761,7.659,7.559,7.511,7.415,7.322,7.098,6.929,6.614,6.467,6.127,5.85,0,0,0,0,4.975,4.912,0,0,0,0,0,0,0,5.415,0,0,5.34,5.268,0,0,0,0,0,0,0,2.319,2.319,0,2.31,2.296,2.296,2.287,2.287,2.283,2.278,2.278,2.278,2.278,2.283,2.283,2.287,2.287,2.296,2.301,2.314,2.319,2.324,2.324,2.324,2.328,2.328,2.328,2.324,2.319,2.314,2.314,2.31,2.31,2.301,2.301,2.296,2.296,2.296,2.296,2.296,2.296,2.296,2.287,2.283,2.278,2.278,2.269,2.252,2.226,0,0,2.152,2.132,2.113,2.101,2.075,0,1.805,1.772,1.767,1.761,1.759,1.748,1.738,1.722,1.712,1.707,1.702,1.697,1.695,1.69,1.687,1.682,1.677,1.668,1.661,1.658,1.651,1.656,1.656,1.656,1.658,1.658,1.665,1.668,1.668,1.665,1.661,1.658,1.649,1.635,1.628,1.621,1.617,0,1.58,1.565,1.558,1.554,1.552,1.55,1.548,1.546,1.544,1.544,1.542,1.538,1.532,1.522,1.506,1.5,1.498,1.494,1.491,1.489,1.489,1.487,1.485,1.479,1.472,1.457,1.441,0,0,0,0,0,0,0,0,0,0,0,0,0,0,0,0,0,0,0,0,0,0,0,0,0,0,0,0,0,0,0,0,0,0,0,0,0,0,0,0,0,0,0,0,0,0,0,0,0,0,0,0,0
0,0,0,0,0,0,0,0,0,0,0,0,0,0,2.91,2.91,2.91,2.91,2.91,2.925,2.932,2.947,2.97,2.993,3.016,3.047,3.08,3.104,0,0,0,0,0,0,0,0,0,0,5.04,5.04,5.084,5.106,5.151,5.174,5.244,5.268,5.389,5.415,5.465,5.517,5.543,5.543,5.57,5.57,5.57,5.57,5.57,5.543,5.543,5.517,5.491,5.491,5.465,5.465,5.465,5.465,5.491,5.517,5.517,5.543,5.543,5.57,5.57,5.57,5.57,5.57,5.57,5.57,5.57,5.543,5.543,5.543,5.543,5.543,5.543,5.543,5.543,5.543,5.517,5.491,5.491,5.465,5.465,5.465,5.44,5.415,5.34,5.268,5.268,5.22,5.22,5.151,5.106,5.084,5.084,5.084,5.084,5.084,5.106,5.151,5.174,5.174,5.22,5.22,5.244,5.244,5.244,5.244,5.22,5.22,5.22,5.22,5.22,5.174,5.174,5.151,5.106,5.106,5.151,5.174,0,5.22,5.244,5.268,5.316,5.34,5.34,5.389,5.415,5.415,5.44,5.465,5.465,5.491,5.491,5.517,5.517,5.543,5.543,5.543,5.543,5.57,5.57,5.597,5.651,5.679,5.735,5.792,5.939,0,0,0,0,0,0,0,0,0,0,0,0,0,7.186,7.511,7.761,7.973,8.028,8.084,8.198,8.256,8.375,8.497,8.56,8.623,8.753,8.819,8.819,8.819,8.819,8.753,8.753,8.623,8.497,8.436,8.315,8.256,8.256,8.256,8.256,8.256,8.315,8.375,8.436,8.497,8.623,8.753,8.955,9.166,9.542,9.865,10.123,10.302,10.583,10.779,11.194,11.641,12.384,12.793,0,13.229,13.381,13.536,13.536,13.536,13.536,13.536,13.381,13.229,12.935,12.793,12.518,12.384,12.001,11.879,11.641,11.526,11.302,11.194,11.087,10.982,11.087,11.087,11.302,11.526,11.641,11.879,12.254,12.384,12.793,12.935,13.381,13.381,13.696,13.696,13.859,13.859,13.859,13.859,13.696,13.696,13.696,13.696,13.696,13.696,13.859,14.197,14.197,14.372,14.552,14.552,14.925,14.925,15.119,15.119,14.925,14.925,14.736,14.552,14.552,14.552,14.372,14.372,14.197,14.197,14.197,14.197,14.197,14.197,14.197,14.197,14.197,14.197,0,0,0,5.543,5.517,5.517,5.517,5.517,5.517,5.517,5.543,5.543,5.543,5.543,5.597,5.679,6.127,6.652,0,0,8.497,0,10.302,11.302,13.536,13.536,14.026,14.197,14.372,14.372,14.372,14.372,14.372,14.372,14.372,14.197,14.197,14.197,14.197,14.197,14.197,14.197,14.372,14.372,14.372,14.372,14.372,14.552,14.552,14.552,14.736,14.736,14.736,14.736,14.552,14.552,14.552,14.372,14.197,14.026,13.696,13.381,12.935,12.384,12.001,11.641,11.194,10.982,10.88,10.583,10.488,10.394,10.394,10.302,10.212,10.212,10.212,10.123,9.95,9.865,9.783,9.701,9.542,9.542,9.542,9.542,9.542,9.701,9.701,9.783,9.95,10.036,10.036,10.123,10.212,10.302,10.302,10.394,10.488,10.583,10.583,10.68,10.779,10.779,10.779,11.087,11.194,10.982,10.779,10.68,10.68,10.583,10.583,10.394,10.302,10.212,10.212,10.123,9.95,9.865,9.783,9.701,9.464,9.239,9.024,8.819,8.497,8.375,8.256,8.198,8.084,8.028,7.973,7.866,7.761,7.709,7.659,7.511,7.415,7.368,7.231,6.971,6.808,6.54,6.259,0,0,0,5.22,4.954,4.912,4.851,4.81,0,0,0,0,4.583,0,0,0,0,0,0,0,0,0,0,0,0,2.333,2.328,2.324,2.324,2.324,2.319,2.314,2.301,2.31,2.301,2.301,2.296,2.287,2.287,2.287,2.296,2.296,2.296,2.296,2.31,2.31,2.314,2.324,2.328,2.328,2.333,2.333,2.338,2.338,2.333,2.328,2.324,2.319,2.319,2.314,2.314,2.31,2.31,2.31,2.31,2.301,2.301,2.301,2.301,2.296,2.287,2.283,2.283,2.278,2.269,2.256,2.23,2.217,0,2.192,2.148,2.132,2.12,2.086,0,0,1.777,1.772,1.764,1.756,1.748,1.738,1.72,1.709,1.704,1.699,1.697,1.692,1.69,1.685,1.68,1.675,1.668,1.661,1.658,1.656,1.656,1.656,1.656,1.656,1.658,1.665,1.665,1.668,1.668,1.665,1.661,1.651,1.649,1.635,1.626,1.621,1.615,1.606,1.571,1.563,1.556,1.554,1.552,1.548,1.546,1.546,1.546,1.546,1.544,1.54,1.534,1.522,1.508,1.502,1.498,1.494,1.491,1.491,1.489,1.485,1.481,1.475,1.466,0,0,0,0,0,0,0,0,0,0,0,0,0,0,0,0,0,0,0,0,0,0,0,0,0,0,0,0,0,0,0,0,0,0,0,0,0,0,0,0,0,0,0,0,0,0,0,0,0,0,0,0,0,0
0,0,0,0,0,0,0,0,0,0,0,0,0,2.91,2.91,2.91,2.91,2.91,2.91,2.918,2.925,2.94,2.962,2.993,3.016,3.047,3.055,3.104,0,0,0,0,0,0,0,0,0,0,5.084,5.084,5.106,5.151,5.174,5.244,5.316,5.34,5.415,5.465,5.517,5.543,5.57,5.57,5.597,5.597,5.597,5.597,5.597,5.57,5.57,5.543,5.543,5.517,5.517,5.491,5.465,5.465,5.491,5.491,5.517,5.517,5.543,5.543,5.543,5.543,5.543,5.543,5.543,5.543,5.517,5.491,5.491,5.517,5.517,5.517,5.517,5.517,5.517,5.517,5.491,5.491,5.491,5.465,5.465,5.44,5.44,5.415,5.389,5.316,5.268,5.244,5.22,5.174,5.151,5.106,5.106,5.084,5.084,5.084,5.106,5.174,5.22,5.22,5.22,5.22,5.244,5.244,5.268,5.244,5.244,5.22,5.22,5.22,5.22,5.174,5.174,5.151,5.151,5.151,5.151,5.174,0,5.22,5.244,5.268,5.316,5.34,5.389,5.415,5.415,5.415,5.44,5.465,5.465,5.491,5.517,5.517,5.517,5.543,5.543,5.543,5.543,5.57,5.57,5.597,5.651,5.679,5.735,5.85,6.001,0,6.225,0,0,0,0,0,0,0,0,0,0,7.186,7.511,7.813,7.973,8.084,8.198,8.256,8.315,8.436,8.56,8.623,8.819,8.955,8.955,9.024,9.166,9.024,8.955,8.955,8.819,8.753,8.56,8.436,8.315,8.256,8.256,8.256,8.256,8.256,8.256,8.256,8.375,8.436,8.497,8.56,8.753,9.024,9.313,9.701,9.95,10.212,10.394,10.68,10.88,11.302,12.254,12.793,12.935,0,13.229,13.536,13.536,13.696,13.696,13.696,13.536,13.229,13.229,12.935,12.793,12.384,12.254,12.001,11.641,11.526,11.526,11.302,11.087,11.087,11.194,11.194,11.526,11.641,12.001,12.254,12.518,12.935,13.229,13.381,13.696,13.696,13.859,13.859,14.026,14.026,14.026,13.859,13.859,13.859,13.859,13.696,13.859,14.026,14.026,14.197,14.372,14.552,14.736,14.925,15.119,15.119,15.317,15.317,15.317,15.119,14.925,14.925,14.925,14.736,14.552,14.552,14.552,14.372,14.372,14.372,14.372,14.372,14.372,14.372,14.372,14.552,0,0,0,5.543,5.543,5.543,5.543,5.543,5.543,5.543,5.543,5.543,5.543,5.57,5.597,5.679,6.001,6.577,0,0,8.256,0,10.123,11.302,13.536,13.536,13.859,14.197,14.197,14.372,14.372,14.372,14.372,14.197,14.197,14.197,14.197,14.197,14.197,14.197,14.026,14.197,14.197,14.197,14.197,14.372,14.372,14.372,14.552,14.552,14.552,14.736,14.736,14.736,14.736,14.552,14.552,14.372,14.197,14.026,13.696,13.381,12.935,12.384,11.879,11.526,11.194,10.982,10.779,10.583,10.488,10.394,10.302,10.302,10.212,10.212,10.036,9.95,9.865,9.701,9.701,9.542,9.464,9.464,9.313,9.313,9.313,9.464,9.464,9.701,9.783,9.865,9.95,10.036,10.123,10.212,10.212,10.302,10.394,10.488,10.583,10.583,10.68,10.68,10.779,10.68,10.68,10.583,10.394,10.302,10.212,10.123,9.95,9.783,9.701,9.542,9.464,9.464,9.313,9.239,9.166,9.024,8.955,8.753,8.436,8.315,8.256,8.198,8.084,8.028,7.973,7.866,7.761,7.659,7.511,7.415,7.322,7.186,7.055,6.929,6.808,6.54,6.396,0,0,0,0,5.151,4.954,4.871,4.83,4.791,4.713,4.583,0,0,0,0,0,0,0,0,0,0,0,0,0,0,0,2.342,2.338,2.338,2.338,2.333,2.333,2.324,2.324,2.314,2.314,2.314,2.31,2.314,2.301,2.301,2.301,2.31,2.31,2.31,2.314,2.314,2.324,2.328,2.333,2.338,2.338,2.342,2.342,2.342,2.342,2.338,2.338,2.333,2.328,2.328,2.328,2.324,2.319,2.314,2.314,2.314,2.314,2.31,2.301,2.301,2.296,2.287,2.283,2.283,2.278,2.265,2.256,2.234,2.217,2.209,2.201,2.184,2.152,2.144,2.094,2.053,0,1.805,1.783,1.772,1.764,1.753,1.735,1.712,1.707,1.699,1.697,1.692,1.69,1.687,1.682,1.677,1.673,1.665,1.658,1.656,1.651,1.651,1.651,1.656,1.656,1.658,1.661,1.665,1.665,1.665,1.665,1.661,1.658,1.651,1.642,1.63,1.624,1.619,1.612,1.577,1.567,1.56,1.556,1.552,1.552,1.55,1.55,1.55,1.548,1.548,1.546,1.544,1.536,1.528,1.52,1.508,1.502,1.5,1.498,1.496,1.491,1.489,1.487,0,0,0,0,0,0,0,0,0,0,0,0,0,0,0,0,0,0,0,0,0,0,0,0,0,0,0,0,0,0,0,0,0,0,0,0,0,0,0,0,0,0,0,0,0,0,0,0,0,0,0,0,0,0,0
0,0,0,0,0,0,0,0,0,0,0,0,0,2.91,2.91,2.91,2.91,2.91,2.91,2.91,2.925,2.932,2.955,2.977,3.016,3.039,3.072,3.096,3.121,0,0,0,0,0,0,0,0,0,5.106,5.151,5.174,5.22,5.244,5.316,5.34,5.415,5.465,5.517,5.543,5.57,5.57,5.597,5.597,5.624,5.624,5.624,5.624,5.597,5.597,5.57,5.57,5.543,5.543,5.517,5.491,5.491,5.491,5.491,5.491,5.491,5.491,5.517,5.517,5.517,5.491,5.491,5.491,5.465,5.465,5.465,5.44,5.465,5.465,5.491,5.491,5.491,5.491,5.517,5.491,5.491,5.491,5.465,5.491,5.465,5.465,5.44,5.415,5.34,5.316,5.268,5.22,5.22,5.151,5.151,5.106,5.106,5.106,5.106,5.174,5.22,5.244,5.244,5.244,5.268,5.268,5.268,5.268,5.268,5.244,5.244,5.244,5.22,5.22,5.22,5.22,5.174,5.174,5.174,5.174,5.174,5.22,5.244,5.268,0,5.316,5.34,5.389,5.415,5.415,5.415,5.44,5.44,5.465,5.491,5.517,5.517,5.517,5.543,5.543,5.543,5.543,5.543,5.57,5.597,5.651,5.707,5.792,5.939,6.127,0,6.327,6.467,6.54,6.614,6.69,6.729,0,6.848,6.929,7.055,7.368,7.559,7.866,8.028,8.084,8.198,8.256,8.436,8.56,8.623,8.819,8.955,9.024,9.166,9.166,9.239,9.239,9.239,9.166,9.024,8.955,8.753,8.56,8.436,8.315,8.256,8.198,8.198,8.198,8.256,8.256,8.256,8.315,8.375,8.436,8.497,8.623,8.819,9.166,9.464,9.783,10.123,10.302,10.583,10.779,11.302,11.879,12.384,12.935,13.229,0,13.381,13.696,13.696,13.696,13.696,13.536,13.381,13.229,12.935,12.793,12.384,12.254,12.001,11.879,11.641,11.526,11.526,11.194,11.194,11.302,11.302,11.641,12.001,12.254,12.518,12.935,13.229,13.536,13.696,13.859,13.859,13.859,13.859,14.026,14.026,14.026,14.026,14.026,13.859,13.859,13.859,14.026,14.026,14.197,14.372,14.552,14.925,15.119,15.119,15.317,15.731,15.731,15.731,15.731,15.522,15.317,15.119,15.119,14.925,14.925,14.925,14.736,14.552,14.552,14.552,14.552,14.736,14.552,14.736,14.736,14.925,0,0,0,5.543,5.543,5.543,5.543,5.543,5.543,5.543,5.543,5.543,5.57,5.57,5.57,5.651,5.909,6.54,0,0,8.198,9.865,0,11.194,13.381,13.536,13.696,14.026,14.197,14.197,14.372,14.197,14.197,14.197,14.197,14.026,14.026,13.859,13.859,13.859,13.859,13.859,14.026,14.026,14.197,14.197,14.197,14.372,14.372,14.372,14.552,14.552,14.552,14.552,14.552,14.552,14.372,14.197,14.197,13.859,13.381,12.935,12.518,12.001,11.526,11.194,10.982,10.88,10.68,10.583,10.394,10.394,10.302,10.212,10.212,10.123,9.95,9.865,9.783,9.542,9.464,9.313,9.239,9.239,9.166,9.166,9.166,9.239,9.313,9.464,9.542,9.783,9.865,9.95,10.123,10.123,10.212,10.302,10.302,10.394,10.394,10.583,10.583,10.583,10.583,10.583,10.488,10.302,10.123,9.783,9.542,9.239,8.955,8.955,8.753,8.753,8.623,8.623,8.623,8.623,8.56,8.497,8.375,8.315,8.256,8.198,8.084,8.028,7.973,7.866,7.709,7.659,7.415,7.368,7.231,7.098,6.971,6.848,6.729,6.652,6.432,6.127,0,0,0,0,5.151,5.018,4.912,4.851,4.83,4.81,4.791,4.732,0,0,0,0,0,0,0,0,0,0,0,0,0,2.342,2.342,2.338,2.338,2.338,2.338,2.338,2.338,2.333,2.324,2.319,2.324,2.324,2.319,2.319,2.319,2.314,2.314,2.319,2.319,2.319,2.324,2.328,2.333,2.338,2.342,2.342,2.342,2.347,2.347,2.347,2.342,2.342,2.338,2.338,2.338,2.333,2.333,2.333,2.324,2.324,2.324,2.319,2.319,2.314,2.314,2.301,2.301,2.287,2.287,2.283,2.278,2.269,2.256,2.239,2.226,2.213,2.205,2.196,2.184,2.16,2.124,2.079,0,0,1.813,1.783,1.772,1.759,1.738,1.709,1.704,1.697,1.695,1.69,1.687,1.682,1.677,1.673,1.665,1.661,1.656,1.651,1.649,1.644,1.649,1.649,1.651,0,1.658,1.661,1.665,1.665,1.665,1.661,1.661,1.656,1.649,1.635,1.628,1.621,1.617,1.606,1.573,1.565,1.56,1.554,1.554,1.552,1.552,1.552,1.552,1.55,1.548,1.546,1.542,1.536,1.528,1.514,1.508,1.502,1.5,0,0,0,0,0,0,0,0,0,0,0.765,0.765,0.764,0.764,0.764,0.763,0,0,0,0,0,0,0,0,0,0,0,0,0,0,0,0,0,0,0,0,0,0,0,0,0,0,0,0,0,0,0,0,0,0,0,0,0,0,0,0,0,0,0
0,0,0,0,0,0,0,0,0,0,0,0,0,2.91,2.91,2.91,2.91,2.91,2.91,2.91,2.925,2.932,2.947,2.97,3,3.024,3.055,3.096,3.113,0,0,0,0,0,0,0,0,0,5.174,5.174,5.244,5.268,5.316,5.389,5.415,5.465,5.517,5.543,5.57,5.597,5.597,5.624,5.651,5.651,5.651,5.651,5.651,5.624,5.597,5.597,5.57,5.57,5.543,5.543,5.491,5.491,5.491,5.465,5.44,5.44,5.44,5.465,5.465,5.44,5.44,5.44,5.415,5.415,5.44,5.44,5.44,5.44,5.44,5.465,5.491,5.517,5.517,5.517,5.517,5.543,5.517,5.517,5.517,5.517,5.517,5.491,5.465,5.44,5.389,5.34,5.316,5.268,5.22,5.22,5.22,5.22,5.174,5.22,5.244,5.268,5.316,5.34,5.34,5.34,5.389,5.389,5.34,5.389,5.34,5.316,5.268,5.244,5.244,5.244,5.244,5.174,5.174,5.174,5.22,5.22,5.22,5.244,5.268,0,5.316,5.34,5.34,5.389,5.389,5.415,5.44,5.44,5.465,5.491,5.491,5.517,5.517,5.543,5.543,5.543,5.543,5.543,5.57,5.624,5.679,5.763,5.909,6.001,0,6.259,6.467,6.577,6.652,6.729,6.808,6.929,0,7.098,7.322,7.415,7.761,7.919,8.028,8.198,8.256,8.375,8.497,8.753,8.819,8.955,9.024,9.166,9.239,9.239,9.239,9.239,9.313,9.239,9.239,9.024,8.955,8.819,8.56,8.436,8.315,8.256,8.198,8.198,8.198,8.198,8.198,8.256,8.256,8.315,8.375,8.436,8.56,8.753,9.024,9.313,9.701,10.036,10.302,10.583,10.779,11.194,11.879,12.518,12.935,0,13.381,13.536,13.536,13.696,13.696,13.696,13.536,13.381,13.229,12.935,12.793,12.518,12.254,12.001,11.879,11.641,11.641,11.302,11.302,11.302,11.302,11.526,11.879,12.254,12.384,12.793,12.935,13.229,13.536,13.696,13.696,13.859,13.859,13.859,14.026,14.026,14.026,13.859,13.859,13.859,13.859,14.026,14.197,14.197,14.372,14.552,14.925,15.119,15.317,15.731,15.947,16.168,16.396,16.396,16.168,15.947,15.731,15.522,15.522,15.317,15.119,15.119,14.925,14.925,14.925,14.925,14.925,14.925,14.925,14.925,15.119,15.119,0,0,0,5.543,5.543,5.543,5.543,5.543,5.543,5.543,5.543,5.543,5.57,5.57,5.57,5.651,5.85,0,0,0,0,9.783,0,11.302,12.935,13.381,13.381,13.696,13.859,14.026,14.026,14.197,14.026,13.859,13.696,13.536,13.536,13.536,13.381,13.381,13.381,13.381,13.536,13.696,13.696,13.859,14.026,14.026,14.197,14.197,14.372,14.372,14.372,14.372,14.372,14.372,14.197,14.197,13.859,13.381,12.935,12.518,12.001,11.526,11.087,10.982,10.779,10.68,10.488,10.394,10.302,10.302,10.212,10.123,10.036,9.95,9.865,9.783,9.542,9.313,9.313,9.239,9.166,9.024,8.955,8.955,8.955,8.955,9.166,9.239,9.313,9.542,9.701,9.783,9.95,10.036,10.123,10.212,10.302,10.302,10.394,10.488,10.488,10.488,10.488,10.488,10.302,10.036,0,0,0,8.497,8.315,8.256,8.256,8.256,8.256,8.256,8.256,8.256,8.315,8.256,8.256,8.198,8.198,8.084,8.028,7.973,7.813,7.709,7.511,7.322,7.186,7.098,6.929,6.848,6.729,6.652,6.467,6.225,0,0,0,0,5.415,5.151,5.018,4.975,4.912,4.891,4.891,4.851,4.851,4.83,0,0,0,0,0,0,0,0,0,0,0,0,2.338,2.338,2.338,2.338,2.338,2.338,2.338,2.333,2.338,2.333,2.324,2.324,2.324,2.324,2.324,2.324,2.324,2.324,2.324,2.324,2.328,2.333,2.338,2.338,2.342,2.347,2.347,2.352,2.357,2.357,2.357,2.357,2.352,2.347,2.347,2.342,2.338,2.338,2.338,2.338,2.333,2.328,2.328,2.328,2.324,2.319,2.314,2.31,2.301,2.296,2.287,2.287,2.278,2.269,2.256,2.243,2.23,2.217,2.213,2.201,2.196,2.188,2.152,0,0,0,0,1.799,1.777,1.761,1.735,1.709,1.699,1.697,1.692,1.687,1.685,1.68,1.675,1.668,1.661,1.658,1.651,1.649,1.644,1.642,1.644,1.649,1.649,0,1.656,1.658,1.658,1.661,1.661,1.661,1.658,1.651,1.644,1.637,1.63,0,0,0,0,0,0,1.554,1.554,1.552,1.552,1.552,1.552,1.55,1.55,1.548,1.544,1.538,1.528,1.522,1.518,0,0,0,0,0,0,0,0,0,0.767,0.766,0.765,0.765,0.765,0.764,0.763,0.763,0.763,0.764,0.763,0,0,0,0,0,0,0,0,0,0,0,0,0,0,0,0,0,0,0,0,0,0,0,0,0,0,0,0,0,0,0,0,0,0,0,0,0,0,0,0,0
0,0,0,0,0,0,0,0,0,0,0,0,0,2.91,2.91,2.91,2.91,2.91,2.91,2.918,2.925,2.932,2.94,2.962,2.993,3.024,3.047,3.08,3.104,3.138,0,0,0,0,0,0,0,0,5.22,5.244,5.268,5.316,5.34,5.415,5.465,5.491,5.543,5.57,5.57,5.597,5.624,5.651,5.651,5.651,5.651,5.651,5.651,5.651,5.624,5.597,5.57,5.57,5.543,5.543,5.491,5.465,5.465,5.44,5.44,5.415,5.389,5.415,5.415,5.415,5.389,5.389,5.389,5.389,5.415,5.415,5.44,5.44,5.44,5.465,5.491,5.517,5.543,5.543,5.543,5.543,5.543,5.543,5.543,5.543,5.543,5.543,5.517,5.491,5.465,5.44,5.389,5.389,5.389,5.34,5.389,5.389,5.389,5.389,5.389,5.44,5.465,5.465,5.465,5.465,5.44,5.465,5.44,5.44,5.415,5.389,5.34,5.316,5.316,5.268,5.268,5.244,5.244,5.244,5.244,5.244,5.244,5.244,5.268,5.316,5.316,5.316,5.34,5.34,5.34,5.389,5.415,5.44,5.465,5.491,5.491,5.491,5.517,5.543,5.543,5.543,5.543,5.57,5.57,5.624,5.679,5.821,6.001,0,6.159,6.396,6.54,6.652,6.729,6.848,6.971,7.186,7.322,7.368,7.559,7.709,7.919,0,8.141,0,8.315,8.497,8.56,8.753,8.955,9.024,9.166,9.239,9.313,9.313,9.313,9.464,9.464,9.313,9.239,9.166,8.955,8.819,8.56,8.436,8.315,8.198,8.198,8.198,8.198,8.198,8.198,8.198,8.256,8.256,8.315,8.375,8.436,8.623,8.819,9.166,9.542,9.95,10.302,10.488,10.779,11.194,11.879,12.384,12.935,0,13.381,13.536,13.696,13.696,13.859,13.536,13.536,13.381,13.229,12.935,12.793,12.384,12.254,12.001,11.879,11.641,11.641,11.526,11.526,11.302,11.526,11.526,11.879,12.001,12.384,12.518,12.793,12.935,13.229,13.381,13.536,13.536,13.536,13.536,13.696,13.859,13.859,13.859,13.859,13.859,13.859,14.026,14.197,14.372,14.552,14.736,15.119,15.317,15.731,16.168,16.396,0,16.871,16.871,16.871,16.396,16.168,16.168,15.947,15.731,15.522,15.522,15.317,15.317,15.317,15.317,15.317,15.317,15.317,15.317,15.522,15.522,0,0,0,5.543,5.543,5.543,5.543,5.543,5.543,5.543,5.543,5.57,5.57,5.57,5.57,5.651,5.821,0,0,0,0,9.701,0,11.087,12.518,12.793,12.935,13.229,13.381,13.536,13.536,13.536,13.381,13.381,13.229,12.935,12.935,12.935,12.793,12.793,12.793,12.793,12.935,13.229,13.229,13.381,13.536,13.696,13.859,13.859,14.197,14.197,14.197,14.197,14.197,14.197,14.026,13.696,13.381,12.935,12.384,12.001,11.526,11.087,10.779,10.68,10.583,10.394,10.394,10.302,10.302,10.212,10.212,10.036,9.95,9.865,9.701,9.542,9.313,9.239,9.166,9.024,8.955,8.819,8.753,8.753,8.623,0,0,0,9.239,9.313,9.542,9.783,9.865,10.036,10.212,10.212,0,0,0,0,0,0,0,10.394,10.123,0,0,0,0,8.256,8.198,8.084,8.084,8.084,8.084,8.141,8.198,8.198,8.198,8.198,8.198,8.141,8.084,8.028,7.973,7.866,7.761,7.559,7.322,7.186,7.055,6.888,6.768,6.69,6.614,6.361,6.127,0,0,0,5.517,5.415,5.151,5.04,4.996,4.954,4.933,4.912,4.912,4.912,4.891,4.891,0,0,0,0,0,0,0,0,0,0,0,2.333,2.333,2.338,2.338,2.338,2.333,2.333,2.333,2.333,2.333,2.333,2.324,2.324,2.324,2.324,2.324,2.328,2.328,2.328,2.328,2.338,2.338,2.342,2.342,2.347,2.352,2.352,2.357,2.361,2.361,2.361,2.361,2.361,2.357,2.352,2.347,2.347,2.347,2.342,2.342,2.342,2.338,2.338,2.333,2.333,2.324,2.324,2.319,2.314,2.31,2.301,2.296,2.287,2.283,2.269,2.256,2.243,2.234,2.222,2.217,2.209,2.205,2.201,2.196,0,2.098,0,1.94,0,1.783,1.761,1.73,1.704,1.699,1.695,1.692,1.687,1.685,1.677,1.673,1.665,1.661,1.658,1.651,1.649,1.644,1.644,1.642,1.644,1.649,1.651,1.649,1.651,1.656,1.656,1.658,1.658,1.656,1.651,1.644,0,0,0,0,0,0,0,0,0,1.554,1.552,1.552,1.552,1.554,1.552,0,0,0,0,0,0,0,0,0,0.798,0.797,0.796,0.79,0,0,0.77,0.766,0.764,0.764,0.764,0.764,0.763,0.763,0.763,0.763,0.763,0.763,0,0,0,0,0,0,0,0,0,0,0,0,0,0,0,0,0,0,0,0,0,0,0,0,0,0,0,0,0,0,0,0,0,0,0,0,0,0,0,0,0
0,0,0,0,0,0,0,0,0,0,0,0,0,2.918,2.918,2.918,2.918,2.918,2.918,2.918,2.925,2.932,2.94,2.962,2.993,3.024,3.047,3.072,3.113,3.138,0,0,0,0,0,0,0,0,5.22,5.244,5.316,5.34,5.415,5.44,5.491,5.517,5.543,5.57,5.597,5.597,5.624,5.651,5.651,5.679,5.679,5.679,5.651,5.651,5.624,5.597,5.597,5.57,5.543,5.543,5.491,5.465,5.44,5.415,5.389,5.389,5.34,5.34,5.34,5.34,5.34,5.34,5.34,5.34,5.389,5.389,5.415,5.44,5.44,5.465,5.491,5.517,5.543,5.543,5.543,5.57,5.57,5.57,5.57,5.57,5.57,5.57,5.543,5.543,5.517,5.491,5.491,5.465,5.44,5.44,5.44,5.44,5.465,5.465,5.465,5.491,5.543,5.517,5.517,5.517,5.517,5.517,5.517,5.491,5.465,5.44,5.415,5.389,5.34,5.34,5.316,5.268,5.268,5.268,5.268,5.268,5.268,5.268,5.268,5.268,5.316,5.316,5.316,5.34,5.34,5.389,5.389,5.44,5.44,5.465,5.491,5.491,5.517,5.543,5.543,5.543,5.543,5.57,5.597,5.651,5.707,5.85,6.095,0,6.259,6.467,6.614,6.729,6.848,6.971,7.098,7.322,7.415,7.511,0,7.813,0,0,8.141,8.256,8.375,8.497,8.623,0,8.955,9.024,0,9.239,9.239,9.239,9.239,9.313,9.239,9.239,9.166,8.955,8.819,8.623,8.436,8.375,8.256,8.198,8.141,8.084,8.141,8.141,8.141,8.141,8.198,8.198,8.256,8.256,8.375,8.497,8.623,9.024,9.464,9.95,10.302,10.488,10.68,11.194,11.641,12.518,12.935,13.229,0,13.536,13.696,13.696,13.696,13.536,13.381,13.229,12.935,12.793,12.518,12.384,12.254,12.254,12.001,11.879,11.641,11.641,11.526,11.302,11.302,11.526,11.879,12.001,12.254,12.384,12.518,12.793,12.935,12.935,13.229,13.229,13.381,13.381,13.536,13.536,13.536,13.696,13.696,13.859,14.026,14.197,14.372,14.552,14.736,15.119,15.522,15.947,16.396,0,16.871,17.12,17.638,17.638,17.638,17.12,17.12,16.396,16.396,16.168,16.168,15.947,15.947,15.731,15.947,15.947,15.947,15.947,15.947,15.947,15.947,16.168,0,0,0,5.517,5.543,5.543,5.543,5.543,5.543,5.543,5.543,5.57,5.57,5.57,5.57,5.624,5.792,0,0,0,0,9.542,0,10.88,12.384,12.384,12.384,12.518,12.793,12.793,12.935,12.935,12.793,12.518,12.518,12.384,12.384,12.384,12.254,12.254,12.254,12.384,12.384,12.518,12.793,12.935,12.935,13.229,13.381,13.381,13.536,13.696,13.696,13.696,13.859,13.696,13.536,13.229,12.793,12.384,11.879,11.302,11.087,10.779,10.68,10.583,10.394,10.302,10.302,10.302,10.212,10.212,10.036,9.95,9.865,9.783,9.542,9.464,9.239,9.024,8.955,8.819,8.623,8.56,8.56,0,0,0,0,0,0,9.313,9.464,9.783,9.865,9.95,10.123,10.212,10.212,0,0,0,0,10.302,10.302,10.212,9.865,0,0,8.436,8.256,8.141,7.973,7.973,0.459,0.459,0.459,0.459,8.028,8.084,8.084,8.141,8.141,8.084,8.084,8.028,7.973,7.813,7.709,7.511,7.231,7.055,6.888,6.729,6.652,6.54,6.225,6.001,0,5.651,5.57,5.517,5.389,5.268,5.084,5.018,4.996,4.975,4.954,4.933,4.912,4.912,4.912,4.912,0,0,0,0,0,0,0,0,0,0,0,2.324,2.333,2.333,2.333,2.333,2.333,2.328,2.333,2.338,2.333,2.333,2.328,2.324,2.328,2.328,2.333,2.338,2.338,2.338,2.338,2.342,2.342,2.347,2.347,2.357,2.357,2.361,2.366,2.366,2.366,2.366,2.366,2.366,2.361,2.357,2.357,2.357,2.347,2.347,2.347,2.342,2.342,2.338,2.338,2.333,2.328,2.328,2.324,2.319,2.31,2.301,2.296,2.287,2.283,2.278,2.265,2.252,2.239,2.23,2.222,2.217,2.213,2.209,2.205,2.172,2.136,2.09,1.973,0,1.799,1.767,1.714,1.702,1.697,1.692,1.69,1.687,1.682,1.675,1.675,1.665,1.665,1.656,1.651,1.649,1.644,1.642,1.642,1.642,1.644,1.644,1.644,1.649,1.651,1.649,1.651,1.651,1.649,1.644,0,0,0,0,0,0,0,0,0,0,0,0,0,0,0,0.8,0.8,0.8,0.8,0.8,0.8,0.799,0.799,0.799,0.798,0.798,0.797,0.787,0.783,0.78,0.773,0.767,0.765,0.763,0.763,0.763,0.763,0.762,0.763,0.762,0.762,0.762,0.762,0.762,0,0,0,0,0,0,0,0,0,0,0,0,0,0,0,0,0,0,0,0,0,0,0,0,0,0,0,0,0,0,0,0,0,0,0,0,0,0,0,0
0,0,0,0,0,0,0,0,0,0,0,0,0,2.925,2.918,2.925,2.925,2.918,2.925,2.925,2.925,2.932,2.94,2.962,2.993,3.024,3.047,3.072,3.113,3.138,0,0,0,0,0,0,0,0,5.268,5.268,5.34,5.389,5.415,5.465,5.491,5.517,5.543,5.57,5.597,5.597,5.651,5.651,5.651,5.651,5.679,5.679,5.651,5.651,5.624,5.597,5.57,5.57,5.543,5.517,5.465,5.44,5.415,5.34,5.34,5.316,5.268,5.316,5.316,5.316,5.316,5.316,5.316,5.316,5.389,5.389,5.415,5.44,5.44,5.465,5.491,5.517,5.543,5.543,5.543,5.57,5.57,5.57,5.57,5.597,5.597,5.57,5.57,5.57,5.543,5.543,5.543,5.517,5.517,5.517,5.517,5.517,5.517,5.543,5.543,5.543,5.543,5.543,5.543,5.57,5.543,5.543,5.543,5.543,5.517,5.491,5.465,5.44,5.415,5.389,5.389,5.316,5.316,5.316,5.268,5.268,5.268,5.268,5.268,5.268,5.268,5.268,5.316,5.316,5.316,5.34,5.389,5.415,5.44,5.44,5.465,5.491,5.517,5.543,5.543,5.543,5.543,5.57,5.597,5.651,5.735,5.909,0,6.127,6.361,6.54,6.652,6.808,0,0,7.231,7.368,7.511,7.659,7.761,7.866,8.028,8.084,8.198,8.256,8.375,8.497,8.623,8.753,8.819,8.955,8.955,9.024,9.166,9.166,9.166,9.166,9.024,8.955,8.955,8.753,8.623,8.497,8.375,8.256,8.198,8.141,8.084,8.084,8.084,8.084,8.084,8.084,8.141,8.198,8.198,8.256,8.315,8.375,8.56,8.819,9.239,9.783,10.212,10.394,10.68,11.087,11.641,12.254,12.793,13.229,13.381,0,13.536,0,13.696,13.536,13.381,13.229,12.935,12.793,12.518,12.384,12.384,12.254,12.001,11.879,11.879,11.641,11.526,11.526,11.526,11.526,11.879,12.001,12.254,12.384,12.518,12.518,12.793,12.793,12.935,12.935,12.935,13.229,13.381,13.381,13.536,13.696,13.696,13.859,14.026,14.197,14.372,14.552,14.925,15.317,15.522,16.168,0,16.871,17.638,17.91,18.478,17.91,17.91,17.91,17.91,17.638,17.12,16.871,16.871,16.871,16.396,16.396,16.396,16.396,16.396,16.396,16.396,16.396,16.396,0,0,0,5.491,5.491,5.517,5.517,5.517,5.543,5.543,5.543,5.543,5.57,5.57,5.57,5.57,5.597,5.792,0,0,0,0,9.313,0,10.68,11.879,11.879,12.001,12.001,12.001,12.254,12.254,12.254,12.001,12.001,12.001,11.879,11.879,11.879,11.641,11.641,11.879,11.879,12.001,12.001,12.254,12.384,12.384,12.518,12.518,12.793,12.935,12.935,12.935,12.935,13.229,12.935,12.793,12.518,12.254,11.641,11.302,10.982,10.68,10.583,10.394,10.302,10.302,10.302,10.212,10.212,10.212,10.123,10.036,9.95,9.783,9.701,9.464,9.313,9.166,8.955,8.819,8.623,8.56,0,0,0,0,0,0,0,0,0,0,0,9.701,9.865,10.036,10.123,10.212,10.212,10.302,10.302,10.302,10.212,10.123,9.95,9.464,8.955,8.497,0,8.084,7.919,0.458,0.458,0.458,0.458,0.458,0.459,0.459,0.459,0.459,8.141,8.198,8.141,8.084,8.084,7.973,7.866,7.761,7.511,7.186,6.929,6.768,6.652,6.396,6.159,5.939,5.735,5.651,5.57,5.491,5.415,5.268,5.106,5.084,5.018,4.996,4.996,4.975,4.975,4.954,4.933,4.933,4.933,0,0,0,0,0,0,0,0,0,0,0,0,2.328,2.333,2.333,2.333,2.333,2.333,2.338,2.338,2.338,2.333,2.333,2.328,2.328,2.328,2.338,2.338,2.342,2.342,2.342,2.347,2.347,2.352,2.357,2.361,2.366,2.376,2.376,2.376,2.376,2.371,2.376,2.371,2.366,2.361,2.357,2.357,2.357,2.352,2.352,2.347,2.342,2.342,2.338,2.338,2.338,2.333,2.328,2.319,2.319,2.31,2.301,2.296,2.287,2.283,2.269,2.256,2.252,2.239,2.23,2.222,2.217,2.213,2.209,2.201,2.176,2.132,2.083,1.963,1.836,1.769,1.712,1.699,1.695,1.69,1.687,1.685,1.68,1.675,1.673,1.668,1.658,1.658,1.651,1.649,1.644,1.637,1.637,1.637,1.637,1.642,1.642,1.642,1.644,1.644,1.644,1.644,1.637,0,0,0,0,0,0,0,0,0,0,0,0,0,0,0,0.8,0.799,0.8,0.8,0.8,0.8,0.799,0.798,0.798,0.798,0.797,0.796,0.794,0.784,0.781,0,0,0.766,0.762,0.761,0.761,0.76,0.76,0.76,0.76,0.76,0.76,0.76,0.76,0.76,0,0,0,0,0,0,0,0,0,0,0,0,0,0,0,0,0,0,0,0,0,0,0,0,0,0,0,0,0,0,0,0,0,0,0,0,0,0,0,0
0,0,0,0,0,0,0,0,0,0,0,0,0,2.925,2.925,2.925,2.925,2.925,2.925,2.925,2.925,2.932,2.94,2.962,2.993,3.024,3.055,3.08,3.113,3.138,3.146,0,0,0,0,0,0,0,0,5.316,5.34,5.415,5.44,5.491,5.517,5.517,5.543,5.57,5.597,5.597,5.624,5.624,5.651,5.651,5.651,5.651,5.651,5.624,5.597,5.57,5.57,5.543,5.543,5.44,5.415,5.389,5.34,5.316,5.316,5.268,5.244,5.244,5.268,5.268,5.268,5.316,5.316,5.34,5.389,5.389,5.415,5.44,5.44,5.491,5.491,5.517,5.543,5.57,5.57,5.57,5.597,5.597,5.597,5.597,5.597,5.597,5.597,5.597,5.57,5.57,5.57,5.57,5.543,5.57,5.57,5.57,5.543,5.543,5.57,5.57,5.57,5.57,5.57,5.57,5.57,5.57,5.57,5.57,5.543,5.543,5.517,5.465,5.44,5.415,5.389,5.34,5.34,5.316,5.316,5.316,5.316,5.244,5.244,5.268,5.268,5.244,5.268,5.268,5.316,5.34,5.389,5.415,5.415,5.44,5.465,5.491,5.517,5.543,5.543,5.543,5.543,5.57,5.597,5.651,5.763,5.939,0,6.159,6.432,6.577,6.69,6.888,0,7.322,7.511,7.659,7.761,7.866,7.973,8.028,8.084,8.198,8.256,8.315,8.436,8.497,8.56,8.623,8.753,8.753,8.753,8.753,8.753,8.819,8.753,8.753,8.753,8.623,8.56,8.497,8.436,8.375,8.256,8.198,8.141,8.084,8.028,8.028,8.028,8.028,8.084,8.084,8.084,8.141,8.141,8.198,8.256,8.315,8.436,8.623,9.166,9.542,10.036,10.302,10.583,10.88,11.302,12.001,12.793,13.229,13.381,0,13.536,13.536,13.536,13.381,13.229,12.935,12.793,12.518,12.384,12.254,12.254,12.001,11.879,11.879,11.879,11.641,11.641,11.641,11.526,11.641,11.879,12.001,12.254,12.384,12.384,12.518,12.518,12.518,12.793,12.793,12.935,12.935,12.935,13.229,13.381,13.536,13.696,13.696,14.026,14.197,14.372,14.736,14.925,15.317,15.731,16.396,0,16.871,17.638,18.478,17.91,18.478,18.478,18.478,17.91,17.91,17.638,17.12,17.12,17.12,17.12,17.12,17.12,17.12,17.12,17.12,17.12,17.12,0,0,0,5.465,5.465,5.465,5.465,5.491,5.517,5.517,5.517,5.543,5.543,5.57,5.57,5.57,5.57,5.57,5.792,0,0,0,0,9.166,0,10.583,11.302,11.526,11.526,11.526,11.526,11.526,11.526,11.526,11.302,11.302,11.302,11.302,11.194,11.194,11.194,11.194,11.302,11.526,11.526,11.641,11.879,11.879,11.879,12.001,12.001,12.254,12.254,12.254,12.384,12.384,12.384,12.384,12.254,11.879,11.526,11.194,10.88,10.68,10.394,10.302,10.302,10.212,10.212,10.212,10.123,10.123,10.123,10.036,9.95,9.783,9.701,9.542,9.313,9.239,9.166,8.955,8.753,8.623,0,0,0,0,0,0,0,0,0,0,0,0,0,9.783,9.865,10.036,0,0,10.212,10.212,10.212,10.036,9.865,9.701,9.166,0,0,8.141,7.866,0.457,0.458,0.458,0.458,0.458,0.458,0.458,0.459,0.459,0.459,0.459,8.198,8.198,8.141,8.084,8.028,7.973,7.813,7.559,7.186,6.888,6.69,6.577,6.159,5.939,0,5.651,5.543,5.465,5.415,5.268,5.22,5.084,5.084,5.04,5.018,5.018,4.996,4.996,4.996,4.975,4.975,4.954,0,0,0,0,0,0,0,0,0,0,0,0,2.328,2.333,2.333,2.333,2.333,2.333,2.333,2.338,2.338,2.333,2.333,2.328,2.333,2.333,2.338,2.342,2.342,2.342,2.342,2.347,2.352,2.357,2.361,2.366,2.371,2.376,2.381,2.381,2.376,2.376,2.376,2.371,2.366,2.361,2.361,2.357,2.357,2.357,2.352,2.347,2.347,2.342,2.342,2.338,2.338,2.333,2.328,2.324,2.319,2.31,2.31,2.301,2.287,2.283,2.269,2.265,2.252,2.239,2.23,2.226,2.217,2.213,2.209,2.205,2.201,2.176,2.124,2.079,0,0,1.707,1.699,1.692,1.69,1.687,1.685,1.68,1.675,1.668,1.668,1.661,1.656,1.651,1.644,1.637,1.635,1.635,1.635,1.635,1.635,1.635,1.637,1.635,1.637,1.637,0,0,0,0,0,0,0,0,0,0,0,0,0,0,0,0.8,0.799,0.8,0.799,0.799,0.799,0.798,0.798,0.798,0.797,0.796,0.795,0.792,0.79,0.784,0.781,0.777,0.77,0.766,0.762,0.76,0.757,0.757,0.758,0.757,0.757,0.757,0.757,0.757,0.757,0.757,0.757,0,0,0,0,0,0,0,0,0,0,0,0,0,0,0,0,0,0,0,0,0,0,0,0,0,0,0,0,0,0,0,0,0,0,0,0,0,0,0,0
0,0,0,0,0,0,0,0,0,0,0,0,0,2.925,2.925,2.925,2.925,2.925,2.925,2.925,2.925,2.932,2.94,2.955,2.993,3.024,3.055,3.072,3.104,3.138,3.146,3.155,0,0,0,0,0,0,0,0,0,4.933,4.891,5.04,5.415,5.44,5.465,5.491,5.543,5.543,5.57,5.597,5.624,5.624,5.651,5.651,5.624,5.597,5.57,5.57,5.543,5.517,5.44,5.415,5.389,5.34,5.316,5.268,5.268,5.244,5.244,5.244,5.268,5.268,5.316,5.316,5.316,5.34,5.389,5.415,5.44,5.44,5.465,5.491,5.517,5.543,5.543,5.57,5.57,5.597,5.597,5.597,5.624,5.624,5.624,5.624,5.624,5.624,5.624,5.597,5.597,5.597,5.597,5.597,5.597,5.597,5.597,5.57,5.597,5.597,5.597,5.597,5.597,5.597,5.597,5.597,5.597,5.597,5.57,5.543,5.543,5.517,5.465,5.465,5.415,5.415,5.389,5.34,5.34,5.34,5.316,5.268,5.268,5.268,5.268,5.268,5.268,5.268,5.268,5.34,5.389,5.415,5.415,5.44,5.465,5.491,5.517,5.543,5.543,5.543,5.57,5.57,5.597,5.651,5.763,6.001,0,6.225,6.467,6.614,6.768,7.055,7.368,7.559,7.709,7.866,7.919,7.973,8.028,8.084,8.141,8.198,8.256,8.315,8.375,8.375,8.436,8.436,8.436,8.375,8.436,8.375,8.436,8.436,8.436,8.375,8.436,8.436,8.375,8.315,8.256,8.256,8.198,8.141,8.084,8.084,8.028,7.973,8.028,8.028,8.028,8.028,8.084,8.084,8.141,8.141,8.198,8.256,8.375,8.56,8.955,9.464,9.95,10.302,10.488,10.779,11.302,12.001,12.518,12.935,13.229,13.381,13.381,13.381,13.381,13.229,12.935,12.793,12.518,12.384,12.254,12.254,12.001,12.001,11.879,11.879,11.879,11.641,11.641,11.641,11.526,11.526,11.641,11.879,12.001,12.001,12.254,12.384,12.384,12.384,12.518,12.384,12.518,12.518,12.793,12.935,12.935,13.229,13.381,13.696,13.859,14.197,14.372,14.552,14.925,15.119,15.731,16.396,0,17.12,17.638,17.91,18.478,17.91,18.478,18.478,17.91,17.91,17.91,17.638,17.638,17.12,17.12,17.12,17.12,17.12,17.638,17.638,17.638,17.638,17.638,0,0,5.44,5.44,5.44,5.44,5.465,5.491,5.491,5.517,5.517,5.543,5.543,5.543,5.57,5.57,5.57,5.792,6.54,0,0,0,8.955,0,10.394,11.087,11.194,11.087,11.087,11.087,11.087,11.087,10.982,10.88,10.88,10.88,10.88,10.88,10.982,10.982,10.982,11.087,11.194,11.194,11.302,11.302,11.526,11.526,11.526,11.526,11.526,11.641,11.641,11.879,11.879,11.879,11.641,11.526,11.302,11.194,10.88,10.68,10.394,10.302,10.302,10.212,10.212,10.123,10.123,10.123,10.036,10.036,9.865,9.783,9.701,9.542,9.464,9.313,9.166,9.024,8.819,8.753,0,0,0,0,0,0,0,0,0,0,0,0,0,0,0,0,0,9.95,10.036,10.123,10.123,10.036,9.865,9.542,9.313,8.955,8.497,8.315,8.141,7.919,0.457,0.457,0.458,0.458,0.458,0.458,0.458,0.458,0.459,0.459,0.459,0.459,0.459,8.141,8.084,8.028,7.973,7.813,7.511,7.098,6.808,6.614,6.259,6.001,0,5.651,5.57,5.491,5.389,5.316,5.244,5.174,5.084,5.084,5.084,5.04,5.04,5.018,5.018,5.018,5.018,4.996,0,0,0,0,0,0,0,0,0,0,0,0,0,0,2.324,2.324,2.324,2.324,2.324,2.328,2.328,2.328,2.328,2.324,2.324,2.328,2.333,2.338,2.338,2.342,2.342,2.342,2.347,2.352,2.357,2.361,2.366,2.376,2.376,2.381,2.381,2.376,2.376,2.371,2.371,2.361,2.361,2.357,2.357,2.357,2.357,2.357,2.352,2.347,2.347,2.342,2.342,2.338,2.338,2.333,2.328,2.324,2.314,2.31,2.301,2.296,2.283,2.278,2.265,2.252,2.239,2.234,2.226,2.217,2.213,2.213,2.205,2.201,2.188,2.164,0,0,0,0,1.697,1.692,1.69,1.687,1.682,1.68,1.673,1.668,1.665,1.661,1.658,1.656,1.649,1.644,1.637,0,0,0,1.635,1.635,1.633,0,0,0,0,0,0,0,0,0,0,0,0,0,0,0,0,0,0,0,0,0,0,0,0.798,0.797,0.797,0.795,0.794,0.792,0.79,0.788,0.783,0.782,0.778,0.772,0,0.762,0.759,0.756,0.754,0.754,0.754,0.754,0.754,0.754,0.754,0.754,0.754,0.754,0.755,0,0,0,0,0,0,0,0,0,0,0,0,0,0,0,0,0,0,0,0,0,0,0,0,0,0,0,0,0,0,0,0,0,0,0,0,0,0,0,0
0,0,0,0,0,0,0,0,0,0,0,0,0,2.932,2.932,2.925,2.932,2.932,2.925,2.932,2.932,2.932,2.94,2.955,2.993,3.024,3.047,3.08,3.113,3.129,3.146,3.155,3.155,0,0,0,0,0,0,0,0,4.46,4.601,0,4.975,5.415,5.44,5.465,5.517,5.543,5.543,5.597,5.624,5.624,5.624,5.597,5.597,5.57,5.57,5.543,5.517,5.465,5.415,5.389,5.316,5.316,5.268,5.268,5.268,5.268,5.244,5.268,5.268,5.268,5.316,5.316,5.34,5.389,5.389,5.415,5.44,5.465,5.491,5.517,5.543,5.543,5.57,5.57,5.597,5.597,5.624,5.651,5.651,5.651,5.651,5.651,5.651,5.651,5.651,5.651,5.651,5.651,5.624,5.624,5.624,5.624,5.624,5.597,5.597,5.651,5.651,5.624,5.624,5.624,5.597,5.624,5.597,5.597,5.597,5.57,5.57,5.543,5.517,5.491,5.465,5.44,5.415,5.389,5.389,5.34,5.34,5.268,5.268,5.268,5.268,5.268,5.268,5.268,5.316,5.34,5.34,5.415,5.415,5.44,5.465,5.491,5.517,5.517,5.543,5.543,5.543,5.57,5.597,5.651,5.792,6.032,0,6.327,6.504,6.652,6.848,7.231,7.559,7.761,7.866,7.973,8.028,8.084,8.141,8.198,8.198,8.256,8.256,8.256,8.315,8.256,8.256,8.256,8.256,8.256,8.198,8.198,8.198,8.198,8.256,8.256,8.256,8.256,8.256,8.256,8.198,8.141,8.084,8.084,8.028,8.028,7.973,7.973,7.973,7.973,7.973,8.028,8.028,8.028,8.084,8.084,8.198,8.198,8.315,8.497,8.819,9.313,9.865,10.212,10.488,10.779,11.194,11.879,12.384,12.793,12.935,13.229,13.381,13.381,13.229,13.229,12.935,12.793,12.518,12.384,12.254,12.001,11.879,11.879,11.879,11.641,11.641,11.526,11.526,11.526,11.302,11.302,11.526,11.641,11.641,11.879,12.001,12.001,12.001,12.254,12.254,12.254,12.254,12.384,12.384,12.518,12.793,12.935,13.229,13.536,13.696,14.026,14.197,14.552,14.925,14.925,15.522,15.947,0,16.871,17.12,17.638,17.91,18.478,18.478,17.91,17.91,17.638,17.638,17.638,17.638,17.638,17.638,17.12,17.12,17.638,17.638,17.91,17.91,17.91,0,0,5.415,5.415,5.415,5.415,5.415,5.44,5.465,5.465,5.491,5.517,5.543,5.543,5.543,5.57,5.57,5.57,5.763,6.467,0,0,0,8.623,0,10.212,10.88,10.88,10.779,10.779,10.68,10.68,10.68,10.68,10.583,10.583,10.583,10.68,10.68,10.68,10.68,10.779,10.88,10.982,11.087,11.087,11.194,11.194,11.194,11.194,11.194,11.194,11.194,11.194,11.194,11.302,11.302,11.302,11.194,11.087,10.88,10.68,10.583,10.302,10.302,10.212,10.212,10.123,10.123,10.036,10.036,9.95,9.95,9.865,9.783,9.701,9.542,9.313,9.239,9.024,8.955,8.819,0,0,0,0,0,0,0,0,0,0,0,0,0,0,0,0,0,0,0,0,0,10.036,9.95,9.783,9.464,9.166,8.753,8.436,8.256,8.198,0.457,0.457,0.457,0.457,0.458,0.458,0.458,0.458,0.458,0.459,0.459,0.459,0.459,0.459,8.198,8.084,8.084,7.973,7.813,7.511,7.055,6.768,6.614,6.127,0,5.679,5.597,5.543,5.415,5.316,5.244,5.174,5.151,5.106,5.106,5.084,5.084,5.084,5.04,5.084,5.084,5.04,0,0,0,0,0,0,0,0,0,0,0,0,0,2.287,2.301,2.314,2.314,2.319,2.319,2.314,2.319,2.324,2.324,2.319,2.319,2.319,2.319,2.324,2.328,2.333,2.338,2.338,2.342,2.347,2.352,2.357,2.361,2.371,2.376,2.381,2.376,2.376,2.376,2.371,2.366,2.366,2.361,2.357,2.357,2.357,2.357,2.352,2.352,2.352,2.347,2.342,2.342,2.342,2.338,2.338,2.333,2.328,2.324,2.319,2.314,2.31,2.296,2.283,2.278,2.265,2.252,2.243,2.234,2.226,2.222,2.217,2.213,2.209,2.205,2.201,2.18,0,0,0,0,0,1.692,1.687,1.687,1.682,1.68,1.675,1.673,1.665,0,0,0,0,0,0,0,0,0,0,0,0,0,0,0,0,0,0,0,0,0,0,0,0,0,0,0,0,0,0,0,0.799,0.799,0.798,0.798,0.797,0.797,0.795,0.792,0.791,0.789,0.784,0.783,0.781,0.777,0.772,0.768,0.765,0.76,0.756,0.753,0.753,0.752,0.752,0.752,0.752,0.752,0.752,0.753,0.753,0.753,0.753,0,0,0,0,0,0,0,0,0,0,0,0,0,0,0,0,0,0,0,0,0,0,0,0,0,0,0,0,0,0,0,0,0,0,0,0,0,0,0,0
0,0,0,0,0,0,0,0,0,0,0,0,0,2.932,2.932,2.932,2.932,2.932,2.932,2.932,2.932,2.932,2.947,2.962,2.993,3.024,3.047,3.08,3.104,3.129,3.146,3.155,3.155,3.155,0,0,0,0,0,0,0,0,4.249,4.601,4.83,0,5.389,5.44,5.415,5.465,5.389,5.57,5.624,5.624,5.597,5.597,5.57,5.543,5.543,5.491,5.465,5.415,5.34,5.316,5.316,5.268,5.268,5.268,5.268,5.268,5.244,5.268,5.268,5.268,5.316,5.34,5.34,5.389,5.415,5.44,5.465,5.465,5.491,5.517,5.543,5.543,5.57,5.57,5.597,5.624,5.624,5.651,5.651,5.651,5.679,5.679,5.679,5.679,5.679,5.679,5.679,5.679,5.679,5.679,5.679,5.679,5.651,5.651,5.651,5.651,5.651,5.651,5.651,5.651,5.651,5.651,5.624,5.624,5.597,5.597,5.57,5.543,5.543,5.517,5.491,5.465,5.44,5.415,5.389,5.389,5.389,5.34,5.268,5.268,5.268,5.268,5.268,5.268,5.316,5.316,5.389,5.389,5.415,5.44,5.465,5.491,5.517,5.517,5.543,5.543,5.543,5.57,5.597,5.679,5.792,6.032,0,6.327,6.54,6.652,6.848,7.322,7.659,7.813,7.973,8.028,8.028,8.084,8.084,8.141,8.198,8.198,8.198,8.198,8.198,8.198,8.198,8.141,8.141,8.084,8.084,8.084,8.084,8.084,8.084,8.084,8.084,8.141,8.141,8.141,8.141,8.084,8.084,8.028,8.028,7.973,7.973,7.973,7.973,7.973,7.973,7.973,7.973,8.028,8.028,8.084,8.084,8.198,8.256,8.436,8.819,9.239,9.783,10.212,10.394,10.68,11.194,11.879,12.254,12.518,12.935,13.229,13.229,13.229,13.229,12.935,12.935,12.793,12.518,12.254,12.001,12.001,11.879,11.641,11.641,11.526,11.526,11.526,11.302,11.302,11.302,11.302,11.302,11.526,11.526,11.526,11.526,11.641,11.641,11.879,11.879,11.641,11.879,11.879,12.001,12.254,12.384,12.518,12.793,13.229,13.381,13.696,14.197,14.372,14.552,14.925,15.119,15.731,16.396,0,17.12,17.638,17.638,17.638,17.91,17.91,17.638,17.638,17.638,17.12,17.12,17.638,17.12,17.12,17.12,17.638,17.91,17.91,17.91,0,0,5.389,5.389,5.389,5.389,5.389,5.415,5.415,5.44,5.44,5.465,5.491,5.491,5.517,5.543,5.543,5.543,5.543,5.679,6.361,0,0,0,8.315,9.865,0,10.68,10.68,10.68,10.583,10.583,10.583,10.488,10.488,10.394,10.394,10.394,10.394,10.488,10.583,10.583,10.68,10.779,10.88,10.982,10.982,10.982,10.982,10.982,10.982,10.982,10.88,10.982,10.982,10.88,10.88,10.982,10.88,10.88,10.779,10.68,10.583,10.488,10.302,10.212,10.212,10.123,10.123,10.036,9.95,9.865,9.95,9.865,9.783,9.701,9.542,9.542,9.313,9.166,0,0,0,0,0,0,0,0,0,0,0,0,0,0,0,0,0,0,0,0,0,0,0,0,0,9.865,9.542,9.313,9.024,0.454,0.455,8.256,0.456,0.456,0.457,0.457,0.457,0.458,0.458,0.458,0.458,0.458,0.458,0.459,0.459,0.459,0.459,0.46,8.141,8.084,7.973,7.813,0,0,0,6.327,6.032,5.792,5.651,5.57,5.465,5.34,5.244,5.22,5.106,5.106,5.106,5.084,5.084,5.084,5.084,5.084,5.084,0,0,0,0,0,0,0,0,0,0,0,0,0,0,0,0,2.283,2.287,2.296,2.296,2.301,2.301,2.301,2.31,2.31,2.314,2.314,2.31,2.31,2.314,2.319,2.324,2.333,2.338,2.338,2.347,2.347,2.357,2.357,2.366,2.376,2.381,2.376,2.376,2.376,2.371,2.366,2.361,2.361,2.357,2.357,2.352,2.347,2.347,2.347,2.347,2.342,2.342,2.342,2.338,2.338,2.338,2.333,2.328,2.324,2.324,2.319,2.31,2.301,2.283,2.278,2.265,2.256,2.243,2.239,2.23,2.226,2.222,2.217,2.213,2.209,2.209,2.205,2.196,0,0,0,0,0,0,1.687,1.682,1.68,0,0,0,0,0,0,0,0,0,0,0,0,0.873,0.867,0,0.858,0.856,0.851,0.847,0.842,0.84,0,0,0,0,0,0,0,0,0,0,0,0.801,0.8,0.799,0.798,0.798,0.797,0.796,0.795,0.792,0.79,0.787,0.783,0.782,0.78,0.775,0.77,0.767,0.765,0.758,0.754,0.753,0.751,0.751,0.751,0.751,0.75,0.75,0.75,0.751,0.751,0.751,0.751,0.751,0,0,0,0,0,0,0,0,0,0,0,0,0,0,0,0,0,0,0,0,0,0,0,0,0,0,0,0,0,0,0,0,0,0,0,0,0,0,0,0
