0.564,0.563,0.563,0.563,0.562,0.561,0.561,0.56,0.559,0.559,0.557,0.557,0.556,0.556,0.555,0.555,0.555,0.554,0.553,0.553,0.552,0.551,0.551,0.55,0.549,0.549,0.548,0.548,0.548,0.547,0.547,0.547,0.547,0.546,0.545,0.544,0.542,0.54,0.54,0.539,0.539,0.538,0.538,0.537,0.537,0.536,0.535,0.534,0.534,0.533,0.532,0.532,0.531,0.531,0.531,0.531,0.53,0.53,0.529,0.529,0.527,0.526,0.524,0.524,0.523,0.523,0.522,0.522,0.522,0.521,0.521,0.52,0.52,0.519,0.519,0.518,0.517,0.517,0.516,0.516,0.516,0.516,0.515,0.515,0.514,0.513,0.512,0.511,0.51,0.509,0.509,0.509,0.509,0.508,0.508,0.507,0.507,0.507,0.506,0.506,0.506,0.505,0.504,0.504,0.503,0.502,0.502,0.502,0.501,0.501,0.5,0.499,0.499,0.497,0.496,0.496,0.496,0.495,0.495,0.494,0.494,0.494,0.493,0.493,0.493,0.492,0.492,0.491,0.491,0.491,0.49,0.489,0.489,0.489,0.488,0.488,0.487,0.487,0.487,0.486,0.486,0.485,0.485,0.484,0.483,0.483,0.482,0.482,0.482,0.481,0.481,0.481,0.481,0.481,0.0,0.0,0.0,0.0,0.0,0.0,0.0,0.0,0.0,0.0,0.0,0.0,0.0,0.0,0.0,0.327,0.327,0.327,0.327,0.327,0.326,0.326,0.326,0.326,0.326,0.326,0.325,0.325,0.324,0.324,0.323,0.323,0.323,0.322,0.321,0.321,0.32,0.32,0.32,0.319,0.319,0.319,0.318,0.318,0.318,0.318,0.318,0.318,0.318,0.318,0.318,0.318,0.318,0.318,0.318,0.318,0.318,0.318,0.319,0.319,0.319,0.32,0.32,0.32,0.321,0.321,0.321,0.3215,0.322,0.322,0.322,0.323,0.323,0.323,0.323,0.323,0.323,0.322,0.322,0.322,0.322,0.322,0.322,0.322,0.322,0.3225,0.323,0.323,0.323,0.323,0.323,0.323,0.323,0.323,0.323,0.323,0.323,0.323,0.324,0.324,0.324,0.324,0.324,0.325,0.325,0.325,0.325,0.326,0.326,0.326,0.326,0.326,0.326,0.326,0.326,0.326,0.326,0.327,0.327,0.327,0.327,0.327,0.3275,0.328,0.328,0.328,0.328,0.328,0.328,0.328,0.328,0.328,0.328,0.329,0.329,0.329,0.329,0.329,0.329,0.329,0.329,0.329,0.329,0.33,0.33,0.33,0.33,0.331,0.331,0.331,0.332,0.331,0.332,0.332,0.332,0.332,0.332,0.332,0.3325,0.333,0.333,0.333,0.334,0.335,0.335,0.336,0.336,0.337,0.3375,0.338,0.338,0.339,0.339,0.34,0.34,0.341,0.341,0.341,0.342,0.34299999999999997,0.344,0.345,0.348,0.3485,0.349,0.351,0.352,0.352,0.353,0.35424999999999995,0.355,0.356,0.357,0.358,0.358,0.359,0.359,0.36,0.36,0.36,0.36,0.36,0.36,0.36,0.36,0.361,0.3615,0.362,0.362,0.362,0.363,0.0,0.0,0.0,0.0,0.0,0.0,0.0,0.0,0.0,0.39,0.389,0.389,0.389,0.39,0.39,0.39,0.39,0.39,0.39,0.391,0.391,0.391,0.391,0.39,0.39,0.39,0.389,0.389,0.389,0.389,0.388,0.388,0.387,0.386,0.386,0.385,0.385,0.385,0.385,0.385,0.385,0.385,0.384,0.383,0.383,0.382,0.382,0.382,0.382,0.381,0.381,0.381,0.381,0.381,0.381,0.381,0.381,0.38,0.38,0.379,0.378,0.378,0.378,0.377,0.377,0.377,0.377,0.377,0.376,0.376,0.376,0.376,0.375,0.375,0.374,0.374,0.374,0.374,0.373,0.373,0.373,0.373,0.373,0.373,0.373,0.372,0.372,0.371,0.371,0.371,0.371,0.37,0.37,0.37,0.37,0.369,0.369,0.369,0.369,0.369,0.369,0.369,0.368,0.368,0.367,0.367,0.366,0.366,0.366,0.366,0.365,0.365,0.364,0.363,0.363,0.363,0.362,0.362,0.362,0.362,0.362,0.362,0.361,0.361,0.361,0.36,0.36,0.359,0.359,0.359,0.359,0.359,0.359,0.359,0.358,0.358,0.358,0.358,0.358,0.358,0.357,0.356,0.356,0.355,0.355,0.355,0.355,0.354,0.354,0.354,0.353,0.353,0.353,0.352,0.352,0.352,0.352,0.352,0.352,0.352,0.352,0.352,0.0,0.0,0.0,0.0,0.0,0.0,0.0,0.0,0.0,0.0,0.0,0.0,0.0,0.0,0.0,0.0,0.0,0.0,0.0,0.0,0.0,0.0,0.0,0.0,0.0,0.0,0.0,0.0,0.0,0.0,0.0,0.0,0.0,0.0,0.0,0.0,0.0,0.0,0.0
0.562,0.561,0.561,0.56,0.56,0.559,0.559,0.557,0.556,0.556,0.556,0.555,0.555,0.555,0.554,0.554,0.553,0.552,0.551,0.551,0.55,0.549,0.549,0.548,0.548,0.548,0.547,0.547,0.547,0.547,0.546,0.546,0.544,0.544,0.543,0.54,0.54,0.539,0.539,0.538,0.537,0.537,0.536,0.535,0.534,0.534,0.533,0.533,0.532,0.531,0.531,0.531,0.531,0.53,0.53,0.529,0.529,0.528,0.527,0.526,0.525,0.524,0.523,0.523,0.522,0.522,0.521,0.52,0.519,0.519,0.519,0.518,0.518,0.518,0.517,0.516,0.516,0.516,0.516,0.515,0.515,0.514,0.514,0.513,0.512,0.511,0.51,0.509,0.509,0.509,0.508,0.507,0.507,0.506,0.506,0.505,0.505,0.504,0.504,0.504,0.503,0.503,0.502,0.502,0.502,0.502,0.501,0.501,0.5,0.499,0.498,0.497,0.496,0.496,0.495,0.495,0.494,0.494,0.493,0.492,0.492,0.492,0.491,0.491,0.491,0.49,0.49,0.49,0.489,0.489,0.489,0.488,0.488,0.487,0.487,0.486,0.486,0.485,0.485,0.485,0.484,0.483,0.483,0.483,0.482,0.482,0.482,0.481,0.48,0.48,0.479,0.479,0.48,0.479,0.0,0.0,0.0,0.0,0.0,0.0,0.0,0.0,0.0,0.0,0.0,0.0,0.0,0.0,0.0,0.328,0.327,0.327,0.327,0.326,0.326,0.326,0.326,0.326,0.326,0.325,0.325,0.324,0.324,0.324,0.323,0.323,0.322,0.3215,0.321,0.32,0.32,0.32,0.32,0.319,0.319,0.319,0.319,0.318,0.318,0.318,0.318,0.318,0.318,0.318,0.318,0.318,0.318,0.318,0.318,0.318,0.318,0.319,0.319,0.319,0.32,0.32,0.32,0.321,0.321,0.321,0.321,0.321625,0.322,0.322,0.323,0.323,0.323,0.323,0.323,0.323,0.323,0.323,0.322,0.322,0.322,0.322,0.322,0.322,0.322,0.322625,0.323,0.323,0.323,0.323,0.323,0.323,0.323,0.323,0.323,0.323,0.324,0.324,0.324,0.324,0.324,0.325,0.325,0.325,0.325,0.326,0.326,0.326,0.326,0.326,0.326,0.326,0.326,0.326,0.326,0.327,0.327,0.327,0.327,0.3275,0.328,0.328,0.328,0.328,0.328,0.328,0.329,0.329,0.329,0.329,0.329,0.329,0.329,0.329,0.329,0.329,0.329,0.329,0.329,0.33,0.33,0.33,0.33,0.33,0.331,0.331,0.331,0.331,0.332,0.332,0.332,0.332,0.332,0.332,0.332,0.332,0.3325,0.333,0.333,0.334,0.334,0.335,0.335,0.335,0.336,0.336,0.337,0.3375,0.338,0.339,0.339,0.339,0.34,0.341,0.341,0.341,0.341,0.342,0.343,0.344,0.345,0.3464999999999999,0.348,0.0,0.35,0.351,0.352,0.353,0.354,0.355,0.355,0.357,0.358,0.358,0.359,0.36,0.36,0.3605,0.361,0.361,0.361,0.0,0.0,0.0,0.0,0.0,0.0,0.0,0.3775,0.3775,0.0,0.0,0.0,0.0,0.0,0.0,0.391,0.391,0.39,0.39,0.39,0.389,0.389,0.389,0.389,0.389,0.389,0.389,0.389,0.39,0.39,0.39,0.39,0.389,0.389,0.389,0.389,0.389,0.389,0.388,0.388,0.387,0.386,0.386,0.385,0.385,0.385,0.385,0.384,0.384,0.384,0.384,0.383,0.382,0.382,0.382,0.382,0.381,0.381,0.381,0.381,0.381,0.381,0.38,0.38,0.38,0.38,0.379,0.379,0.378,0.378,0.377,0.377,0.377,0.377,0.377,0.376,0.376,0.376,0.376,0.375,0.374,0.374,0.374,0.374,0.373,0.373,0.373,0.373,0.373,0.373,0.373,0.373,0.373,0.372,0.372,0.371,0.371,0.37,0.37,0.37,0.37,0.37,0.37,0.369,0.369,0.369,0.369,0.369,0.368,0.368,0.367,0.367,0.367,0.367,0.366,0.366,0.366,0.366,0.365,0.365,0.364,0.363,0.363,0.362,0.362,0.362,0.362,0.362,0.362,0.361,0.361,0.361,0.36,0.359,0.359,0.359,0.359,0.359,0.359,0.358,0.358,0.358,0.358,0.358,0.358,0.358,0.357,0.357,0.356,0.356,0.355,0.355,0.355,0.355,0.355,0.354,0.354,0.353,0.352,0.352,0.352,0.352,0.352,0.352,0.352,0.351,0.351,0.351,0.351,0.351,0.351,0.351,0.0,0.0,0.0,0.0,0.0,0.0,0.0,0.0,0.0,0.0,0.0,0.0,0.0,0.0,0.0,0.0,0.0,0.0,0.0,0.0,0.0,0.0,0.0,0.0,0.0,0.0,0.0,0.0,0.0,0.0,0.0,0.0,0.0,0.0,0.0,0.0,0.0,0.0,0.0
0.56,0.559,0.558,0.558,0.557,0.556,0.556,0.556,0.555,0.555,0.555,0.555,0.554,0.553,0.552,0.551,0.551,0.55,0.549,0.549,0.548,0.548,0.547,0.547,0.547,0.547,0.547,0.546,0.546,0.544,0.544,0.543,0.542,0.541,0.54,0.539,0.539,0.538,0.537,0.536,0.535,0.534,0.534,0.533,0.533,0.532,0.531,0.531,0.531,0.53,0.53,0.53,0.529,0.529,0.528,0.527,0.527,0.526,0.525,0.524,0.523,0.523,0.522,0.522,0.52,0.519,0.519,0.518,0.518,0.517,0.517,0.517,0.516,0.516,0.516,0.516,0.515,0.515,0.514,0.514,0.513,0.512,0.511,0.511,0.51,0.509,0.509,0.508,0.508,0.507,0.506,0.505,0.504,0.504,0.504,0.503,0.502,0.502,0.502,0.502,0.502,0.501,0.501,0.501,0.5,0.5,0.499,0.499,0.497,0.497,0.496,0.496,0.495,0.494,0.494,0.493,0.492,0.492,0.491,0.491,0.49,0.49,0.49,0.489,0.489,0.489,0.489,0.489,0.488,0.488,0.487,0.487,0.486,0.486,0.485,0.485,0.484,0.484,0.483,0.483,0.483,0.482,0.482,0.482,0.482,0.481,0.48,0.479,0.478,0.478,0.478,0.477,0.477,0.478,0.478,0.0,0.0,0.0,0.0,0.0,0.0,0.0,0.0,0.0,0.0,0.0,0.0,0.0,0.328,0.328,0.327,0.327,0.327,0.326,0.326,0.326,0.326,0.326,0.325,0.325,0.324,0.324,0.323,0.323,0.323,0.322,0.322,0.321,0.321,0.32,0.32,0.32,0.319,0.319,0.319,0.319,0.319,0.319,0.318,0.318,0.318,0.318,0.318,0.318,0.318,0.318,0.318,0.318,0.318,0.318,0.319,0.319,0.319,0.32,0.32,0.32,0.32,0.321,0.321,0.321,0.3215,0.322,0.322,0.322,0.323,0.323,0.323,0.323,0.323,0.323,0.323,0.323,0.323,0.323,0.322,0.322,0.3225,0.323,0.323,0.323,0.323,0.323,0.323,0.323,0.323,0.323,0.323,0.324,0.324,0.324,0.324,0.324,0.324,0.325,0.325,0.325,0.325,0.326,0.326,0.326,0.326,0.326,0.326,0.326,0.326,0.327,0.327,0.327,0.327,0.327,0.327,0.327,0.3275,0.328,0.328,0.328,0.328,0.329,0.329,0.329,0.329,0.329,0.329,0.329,0.329,0.329,0.329,0.329,0.329,0.329,0.33,0.33,0.33,0.33,0.33,0.33,0.331,0.331,0.331,0.332,0.332,0.332,0.332,0.332,0.332,0.332,0.3325,0.333,0.333,0.333,0.333,0.333,0.334,0.335,0.335,0.335,0.335,0.336,0.336,0.0,0.0,0.0,0.0,0.339,0.339,0.34,0.341,0.341,0.342,0.342,0.342,0.342,0.34375,0.345,0.346,0.348,0.0,0.0,0.351,0.352,0.353,0.354,0.3545,0.355,0.356,0.358,0.0,0.0,0.359,0.36,0.3605,0.361,0.361,0.361,0.361,0.0,0.0,0.0,0.0,0.0,0.0,0.0,0.393,0.393,0.0,0.0,0.0,0.0,0.0,0.391,0.391,0.39,0.39,0.39,0.39,0.389,0.389,0.389,0.389,0.389,0.389,0.389,0.389,0.389,0.389,0.389,0.389,0.389,0.38849999999999996,0.388,0.388,0.388,0.387,0.387,0.386,0.386,0.385,0.385,0.385,0.385,0.384,0.384,0.383,0.383,0.383,0.382,0.382,0.381,0.381,0.381,0.381,0.381,0.381,0.38,0.38,0.38,0.38,0.379,0.378,0.378,0.378,0.378,0.377,0.377,0.377,0.377,0.377,0.376,0.376,0.376,0.376,0.375,0.374,0.374,0.374,0.374,0.373,0.373,0.373,0.373,0.373,0.373,0.373,0.373,0.372,0.372,0.372,0.372,0.371,0.37,0.37,0.37,0.37,0.37,0.369,0.369,0.369,0.369,0.369,0.369,0.369,0.368,0.367,0.367,0.366,0.366,0.366,0.366,0.366,0.366,0.366,0.365,0.365,0.365,0.364,0.363,0.363,0.362,0.362,0.362,0.362,0.362,0.361,0.361,0.36,0.36,0.359,0.359,0.359,0.359,0.358,0.358,0.358,0.358,0.358,0.358,0.358,0.357,0.357,0.357,0.356,0.356,0.355,0.355,0.355,0.355,0.355,0.354,0.354,0.354,0.353,0.353,0.352,0.352,0.352,0.351,0.351,0.351,0.351,0.351,0.351,0.351,0.351,0.351,0.351,0.351,0.0,0.0,0.0,0.0,0.0,0.0,0.0,0.0,0.0,0.0,0.0,0.0,0.0,0.0,0.0,0.0,0.0,0.0,0.0,0.0,0.0,0.0,0.0,0.0,0.0,0.0,0.0,0.0,0.0,0.0,0.0,0.0,0.0,0.0,0.0,0.0,0.0,0.0,0.0,0.0
0.557,0.557,0.556,0.556,0.556,0.555,0.555,0.555,0.554,0.554,0.553,0.553,0.552,0.551,0.55,0.549,0.549,0.548,0.548,0.547,0.547,0.547,0.547,0.546,0.546,0.545,0.545,0.544,0.543,0.542,0.541,0.54,0.539,0.539,0.538,0.538,0.537,0.536,0.535,0.534,0.533,0.532,0.532,0.532,0.531,0.531,0.531,0.53,0.53,0.529,0.528,0.527,0.527,0.526,0.525,0.525,0.524,0.524,0.523,0.523,0.522,0.521,0.52,0.519,0.518,0.517,0.517,0.516,0.516,0.516,0.516,0.516,0.515,0.515,0.515,0.514,0.513,0.513,0.512,0.511,0.511,0.51,0.509,0.509,0.509,0.508,0.507,0.507,0.506,0.505,0.504,0.503,0.503,0.502,0.502,0.502,0.502,0.502,0.501,0.501,0.5,0.5,0.499,0.499,0.499,0.498,0.497,0.496,0.496,0.495,0.495,0.495,0.493,0.493,0.492,0.491,0.49,0.49,0.489,0.489,0.489,0.489,0.489,0.488,0.488,0.488,0.488,0.488,0.487,0.486,0.486,0.485,0.484,0.484,0.483,0.483,0.483,0.482,0.482,0.482,0.482,0.482,0.482,0.481,0.481,0.479,0.478,0.477,0.477,0.477,0.476,0.476,0.476,0.476,0.0,0.0,0.0,0.0,0.0,0.0,0.0,0.0,0.0,0.0,0.0,0.0,0.0,0.0,0.328,0.328,0.327,0.327,0.326,0.326,0.326,0.326,0.326,0.325,0.324,0.324,0.324,0.323,0.323,0.323,0.322,0.322,0.321,0.321,0.32,0.32,0.32,0.319,0.319,0.319,0.319,0.319,0.319,0.319,0.319,0.318,0.319,0.319,0.318,0.318,0.318,0.318,0.318,0.318,0.319,0.319,0.319,0.319,0.319,0.32,0.32,0.32,0.32,0.321,0.321,0.321,0.3215,0.322,0.322,0.322,0.323,0.323,0.323,0.323,0.323,0.323,0.323,0.323,0.323,0.323,0.323,0.323,0.323,0.323,0.323,0.323,0.323,0.323,0.323,0.323,0.323,0.324,0.324,0.324,0.324,0.324,0.324,0.325,0.325,0.325,0.326,0.326,0.326,0.326,0.326,0.326,0.326,0.326,0.327,0.327,0.327,0.327,0.327,0.327,0.327,0.3275,0.328,0.328,0.328,0.328,0.328,0.329,0.329,0.329,0.329,0.329,0.329,0.329,0.329,0.329,0.329,0.33,0.33,0.33,0.33,0.33,0.33,0.33,0.331,0.331,0.331,0.331,0.331,0.332,0.332,0.332,0.332,0.332,0.332,0.3325,0.333,0.333,0.333,0.333,0.333,0.334,0.334,0.334,0.335,0.335,0.335,0.336,0.336,0.337,0.337,0.0,0.0,0.0,0.0,0.34,0.34,0.341,0.341,0.342,0.342,0.343,0.3435,0.344,0.345,0.347,0.0,0.349,0.0,0.0,0.352,0.353,0.354,0.3545,0.355,0.355,0.357,0.358,0.0,0.0,0.36,0.3605,0.361,0.362,0.362,0.0,0.0,0.0,0.0,0.0,0.0,0.0,0.393,0.393,0.393,0.393,0.393,0.392,0.392,0.391,0.391,0.391,0.39,0.39,0.39,0.39,0.389,0.389,0.389,0.389,0.389,0.389,0.389,0.389,0.389,0.389,0.389,0.389,0.389,0.38825,0.388,0.387,0.387,0.386,0.386,0.386,0.385,0.385,0.385,0.384,0.384,0.384,0.383,0.382,0.382,0.382,0.381,0.381,0.381,0.381,0.381,0.381,0.38,0.38,0.38,0.379,0.379,0.378,0.378,0.378,0.377,0.377,0.377,0.377,0.377,0.377,0.376,0.376,0.376,0.376,0.375,0.375,0.374,0.374,0.374,0.373,0.373,0.373,0.373,0.373,0.373,0.372,0.372,0.372,0.372,0.371,0.371,0.371,0.371,0.37,0.37,0.37,0.37,0.37,0.369,0.369,0.369,0.369,0.369,0.369,0.368,0.368,0.367,0.366,0.366,0.366,0.366,0.366,0.366,0.365,0.365,0.365,0.365,0.364,0.364,0.364,0.363,0.362,0.362,0.362,0.362,0.361,0.361,0.361,0.36,0.36,0.359,0.359,0.358,0.358,0.358,0.358,0.358,0.358,0.357,0.357,0.357,0.357,0.356,0.356,0.356,0.355,0.355,0.355,0.355,0.355,0.355,0.354,0.354,0.354,0.353,0.353,0.352,0.352,0.352,0.351,0.351,0.351,0.351,0.351,0.351,0.351,0.35,0.35,0.35,0.35,0.35,0.0,0.0,0.0,0.0,0.0,0.0,0.0,0.0,0.0,0.0,0.0,0.0,0.0,0.0,0.0,0.0,0.0,0.0,0.0,0.0,0.0,0.0,0.0,0.0,0.0,0.0,0.0,0.0,0.0,0.0,0.0,0.0,0.0,0.0,0.0,0.0,0.0,0.0,0.0,0.0,0.0
0.555,0.555,0.555,0.555,0.555,0.554,0.554,0.553,0.552,0.551,0.551,0.549,0.549,0.548,0.548,0.548,0.547,0.547,0.547,0.547,0.546,0.546,0.545,0.544,0.544,0.543,0.542,0.542,0.541,0.54,0.54,0.539,0.538,0.538,0.536,0.535,0.534,0.533,0.533,0.532,0.532,0.531,0.531,0.531,0.53,0.529,0.528,0.528,0.527,0.526,0.526,0.525,0.525,0.524,0.524,0.524,0.523,0.523,0.522,0.521,0.52,0.519,0.518,0.517,0.517,0.516,0.516,0.516,0.516,0.515,0.515,0.514,0.514,0.513,0.513,0.511,0.511,0.51,0.51,0.51,0.509,0.509,0.509,0.508,0.507,0.506,0.505,0.504,0.504,0.503,0.502,0.502,0.502,0.502,0.501,0.501,0.5,0.5,0.5,0.499,0.499,0.498,0.497,0.497,0.497,0.496,0.496,0.495,0.495,0.495,0.493,0.493,0.492,0.491,0.49,0.49,0.489,0.489,0.488,0.488,0.488,0.488,0.488,0.488,0.488,0.487,0.486,0.486,0.485,0.485,0.484,0.483,0.483,0.482,0.482,0.482,0.482,0.482,0.482,0.481,0.481,0.481,0.481,0.479,0.478,0.477,0.477,0.476,0.476,0.476,0.476,0.476,0.476,0.475,0.0,0.0,0.0,0.0,0.0,0.0,0.0,0.0,0.0,0.0,0.0,0.0,0.0,0.328,0.328,0.328,0.327,0.327,0.327,0.326,0.326,0.326,0.326,0.324,0.324,0.324,0.323,0.323,0.323,0.322,0.322,0.321,0.321,0.32,0.32,0.32,0.319,0.319,0.319,0.319,0.319,0.319,0.319,0.319,0.319,0.319,0.319,0.319,0.319,0.319,0.319,0.319,0.319,0.319,0.319,0.319,0.319,0.32,0.32,0.32,0.32,0.32,0.321,0.321,0.321,0.321,0.3215,0.322,0.322,0.323,0.323,0.323,0.323,0.323,0.323,0.323,0.323,0.323,0.323,0.323,0.323,0.323,0.323,0.323,0.323,0.323,0.323,0.323,0.323,0.324,0.324,0.324,0.324,0.324,0.324,0.325,0.325,0.325,0.326,0.326,0.326,0.326,0.326,0.326,0.326,0.326,0.327,0.327,0.327,0.327,0.327,0.327,0.3275,0.328,0.328,0.328,0.328,0.328,0.329,0.329,0.329,0.329,0.329,0.329,0.329,0.329,0.33,0.33,0.33,0.33,0.33,0.33,0.33,0.33,0.331,0.331,0.331,0.331,0.331,0.331,0.332,0.332,0.332,0.332,0.332,0.332,0.3325,0.333,0.333,0.333,0.333,0.333,0.334,0.334,0.334,0.335,0.335,0.335,0.335,0.335,0.336,0.336,0.337,0.3375,0.338,0.338,0.3385,0.339,0.34,0.341,0.341,0.342,0.342,0.343,0.3435,0.344,0.345,0.347,0.3475,0.348,0.349,0.35,0.353,0.353,0.354,0.35424999999999995,0.355,0.355,0.355,0.356,0.357,0.358,0.359,0.359,0.36,0.36062500000000003,0.361,0.0,0.0,0.0,0.0,0.0,0.0,0.0,0.0,0.0,0.393,0.392,0.392,0.392,0.392,0.392,0.391,0.391,0.391,0.391,0.39,0.39,0.39,0.389,0.389,0.389,0.389,0.389,0.389,0.389,0.389,0.389,0.388,0.388,0.388,0.388,0.387,0.387,0.386,0.386,0.386,0.385,0.385,0.385,0.385,0.385,0.384,0.384,0.384,0.382,0.382,0.382,0.381,0.381,0.381,0.381,0.381,0.38,0.38,0.38,0.379,0.379,0.378,0.378,0.378,0.377,0.377,0.377,0.377,0.377,0.377,0.376,0.376,0.376,0.376,0.375,0.375,0.374,0.374,0.373,0.373,0.373,0.373,0.373,0.373,0.373,0.372,0.372,0.372,0.371,0.371,0.371,0.371,0.37,0.37,0.37,0.37,0.37,0.37,0.369,0.369,0.369,0.369,0.369,0.369,0.368,0.368,0.367,0.366,0.366,0.366,0.366,0.365,0.365,0.365,0.365,0.364,0.364,0.364,0.364,0.364,0.364,0.363,0.362,0.362,0.362,0.362,0.361,0.361,0.36,0.36,0.359,0.359,0.359,0.358,0.358,0.358,0.358,0.357,0.357,0.357,0.356,0.356,0.356,0.356,0.356,0.355,0.355,0.355,0.355,0.355,0.354,0.354,0.354,0.354,0.353,0.353,0.352,0.352,0.352,0.351,0.351,0.351,0.351,0.351,0.35,0.35,0.35,0.35,0.35,0.349,0.349,0.349,0.349,0.349,0.0,0.0,0.0,0.0,0.0,0.0,0.0,0.0,0.0,0.0,0.0,0.0,0.0,0.0,0.0,0.0,0.0,0.0,0.0,0.0,0.0,0.0,0.0,0.0,0.0,0.0,0.0,0.0,0.0,0.0,0.0,0.0,0.0,0.0,0.0,0.0,0.0,0.0,0.0,0.0,0.0
0.554,0.554,0.554,0.553,0.552,0.552,0.551,0.55,0.549,0.549,0.548,0.548,0.547,0.547,0.547,0.546,0.546,0.546,0.545,0.544,0.544,0.543,0.543,0.542,0.541,0.541,0.54,0.54,0.539,0.538,0.538,0.537,0.536,0.535,0.534,0.533,0.532,0.532,0.531,0.531,0.531,0.53,0.529,0.528,0.528,0.527,0.526,0.525,0.525,0.524,0.524,0.523,0.523,0.523,0.522,0.522,0.522,0.521,0.519,0.519,0.518,0.517,0.516,0.516,0.516,0.515,0.514,0.514,0.514,0.513,0.512,0.511,0.511,0.511,0.51,0.51,0.509,0.509,0.509,0.509,0.508,0.507,0.507,0.506,0.504,0.504,0.503,0.502,0.502,0.502,0.502,0.501,0.501,0.501,0.5,0.499,0.498,0.498,0.497,0.497,0.497,0.496,0.496,0.496,0.495,0.495,0.495,0.494,0.494,0.492,0.491,0.491,0.49,0.489,0.489,0.489,0.488,0.488,0.488,0.487,0.487,0.487,0.487,0.486,0.486,0.485,0.484,0.484,0.483,0.483,0.482,0.482,0.482,0.482,0.481,0.481,0.481,0.481,0.48,0.48,0.479,0.479,0.478,0.477,0.476,0.476,0.476,0.475,0.475,0.475,0.475,0.474,0.475,0.0,0.0,0.0,0.0,0.0,0.0,0.0,0.0,0.0,0.0,0.0,0.0,0.0,0.0,0.328,0.328,0.327,0.327,0.327,0.326,0.326,0.326,0.326,0.324,0.324,0.324,0.323,0.323,0.323,0.322,0.322,0.321,0.32,0.32,0.32,0.32,0.32,0.319,0.319,0.319,0.319,0.319,0.319,0.319,0.319,0.319,0.319,0.319,0.319,0.319,0.319,0.319,0.319,0.319,0.319,0.319,0.32,0.32,0.32,0.32,0.32,0.32,0.321,0.321,0.321,0.321,0.321,0.321625,0.322,0.322,0.323,0.323,0.323,0.323,0.323,0.323,0.323,0.323,0.323,0.323,0.323,0.323,0.323,0.323,0.323,0.323,0.323,0.323,0.323,0.324,0.324,0.324,0.324,0.324,0.325,0.325,0.325,0.326,0.326,0.326,0.326,0.326,0.326,0.326,0.326,0.327,0.327,0.327,0.327,0.327,0.3275,0.328,0.328,0.328,0.328,0.328,0.328,0.328,0.329,0.329,0.329,0.329,0.329,0.329,0.329,0.33,0.33,0.33,0.33,0.33,0.331,0.331,0.331,0.331,0.331,0.331,0.332,0.332,0.332,0.332,0.332,0.332,0.332,0.332,0.332,0.3325,0.333,0.333,0.333,0.333,0.334,0.334,0.335,0.335,0.335,0.335,0.335,0.335,0.336,0.336,0.337,0.337,0.33725000000000005,0.338,0.338,0.338,0.339,0.339,0.34,0.341,0.342,0.342,0.343,0.3435,0.344,0.345,0.345,0.347,0.348,0.348625,0.349,0.3505,0.352125,0.354,0.354,0.3545,0.355,0.355,0.356,0.356,0.357,0.358,0.358,0.359,0.359,0.36,0.361,0.362,0.0,0.0,0.0,0.0,0.0,0.0,0.0,0.0,0.392,0.392,0.392,0.392,0.392,0.392,0.391,0.391,0.391,0.391,0.39,0.39,0.39,0.389,0.389,0.389,0.389,0.389,0.389,0.389,0.388,0.388,0.388,0.387,0.387,0.387,0.386,0.386,0.386,0.385,0.385,0.385,0.385,0.385,0.384,0.384,0.384,0.383,0.382,0.382,0.382,0.381,0.381,0.381,0.381,0.381,0.38,0.38,0.379,0.379,0.378,0.378,0.377,0.377,0.377,0.377,0.377,0.377,0.377,0.376,0.376,0.376,0.375,0.375,0.374,0.374,0.373,0.373,0.373,0.373,0.373,0.373,0.373,0.372,0.372,0.372,0.371,0.371,0.371,0.371,0.37,0.37,0.37,0.37,0.37,0.369,0.369,0.369,0.369,0.369,0.369,0.369,0.368,0.368,0.368,0.367,0.367,0.367,0.366,0.366,0.365,0.365,0.365,0.364,0.3635,0.363375,0.363,0.363,0.363,0.363,0.363,0.363,0.362,0.362,0.362,0.362,0.361,0.361,0.36,0.36,0.359,0.359,0.358,0.358,0.358,0.358,0.357,0.357,0.357,0.356,0.356,0.356,0.355,0.356,0.355,0.355,0.355,0.355,0.355,0.354,0.354,0.354,0.353,0.353,0.353,0.352,0.352,0.352,0.351,0.351,0.351,0.351,0.351,0.35,0.35,0.35,0.349,0.349,0.349,0.349,0.349,0.348,0.348,0.348,0.348,0.348,0.348,0.0,0.0,0.0,0.0,0.0,0.0,0.0,0.0,0.0,0.0,0.0,0.0,0.0,0.0,0.0,0.0,0.0,0.0,0.0,0.0,0.0,0.0,0.0,0.0,0.0,0.0,0.0,0.0,0.0,0.0,0.0,0.0,0.0,0.0,0.0,0.0,0.0,0.0,0.0,0.0
0.552,0.551,0.551,0.55,0.549,0.549,0.548,0.548,0.547,0.547,0.547,0.547,0.546,0.545,0.545,0.544,0.544,0.543,0.543,0.542,0.542,0.541,0.54,0.54,0.54,0.539,0.539,0.539,0.537,0.536,0.535,0.534,0.533,0.532,0.532,0.531,0.531,0.531,0.53,0.529,0.529,0.528,0.527,0.526,0.525,0.525,0.524,0.524,0.523,0.523,0.523,0.522,0.522,0.521,0.521,0.52,0.519,0.519,0.518,0.517,0.516,0.516,0.516,0.515,0.514,0.513,0.512,0.511,0.511,0.511,0.51,0.51,0.509,0.509,0.509,0.509,0.508,0.508,0.508,0.507,0.506,0.505,0.504,0.503,0.503,0.502,0.502,0.502,0.501,0.501,0.5,0.5,0.499,0.499,0.498,0.497,0.497,0.496,0.496,0.496,0.495,0.495,0.495,0.495,0.495,0.494,0.493,0.492,0.491,0.49,0.49,0.489,0.489,0.489,0.488,0.488,0.487,0.487,0.486,0.486,0.485,0.485,0.485,0.485,0.484,0.483,0.483,0.482,0.482,0.482,0.481,0.481,0.481,0.48,0.48,0.48,0.478,0.478,0.478,0.477,0.477,0.477,0.476,0.476,0.476,0.475,0.475,0.474,0.473,0.473,0.473,0.473,0.0,0.0,0.0,0.0,0.0,0.0,0.0,0.0,0.0,0.0,0.0,0.0,0.0,0.0,0.329,0.328,0.328,0.327,0.327,0.327,0.326,0.326,0.326,0.325,0.324,0.324,0.323,0.323,0.323,0.322,0.321,0.321,0.32,0.32,0.32,0.32,0.319,0.319,0.319,0.319,0.319,0.319,0.319,0.319,0.319,0.319,0.319,0.319,0.319,0.319,0.32,0.319,0.32,0.319,0.32,0.32,0.32,0.32,0.32,0.32,0.32,0.32,0.32,0.321,0.321,0.321,0.321,0.3215,0.322,0.322,0.322,0.323,0.323,0.323,0.323,0.323,0.323,0.323,0.323,0.323,0.323,0.323,0.323,0.323,0.323,0.323,0.323,0.323,0.324,0.324,0.324,0.324,0.324,0.324,0.325,0.325,0.325,0.326,0.326,0.326,0.326,0.326,0.326,0.327,0.327,0.327,0.327,0.327,0.327,0.3275,0.328,0.328,0.328,0.328,0.329,0.329,0.329,0.329,0.329,0.329,0.329,0.329,0.329,0.329,0.33,0.33,0.33,0.33,0.331,0.331,0.331,0.331,0.331,0.332,0.332,0.332,0.332,0.332,0.332,0.332,0.332,0.332,0.332,0.332,0.3325,0.333,0.333,0.333,0.334,0.334,0.334,0.335,0.335,0.335,0.335,0.335,0.336,0.336,0.336,0.337,0.337,0.3375,0.338,0.338,0.339,0.339,0.339,0.34,0.341,0.341,0.342,0.343,0.34324999999999994,0.344,0.345,0.345,0.346,0.347,0.0,0.349,0.35,0.351,0.352,0.354,0.3545,0.355,0.355,0.356,0.356,0.356,0.357,0.357,0.358,0.358,0.359,0.359,0.36,0.361,0.0,0.0,0.0,0.0,0.391,0.3915,0.392,0.392,0.392,0.392,0.392,0.392,0.392,0.392,0.391,0.391,0.39,0.39,0.39,0.39,0.389,0.389,0.389,0.389,0.389,0.389,0.388,0.388,0.388,0.387,0.387,0.386,0.386,0.386,0.386,0.385,0.385,0.385,0.385,0.384,0.384,0.384,0.383,0.383,0.382,0.382,0.382,0.381,0.381,0.381,0.381,0.381,0.38,0.38,0.379,0.379,0.378,0.378,0.377,0.377,0.377,0.377,0.377,0.377,0.376,0.376,0.376,0.376,0.375,0.375,0.374,0.374,0.374,0.373,0.373,0.373,0.373,0.373,0.373,0.372,0.372,0.372,0.371,0.371,0.37,0.37,0.37,0.37,0.369,0.369,0.369,0.369,0.369,0.369,0.369,0.369,0.369,0.369,0.368,0.368,0.368,0.367,0.367,0.366,0.366,0.366,0.366,0.365,0.365,0.364,0.364,0.363,0.363,0.362,0.362,0.362,0.362,0.362,0.362,0.362,0.362,0.362,0.362,0.361,0.361,0.36,0.359,0.359,0.359,0.359,0.358,0.358,0.358,0.357,0.357,0.357,0.356,0.356,0.355,0.355,0.355,0.355,0.355,0.355,0.355,0.354,0.354,0.354,0.353,0.353,0.353,0.352,0.352,0.352,0.352,0.351,0.351,0.351,0.351,0.35,0.35,0.35,0.349,0.349,0.349,0.349,0.348,0.348,0.348,0.348,0.348,0.348,0.348,0.348,0.348,0.347,0.0,0.0,0.0,0.0,0.0,0.0,0.0,0.0,0.0,0.0,0.0,0.0,0.0,0.0,0.0,0.0,0.0,0.0,0.0,0.0,0.0,0.0,0.0,0.0,0.0,0.0,0.0,0.0,0.0,0.0,0.0,0.0,0.0,0.0,0.0,0.0,0.0,0.0,0.0,0.0
0.549,0.549,0.548,0.548,0.548,0.547,0.547,0.547,0.546,0.546,0.544,0.544,0.543,0.543,0.543,0.542,0.542,0.541,0.541,0.54,0.54,0.54,0.539,0.539,0.538,0.538,0.537,0.536,0.535,0.533,0.533,0.532,0.531,0.531,0.531,0.53,0.53,0.528,0.527,0.527,0.526,0.526,0.525,0.524,0.524,0.524,0.523,0.523,0.522,0.522,0.52,0.519,0.519,0.519,0.518,0.518,0.517,0.517,0.516,0.516,0.516,0.515,0.514,0.512,0.511,0.51,0.51,0.51,0.509,0.509,0.509,0.509,0.508,0.508,0.508,0.507,0.507,0.506,0.505,0.504,0.504,0.503,0.502,0.502,0.502,0.502,0.501,0.5,0.5,0.499,0.498,0.498,0.497,0.497,0.496,0.496,0.495,0.495,0.495,0.495,0.495,0.494,0.494,0.493,0.493,0.491,0.491,0.49,0.49,0.489,0.489,0.488,0.488,0.488,0.487,0.487,0.486,0.485,0.484,0.484,0.484,0.483,0.483,0.483,0.482,0.482,0.482,0.481,0.481,0.48,0.48,0.479,0.479,0.478,0.478,0.477,0.477,0.476,0.476,0.476,0.476,0.476,0.475,0.475,0.475,0.474,0.473,0.472,0.472,0.472,0.471,0.471,0.0,0.0,0.0,0.0,0.0,0.0,0.0,0.0,0.0,0.0,0.0,0.0,0.0,0.0,0.328,0.328,0.3275,0.327,0.327,0.326,0.326,0.326,0.325,0.324,0.324,0.323,0.323,0.323,0.322,0.321,0.321,0.32,0.32,0.32,0.32,0.32,0.319,0.319,0.319,0.319,0.318,0.319,0.319,0.319,0.319,0.319,0.32,0.32,0.32,0.32,0.32,0.32,0.32,0.32,0.32,0.32,0.32,0.32,0.32,0.32,0.32,0.321,0.321,0.321,0.321,0.321,0.321,0.3215,0.322,0.322,0.322,0.323,0.323,0.323,0.323,0.323,0.323,0.323,0.323,0.323,0.323,0.323,0.323,0.323,0.323,0.324,0.324,0.324,0.324,0.324,0.324,0.324,0.324,0.325,0.325,0.326,0.326,0.326,0.326,0.326,0.326,0.327,0.327,0.327,0.327,0.327,0.327,0.3275,0.328,0.328,0.328,0.328,0.329,0.329,0.329,0.329,0.329,0.329,0.329,0.329,0.33,0.33,0.33,0.33,0.33,0.33,0.331,0.331,0.331,0.331,0.331,0.332,0.332,0.332,0.332,0.332,0.332,0.332,0.332,0.3325,0.333,0.333,0.333,0.333,0.333,0.333,0.334,0.334,0.334,0.335,0.335,0.335,0.335,0.335,0.336,0.336,0.336,0.337,0.337,0.3375,0.338,0.338,0.338,0.339,0.339,0.339,0.34,0.341,0.341,0.342,0.343,0.3435,0.344,0.345,0.345,0.3465,0.347,0.0,0.0,0.35,0.351,0.352,0.354,0.3545,0.355,0.356,0.356,0.357,0.357,0.357,0.358,0.358,0.358,0.358,0.0,0.0,0.0,0.0,0.0,0.0,0.0,0.0,0.0,0.0,0.3915,0.392,0.392,0.392,0.392,0.391,0.391,0.391,0.391,0.391,0.39,0.39,0.39,0.389,0.389,0.389,0.389,0.389,0.388,0.388,0.388,0.387,0.386,0.386,0.386,0.386,0.385,0.385,0.385,0.385,0.385,0.384,0.384,0.383,0.383,0.383,0.382,0.382,0.382,0.381,0.381,0.381,0.381,0.381,0.38,0.38,0.379,0.379,0.378,0.378,0.377,0.377,0.377,0.377,0.377,0.376,0.376,0.376,0.376,0.375,0.375,0.374,0.374,0.374,0.373,0.373,0.373,0.373,0.373,0.372,0.372,0.372,0.371,0.371,0.371,0.37,0.37,0.37,0.369,0.369,0.369,0.369,0.369,0.369,0.369,0.369,0.369,0.368,0.368,0.368,0.367,0.367,0.367,0.367,0.366,0.366,0.366,0.366,0.366,0.365,0.365,0.364,0.364,0.363,0.363,0.362,0.362,0.362,0.362,0.361,0.36124999999999996,0.362,0.362,0.361,0.361,0.361,0.36,0.36,0.359,0.359,0.359,0.358,0.358,0.358,0.358,0.357,0.357,0.356,0.356,0.356,0.355,0.355,0.355,0.355,0.355,0.355,0.354,0.354,0.354,0.353,0.353,0.352,0.352,0.352,0.352,0.352,0.351,0.351,0.351,0.351,0.35,0.35,0.35,0.35,0.349,0.349,0.349,0.349,0.348,0.348,0.348,0.348,0.348,0.348,0.347,0.347,0.347,0.347,0.347,0.346,0.0,0.0,0.0,0.0,0.0,0.0,0.0,0.0,0.0,0.0,0.0,0.0,0.0,0.0,0.0,0.0,0.0,0.0,0.0,0.0,0.0,0.0,0.0,0.0,0.0,0.0,0.0,0.0,0.0,0.0,0.0,0.0,0.0,0.0,0.0,0.0,0.0,0.0,0.0,0.0
0.548,0.547,0.547,0.547,0.547,0.546,0.546,0.544,0.543,0.542,0.542,0.541,0.541,0.54,0.54,0.54,0.54,0.539,0.539,0.539,0.539,0.538,0.538,0.536,0.535,0.535,0.534,0.533,0.532,0.532,0.531,0.531,0.53,0.53,0.529,0.527,0.526,0.525,0.525,0.525,0.524,0.524,0.524,0.523,0.523,0.522,0.522,0.521,0.519,0.518,0.518,0.517,0.517,0.517,0.517,0.516,0.516,0.516,0.516,0.515,0.514,0.512,0.511,0.51,0.509,0.509,0.509,0.509,0.509,0.508,0.508,0.507,0.507,0.506,0.505,0.504,0.504,0.504,0.503,0.503,0.502,0.502,0.502,0.501,0.501,0.5,0.5,0.499,0.498,0.497,0.496,0.496,0.496,0.495,0.495,0.495,0.495,0.494,0.494,0.493,0.493,0.491,0.491,0.491,0.49,0.49,0.489,0.489,0.488,0.488,0.488,0.487,0.487,0.486,0.486,0.484,0.484,0.483,0.483,0.483,0.482,0.482,0.482,0.482,0.481,0.481,0.48,0.48,0.479,0.478,0.477,0.477,0.477,0.476,0.476,0.476,0.476,0.475,0.475,0.475,0.475,0.475,0.474,0.474,0.473,0.472,0.471,0.471,0.471,0.47,0.47,0.0,0.0,0.0,0.0,0.0,0.0,0.0,0.0,0.0,0.0,0.0,0.0,0.0,0.0,0.329,0.328,0.328,0.327,0.327,0.326,0.326,0.326,0.326,0.324,0.324,0.323,0.323,0.323,0.322,0.322,0.321,0.321,0.32,0.32,0.32,0.319,0.319,0.319,0.319,0.318,0.318,0.318,0.319,0.319,0.319,0.319,0.319,0.32,0.32,0.32,0.32,0.32,0.32,0.32,0.32,0.32,0.32,0.32,0.32,0.32,0.321,0.32,0.321,0.321,0.321,0.321,0.321,0.321,0.3215,0.322,0.322,0.322,0.322,0.323,0.323,0.323,0.323,0.323,0.323,0.323,0.323,0.323,0.324,0.324,0.324,0.324,0.324,0.324,0.324,0.324,0.324,0.324,0.325,0.325,0.325,0.326,0.326,0.326,0.326,0.326,0.327,0.327,0.327,0.327,0.327,0.3275,0.328,0.328,0.328,0.328,0.329,0.329,0.329,0.329,0.329,0.329,0.329,0.33,0.33,0.33,0.33,0.33,0.33,0.33,0.331,0.331,0.331,0.331,0.331,0.332,0.332,0.332,0.332,0.332,0.332,0.332,0.3325,0.333,0.333,0.333,0.333,0.333,0.334,0.334,0.334,0.334,0.335,0.335,0.335,0.335,0.335,0.335,0.336,0.336,0.336,0.337,0.337,0.337,0.3375,0.338,0.338,0.338,0.339,0.339,0.34,0.34,0.341,0.341,0.342,0.342,0.3425,0.343,0.344,0.345,0.345,0.346,0.348,0.348,0.349,0.35,0.352,0.353,0.35375,0.355,0.355,0.356,0.357,0.357,0.358,0.358,0.358,0.358,0.358,0.0,0.0,0.0,0.0,0.0,0.0,0.0,0.0,0.391,0.0,0.0,0.0,0.391,0.391,0.391,0.391,0.391,0.391,0.39,0.39,0.39,0.39,0.39,0.389,0.389,0.389,0.389,0.388,0.388,0.388,0.387,0.386,0.386,0.386,0.385,0.385,0.385,0.385,0.385,0.385,0.385,0.384,0.384,0.383,0.383,0.382,0.382,0.382,0.381,0.381,0.381,0.381,0.381,0.38,0.38,0.38,0.379,0.378,0.378,0.378,0.377,0.377,0.377,0.37649999999999995,0.376,0.376,0.376,0.375,0.375,0.375,0.374,0.374,0.374,0.373,0.373,0.373,0.373,0.372,0.372,0.372,0.372,0.371,0.371,0.37,0.37,0.37,0.37,0.369,0.369,0.369,0.369,0.369,0.368,0.368,0.368,0.368,0.368,0.367,0.367,0.367,0.367,0.366,0.366,0.366,0.366,0.366,0.366,0.365,0.365,0.365,0.364,0.364,0.363,0.363,0.363,0.362,0.362,0.362,0.362,0.361,0.361,0.36,0.36,0.361,0.361,0.36,0.36,0.36,0.359,0.359,0.359,0.358,0.358,0.357,0.357,0.357,0.356,0.356,0.355,0.355,0.355,0.355,0.355,0.355,0.355,0.354,0.354,0.354,0.353,0.353,0.352,0.352,0.352,0.352,0.352,0.351,0.351,0.351,0.351,0.35,0.35,0.35,0.35,0.349,0.349,0.349,0.348,0.348,0.348,0.348,0.348,0.348,0.347,0.347,0.347,0.347,0.346,0.346,0.345,0.345,0.345,0.345,0.0,0.0,0.0,0.0,0.0,0.0,0.0,0.0,0.0,0.0,0.0,0.0,0.0,0.0,0.0,0.0,0.0,0.0,0.0,0.0,0.0,0.0,0.0,0.0,0.0,0.0,0.0,0.0,0.0,0.0,0.0,0.0,0.0,0.0,0.0,0.0,0.0,0.0,0.0,0.0
0.547,0.546,0.546,0.545,0.544,0.543,0.542,0.541,0.541,0.54,0.54,0.539,0.539,0.539,0.539,0.539,0.539,0.538,0.538,0.538,0.537,0.536,0.535,0.534,0.533,0.532,0.532,0.531,0.531,0.531,0.53,0.529,0.528,0.527,0.526,0.525,0.524,0.524,0.524,0.523,0.523,0.523,0.523,0.522,0.521,0.519,0.519,0.518,0.517,0.517,0.516,0.516,0.516,0.516,0.516,0.516,0.516,0.515,0.514,0.511,0.511,0.51,0.509,0.509,0.508,0.508,0.508,0.507,0.507,0.507,0.506,0.505,0.504,0.504,0.503,0.503,0.502,0.502,0.502,0.502,0.501,0.501,0.5,0.5,0.499,0.497,0.497,0.496,0.496,0.496,0.495,0.495,0.495,0.495,0.494,0.493,0.493,0.492,0.492,0.49,0.49,0.49,0.489,0.489,0.489,0.488,0.488,0.488,0.488,0.487,0.487,0.486,0.485,0.485,0.484,0.483,0.483,0.482,0.482,0.482,0.482,0.482,0.481,0.481,0.48,0.479,0.478,0.478,0.476,0.476,0.476,0.476,0.476,0.475,0.475,0.475,0.474,0.474,0.473,0.473,0.473,0.472,0.472,0.471,0.471,0.47,0.47,0.47,0.47,0.469,0.469,0.0,0.0,0.0,0.0,0.0,0.0,0.0,0.0,0.0,0.0,0.0,0.0,0.331,0.33,0.329,0.328,0.327,0.327,0.327,0.326,0.326,0.326,0.325,0.324,0.324,0.323,0.323,0.322,0.322,0.321,0.321,0.32,0.32,0.32,0.32,0.319,0.319,0.319,0.318,0.318,0.318,0.318,0.318,0.319,0.319,0.319,0.319,0.32,0.32,0.32,0.32,0.32,0.32,0.32,0.32,0.32,0.32,0.32,0.321,0.321,0.321,0.321,0.321,0.321,0.321,0.321,0.321,0.321,0.3215,0.322,0.322,0.322,0.322,0.323,0.323,0.323,0.323,0.323,0.323,0.324,0.324,0.324,0.324,0.324,0.324,0.324,0.324,0.324,0.324,0.325,0.325,0.325,0.325,0.325,0.326,0.326,0.326,0.326,0.326,0.327,0.327,0.327,0.327,0.3275,0.328,0.328,0.328,0.329,0.329,0.329,0.329,0.329,0.329,0.329,0.33,0.33,0.33,0.33,0.33,0.33,0.33,0.331,0.331,0.331,0.331,0.331,0.332,0.332,0.332,0.332,0.332,0.332,0.332,0.3325,0.333,0.333,0.333,0.333,0.334,0.334,0.334,0.334,0.335,0.335,0.335,0.335,0.335,0.335,0.335,0.336,0.336,0.336,0.336,0.337,0.337,0.3375,0.338,0.338,0.338,0.338,0.339,0.339,0.339,0.34,0.341,0.341,0.341,0.342,0.342,0.3425,0.343,0.344,0.345,0.345,0.346,0.348,0.3485,0.349,0.35,0.352,0.353,0.354,0.355,0.355,0.356,0.357,0.357,0.358,0.358,0.358,0.358,0.358,0.358,0.0,0.0,0.0,0.0,0.0,0.0,0.39,0.391,0.391,0.391,0.391,0.391,0.391,0.391,0.391,0.39,0.39,0.39,0.39,0.39,0.39,0.389,0.389,0.389,0.389,0.389,0.388,0.388,0.386,0.386,0.386,0.385,0.385,0.385,0.385,0.385,0.385,0.384,0.384,0.384,0.384,0.383,0.383,0.382,0.381,0.381,0.381,0.381,0.381,0.381,0.381,0.38,0.38,0.379,0.379,0.379,0.378,0.377,0.377,0.377,0.377,0.376,0.376,0.376,0.375,0.375,0.374,0.374,0.374,0.373,0.373,0.373,0.373,0.373,0.373,0.372,0.372,0.372,0.371,0.371,0.371,0.37,0.37,0.37,0.369,0.369,0.369,0.369,0.369,0.368,0.368,0.368,0.367,0.367,0.367,0.367,0.366,0.366,0.366,0.366,0.366,0.366,0.365,0.365,0.365,0.365,0.364,0.364,0.364,0.363,0.363,0.363,0.362,0.362,0.362,0.362,0.361,0.361,0.36,0.36,0.359,0.359,0.359,0.359,0.359,0.359,0.359,0.359,0.3585,0.357875,0.357,0.357,0.356,0.356,0.356,0.355,0.355,0.355,0.355,0.355,0.355,0.355,0.354,0.354,0.353,0.353,0.353,0.352,0.352,0.352,0.352,0.351,0.351,0.351,0.351,0.351,0.351,0.35,0.35,0.349,0.349,0.349,0.349,0.348,0.348,0.348,0.348,0.348,0.348,0.348,0.347,0.346,0.346,0.346,0.346,0.346,0.345,0.345,0.345,0.345,0.345,0.345,0.0,0.0,0.0,0.0,0.0,0.0,0.0,0.0,0.0,0.0,0.0,0.0,0.0,0.0,0.0,0.0,0.0,0.0,0.0,0.0,0.0,0.0,0.0,0.0,0.0,0.0,0.0,0.0,0.0,0.0,0.0,0.0,0.0,0.0,0.0,0.0,0.0,0.0,0.0,0.0
0.545,0.544,0.543,0.542,0.541,0.541,0.54,0.54,0.539,0.539,0.539,0.538,0.538,0.538,0.538,0.537,0.537,0.536,0.535,0.534,0.533,0.533,0.532,0.532,0.531,0.531,0.531,0.53,0.53,0.529,0.528,0.525,0.525,0.524,0.524,0.524,0.523,0.523,0.523,0.522,0.522,0.522,0.521,0.52,0.518,0.517,0.517,0.516,0.516,0.516,0.516,0.515,0.515,0.515,0.514,0.514,0.514,0.511,0.51,0.509,0.509,0.509,0.508,0.508,0.507,0.506,0.506,0.505,0.505,0.504,0.503,0.503,0.503,0.502,0.502,0.502,0.502,0.501,0.501,0.501,0.5,0.5,0.499,0.497,0.497,0.496,0.496,0.495,0.495,0.495,0.494,0.494,0.493,0.493,0.492,0.491,0.491,0.49,0.489,0.489,0.489,0.488,0.488,0.488,0.488,0.487,0.487,0.486,0.486,0.485,0.485,0.483,0.483,0.483,0.482,0.482,0.482,0.482,0.482,0.481,0.481,0.481,0.48,0.479,0.478,0.477,0.476,0.476,0.476,0.475,0.475,0.475,0.475,0.474,0.474,0.473,0.472,0.472,0.471,0.471,0.47,0.47,0.47,0.47,0.469,0.469,0.469,0.469,0.469,0.469,0.46799999999999997,0.0,0.0,0.0,0.0,0.0,0.0,0.0,0.0,0.0,0.0,0.0,0.332,0.33075000000000004,0.33,0.329,0.328,0.327,0.327,0.326,0.326,0.326,0.326,0.324,0.324,0.323,0.323,0.323,0.322,0.321,0.321,0.32,0.32,0.32,0.32,0.319,0.319,0.319,0.319,0.318,0.318,0.318,0.318,0.318,0.319,0.319,0.319,0.32,0.32,0.32,0.32,0.321,0.321,0.321,0.321,0.321,0.321,0.321,0.321,0.321,0.321,0.321,0.321,0.321,0.321,0.321,0.321,0.321,0.321,0.3215,0.322,0.322,0.322,0.322,0.323,0.323,0.323,0.323,0.323,0.324,0.324,0.324,0.324,0.324,0.324,0.324,0.324,0.325,0.325,0.325,0.325,0.325,0.326,0.326,0.326,0.326,0.326,0.326,0.327,0.327,0.327,0.3275,0.328,0.328,0.328,0.328,0.329,0.329,0.329,0.329,0.329,0.329,0.33,0.33,0.33,0.33,0.33,0.33,0.331,0.331,0.331,0.331,0.331,0.332,0.332,0.332,0.332,0.332,0.332,0.332,0.332,0.3325,0.333,0.333,0.333,0.333,0.333,0.334,0.334,0.334,0.335,0.335,0.335,0.335,0.335,0.335,0.335,0.336,0.336,0.336,0.336,0.337,0.337,0.337,0.3375,0.338,0.338,0.338,0.338,0.339,0.339,0.34,0.34,0.34,0.341,0.341,0.342,0.342,0.342,0.34275,0.343,0.344,0.345,0.346,0.347,0.0,0.349,0.349,0.351,0.352,0.353,0.354,0.355,0.355,0.356,0.357,0.358,0.358,0.358,0.358,0.358,0.358,0.0,0.0,0.0,0.0,0.0,0.0,0.0,0.39,0.39,0.39,0.39,0.39,0.39,0.39,0.39,0.39,0.39,0.39,0.39,0.389,0.389,0.389,0.389,0.389,0.389,0.389,0.388,0.388,0.386,0.386,0.385,0.385,0.385,0.385,0.385,0.385,0.384,0.384,0.384,0.383,0.383,0.383,0.382,0.382,0.381,0.381,0.381,0.381,0.381,0.381,0.38,0.38,0.38,0.379,0.379,0.378,0.378,0.377,0.377,0.377,0.377,0.376,0.376,0.375,0.374,0.374,0.374,0.373,0.373,0.373,0.373,0.373,0.373,0.373,0.372,0.372,0.372,0.371,0.371,0.37,0.37,0.37,0.37,0.37,0.369,0.369,0.369,0.369,0.369,0.368,0.367,0.367,0.367,0.367,0.367,0.366,0.366,0.366,0.366,0.366,0.366,0.365,0.365,0.364,0.364,0.364,0.364,0.363,0.363,0.363,0.362,0.362,0.362,0.362,0.362,0.362,0.361,0.36,0.36,0.36,0.359,0.359,0.359,0.359,0.359,0.359,0.359,0.358,0.358,0.358,0.358,0.357,0.356,0.356,0.355,0.355,0.355,0.355,0.355,0.355,0.355,0.354,0.354,0.353,0.353,0.353,0.352,0.352,0.352,0.352,0.351,0.351,0.351,0.351,0.351,0.35,0.35,0.35,0.349,0.349,0.349,0.349,0.348,0.348,0.348,0.348,0.348,0.348,0.347,0.347,0.347,0.346,0.346,0.346,0.345,0.345,0.345,0.345,0.345,0.345,0.345,0.345,0.345,0.3445,0.0,0.0,0.0,0.0,0.0,0.0,0.0,0.0,0.0,0.0,0.0,0.0,0.0,0.0,0.0,0.0,0.0,0.0,0.0,0.0,0.0,0.0,0.0,0.0,0.0,0.0,0.0,0.0,0.0,0.0,0.0,0.0,0.0,0.0,0.0,0.0,0.0,0.0,0.0,0.0
0.541,0.541,0.54,0.54,0.539,0.539,0.539,0.539,0.538,0.538,0.537,0.537,0.536,0.535,0.535,0.535,0.533,0.533,0.532,0.532,0.531,0.531,0.531,0.531,0.53,0.53,0.529,0.528,0.527,0.525,0.524,0.524,0.524,0.523,0.523,0.523,0.522,0.522,0.521,0.521,0.519,0.519,0.517,0.517,0.516,0.516,0.516,0.516,0.515,0.515,0.514,0.514,0.513,0.513,0.512,0.512,0.51,0.51,0.509,0.509,0.508,0.508,0.507,0.506,0.505,0.504,0.504,0.503,0.503,0.502,0.502,0.502,0.502,0.502,0.501,0.501,0.501,0.5,0.5,0.499,0.498,0.497,0.496,0.496,0.496,0.495,0.495,0.495,0.494,0.494,0.493,0.492,0.491,0.491,0.49,0.489,0.489,0.489,0.488,0.488,0.488,0.487,0.487,0.487,0.486,0.485,0.485,0.484,0.483,0.483,0.482,0.482,0.482,0.482,0.482,0.482,0.481,0.481,0.481,0.48,0.48,0.479,0.478,0.477,0.476,0.476,0.475,0.475,0.475,0.474,0.474,0.473,0.473,0.472,0.471,0.471,0.47,0.47,0.47,0.469,0.469,0.469,0.469,0.468,0.468,0.467,0.467,0.467,0.466,0.467,0.467,0.0,0.0,0.0,0.0,0.0,0.0,0.0,0.0,0.0,0.0,0.0,0.3315,0.33,0.3295,0.329,0.328,0.327,0.326,0.326,0.326,0.326,0.326,0.324,0.324,0.323,0.323,0.323,0.322,0.321,0.321,0.32,0.32,0.32,0.319,0.319,0.319,0.319,0.318,0.318,0.0,0.0,0.318,0.318,0.319,0.319,0.32,0.32,0.32,0.32,0.321,0.321,0.321,0.321,0.321,0.321,0.321,0.321,0.321,0.321,0.321,0.321,0.321,0.321,0.321,0.321,0.321,0.321,0.321,0.321625,0.322,0.322,0.322,0.323,0.323,0.323,0.323,0.323,0.324,0.324,0.324,0.324,0.324,0.324,0.324,0.325,0.325,0.325,0.325,0.326,0.326,0.326,0.326,0.326,0.326,0.326,0.326,0.327,0.327,0.327,0.3275,0.328,0.328,0.328,0.329,0.329,0.329,0.329,0.329,0.329,0.33,0.33,0.33,0.33,0.331,0.331,0.331,0.331,0.331,0.332,0.332,0.332,0.332,0.332,0.332,0.332,0.332,0.332,0.3325,0.333,0.333,0.333,0.333,0.333,0.333,0.334,0.334,0.334,0.335,0.335,0.335,0.335,0.335,0.335,0.336,0.336,0.336,0.336,0.337,0.337,0.337,0.3375,0.338,0.338,0.338,0.338,0.338,0.339,0.339,0.34,0.34,0.341,0.341,0.341,0.342,0.342,0.34299999999999997,0.34299999999999997,0.3435,0.344,0.345,0.345,0.346,0.348,0.348,0.349,0.35,0.351,0.352,0.353,0.354,0.355,0.355,0.357,0.358,0.358,0.358,0.358,0.359,0.359,0.359,0.0,0.0,0.0,0.0,0.0,0.0,0.389,0.39,0.39,0.389,0.39,0.39,0.39,0.389,0.389,0.389,0.389,0.389,0.389,0.389,0.389,0.389,0.389,0.389,0.388,0.388,0.387,0.386,0.386,0.385,0.385,0.385,0.385,0.384,0.384,0.384,0.384,0.383,0.383,0.382,0.382,0.382,0.382,0.381,0.381,0.381,0.381,0.38,0.38,0.38,0.38,0.379,0.379,0.378,0.378,0.377,0.377,0.377,0.377,0.376,0.376,0.376,0.375,0.374,0.374,0.373,0.373,0.373,0.373,0.373,0.373,0.373,0.373,0.372,0.371,0.371,0.371,0.37,0.37,0.37,0.37,0.37,0.369,0.369,0.369,0.369,0.369,0.368,0.367,0.367,0.367,0.366,0.366,0.366,0.366,0.366,0.366,0.366,0.366,0.365,0.365,0.365,0.364,0.364,0.363,0.363,0.363,0.362,0.362,0.362,0.362,0.362,0.362,0.361,0.361,0.361,0.36,0.359,0.359,0.359,0.359,0.359,0.358,0.358,0.358,0.358,0.358,0.358,0.358,0.357,0.356,0.356,0.355,0.355,0.355,0.355,0.355,0.355,0.354,0.354,0.354,0.354,0.353,0.353,0.352,0.352,0.352,0.3515,0.351,0.351,0.351,0.351,0.351,0.35,0.35,0.349,0.349,0.349,0.349,0.349,0.348,0.348,0.348,0.348,0.348,0.348,0.348,0.347,0.347,0.346,0.346,0.346,0.345,0.345,0.345,0.345,0.345,0.345,0.345,0.344,0.344,0.344,0.344,0.344,0.344,0.0,0.0,0.0,0.0,0.0,0.0,0.0,0.0,0.0,0.0,0.0,0.0,0.0,0.0,0.0,0.0,0.0,0.0,0.0,0.0,0.0,0.0,0.0,0.0,0.0,0.0,0.0,0.0,0.0,0.0,0.0,0.0,0.0,0.0,0.0,0.0,0.0,0.0,0.0,0.0
0.54,0.539,0.539,0.539,0.538,0.538,0.538,0.537,0.536,0.535,0.535,0.534,0.534,0.533,0.532,0.532,0.531,0.531,0.531,0.531,0.53,0.53,0.529,0.529,0.528,0.527,0.525,0.524,0.524,0.524,0.523,0.523,0.523,0.522,0.522,0.521,0.52,0.52,0.519,0.518,0.517,0.516,0.516,0.516,0.516,0.515,0.514,0.514,0.514,0.513,0.512,0.511,0.511,0.51,0.51,0.509,0.509,0.509,0.508,0.507,0.507,0.506,0.505,0.504,0.503,0.502,0.502,0.502,0.502,0.502,0.501,0.501,0.501,0.5,0.5,0.499,0.499,0.498,0.498,0.497,0.496,0.496,0.495,0.495,0.495,0.494,0.494,0.493,0.492,0.492,0.491,0.49,0.489,0.489,0.489,0.488,0.488,0.488,0.487,0.487,0.486,0.486,0.485,0.484,0.484,0.483,0.482,0.482,0.482,0.482,0.481,0.481,0.481,0.481,0.481,0.481,0.48,0.48,0.479,0.478,0.478,0.477,0.476,0.476,0.475,0.475,0.474,0.474,0.473,0.473,0.472,0.471,0.471,0.471,0.47,0.47,0.469,0.469,0.469,0.468,0.468,0.468,0.467,0.467,0.466,0.465,0.465,0.465,0.464,0.465,0.0,0.0,0.0,0.0,0.0,0.0,0.0,0.0,0.0,0.0,0.0,0.332,0.331,0.33,0.32912500000000006,0.328,0.327,0.327,0.326,0.326,0.326,0.326,0.325,0.324,0.324,0.323,0.323,0.322,0.322,0.321,0.321,0.32,0.32,0.32,0.319,0.319,0.319,0.319,0.319,0.318,0.0,0.0,0.318,0.319,0.319,0.319,0.32,0.32,0.32,0.321,0.321,0.321,0.321,0.321,0.321,0.321,0.321,0.321,0.321,0.321,0.321,0.321,0.321,0.321,0.321,0.321,0.321,0.3215,0.322,0.322,0.322,0.322,0.323,0.323,0.323,0.323,0.323,0.324,0.324,0.324,0.324,0.324,0.324,0.325,0.325,0.325,0.326,0.326,0.326,0.326,0.326,0.326,0.326,0.326,0.326,0.3265,0.327,0.327,0.3275,0.328,0.328,0.328,0.329,0.329,0.329,0.329,0.33,0.33,0.33,0.33,0.33,0.331,0.331,0.331,0.331,0.332,0.332,0.332,0.332,0.332,0.332,0.332,0.332,0.332,0.3325,0.333,0.333,0.333,0.333,0.333,0.333,0.334,0.334,0.334,0.334,0.335,0.335,0.335,0.335,0.335,0.335,0.336,0.336,0.336,0.337,0.337,0.337,0.33725000000000005,0.338,0.338,0.338,0.338,0.338,0.338,0.339,0.339,0.339,0.339,0.34,0.341,0.341,0.342,0.342,0.342,0.34275,0.343,0.344,0.344,0.345,0.345,0.346,0.347,0.348,0.348,0.349,0.35,0.351,0.352,0.353,0.354,0.355,0.356,0.357,0.358,0.358,0.358,0.359,0.359,0.359,0.359,0.359,0.0,0.0,0.0,0.0,0.0,0.0,0.389,0.389,0.389,0.389,0.389,0.389,0.389,0.389,0.389,0.389,0.389,0.389,0.389,0.389,0.388,0.388,0.388,0.388,0.387,0.386,0.385,0.385,0.385,0.385,0.384,0.384,0.384,0.383,0.383,0.383,0.382,0.382,0.382,0.382,0.381,0.381,0.381,0.381,0.381,0.38,0.38,0.379,0.379,0.379,0.378,0.378,0.378,0.377,0.377,0.377,0.377,0.376,0.376,0.376,0.375,0.374,0.374,0.373,0.373,0.373,0.373,0.373,0.373,0.372,0.372,0.372,0.371,0.371,0.37,0.37,0.37,0.37,0.369,0.369,0.369,0.369,0.369,0.369,0.369,0.368,0.367,0.367,0.366,0.366,0.366,0.366,0.366,0.366,0.366,0.366,0.365,0.365,0.365,0.364,0.364,0.363,0.363,0.362,0.362,0.362,0.362,0.362,0.362,0.361,0.361,0.361,0.36,0.36,0.359,0.359,0.359,0.359,0.359,0.358,0.358,0.358,0.358,0.358,0.358,0.358,0.357,0.356,0.356,0.356,0.355,0.355,0.355,0.355,0.354,0.354,0.354,0.354,0.354,0.353,0.352,0.352,0.352,0.352,0.352,0.351,0.351,0.351,0.351,0.351,0.35,0.35,0.349,0.349,0.349,0.348,0.348,0.348,0.348,0.348,0.348,0.348,0.348,0.348,0.347,0.347,0.347,0.346,0.346,0.345,0.345,0.345,0.345,0.345,0.345,0.344,0.344,0.344,0.344,0.344,0.343,0.343,0.343,0.343,0.343,0.0,0.0,0.0,0.0,0.0,0.0,0.0,0.0,0.0,0.0,0.0,0.0,0.0,0.0,0.0,0.0,0.0,0.0,0.0,0.0,0.0,0.0,0.0,0.0,0.0,0.0,0.0,0.0,0.0,0.0,0.0,0.0,0.0,0.0,0.0,0.0,0.0,0.0,0.0,0.0
0.539,0.538,0.538,0.537,0.537,0.536,0.535,0.534,0.534,0.533,0.532,0.532,0.531,0.531,0.531,0.531,0.53,0.53,0.529,0.528,0.527,0.527,0.526,0.526,0.524,0.524,0.524,0.523,0.523,0.523,0.522,0.522,0.521,0.52,0.519,0.519,0.518,0.517,0.517,0.516,0.516,0.516,0.515,0.514,0.514,0.513,0.512,0.511,0.511,0.511,0.51,0.509,0.509,0.509,0.509,0.509,0.508,0.508,0.507,0.505,0.504,0.504,0.503,0.502,0.502,0.501,0.501,0.501,0.501,0.5,0.5,0.499,0.499,0.498,0.498,0.497,0.496,0.496,0.496,0.495,0.495,0.495,0.494,0.494,0.493,0.492,0.492,0.491,0.49,0.49,0.489,0.488,0.488,0.488,0.488,0.487,0.487,0.486,0.485,0.485,0.484,0.484,0.483,0.483,0.482,0.482,0.482,0.481,0.481,0.481,0.48,0.48,0.479,0.479,0.479,0.479,0.478,0.478,0.477,0.477,0.476,0.476,0.475,0.475,0.474,0.473,0.473,0.472,0.472,0.471,0.47,0.47,0.47,0.47,0.469,0.469,0.468,0.468,0.468,0.467,0.467,0.466,0.465,0.465,0.464,0.464,0.464,0.464,0.463,0.0,0.0,0.0,0.0,0.0,0.0,0.0,0.0,0.0,0.0,0.0,0.0,0.332,0.331,0.33,0.329,0.328,0.327,0.326,0.326,0.326,0.326,0.326,0.325,0.324,0.324,0.323,0.323,0.323,0.322,0.321,0.321,0.32,0.32,0.32,0.32,0.319,0.319,0.319,0.319,0.319,0.318,0.318,0.319,0.319,0.319,0.32,0.32,0.32,0.321,0.321,0.321,0.321,0.321,0.321,0.321,0.321,0.321,0.321,0.321,0.321,0.321,0.321,0.321,0.321,0.321,0.321,0.3215,0.322,0.322,0.322,0.322,0.322,0.323,0.323,0.323,0.323,0.323,0.324,0.324,0.324,0.324,0.325,0.325,0.325,0.326,0.326,0.326,0.326,0.326,0.326,0.326,0.326,0.3265,0.327,0.327,0.327,0.327,0.3275,0.328,0.328,0.329,0.329,0.329,0.329,0.33,0.33,0.33,0.33,0.331,0.331,0.331,0.331,0.3315,0.332,0.332,0.332,0.332,0.332,0.332,0.332,0.3325,0.333,0.333,0.333,0.333,0.333,0.333,0.334,0.334,0.334,0.334,0.334,0.335,0.335,0.335,0.335,0.335,0.335,0.335,0.336,0.336,0.336,0.337,0.337,0.3375,0.338,0.338,0.338,0.338,0.338,0.338,0.339,0.339,0.339,0.339,0.34,0.34,0.341,0.341,0.342,0.342,0.342,0.34275,0.343,0.344,0.345,0.345,0.345,0.346,0.346,0.348,0.348,0.349,0.0,0.0,0.351,0.352,0.353,0.354,0.355,0.356,0.357,0.358,0.358,0.359,0.359,0.359,0.359,0.359,0.0,0.0,0.0,0.0,0.0,0.0,0.0,0.389,0.389,0.389,0.389,0.389,0.389,0.389,0.389,0.389,0.389,0.389,0.388,0.388,0.388,0.388,0.387,0.387,0.386,0.386,0.385,0.385,0.3845,0.384375,0.384,0.384,0.383,0.383,0.382,0.382,0.382,0.382,0.381,0.381,0.381,0.381,0.381,0.381,0.38,0.38,0.38,0.379,0.379,0.378,0.378,0.378,0.377,0.377,0.377,0.376,0.376,0.376,0.376,0.375,0.375,0.374,0.374,0.373,0.373,0.373,0.373,0.373,0.373,0.372,0.372,0.371,0.371,0.37,0.37,0.37,0.37,0.369,0.369,0.369,0.369,0.369,0.369,0.369,0.368,0.367,0.367,0.367,0.366,0.366,0.366,0.366,0.366,0.365,0.365,0.365,0.365,0.365,0.364,0.364,0.363,0.363,0.363,0.362,0.362,0.362,0.362,0.362,0.361,0.361,0.361,0.36,0.36,0.359,0.359,0.359,0.359,0.359,0.358,0.358,0.358,0.358,0.358,0.358,0.357,0.357,0.357,0.357,0.356,0.355,0.355,0.355,0.355,0.355,0.354,0.354,0.353,0.353,0.353,0.352,0.352,0.352,0.0,0.0,0.0,0.351,0.351,0.351,0.35,0.35,0.35,0.35,0.349,0.349,0.349,0.348,0.348,0.348,0.348,0.348,0.348,0.348,0.348,0.347,0.347,0.347,0.346,0.346,0.345,0.345,0.345,0.345,0.345,0.344,0.344,0.344,0.344,0.343,0.343,0.343,0.342,0.342,0.342,0.342,0.342,0.342,0.0,0.0,0.0,0.0,0.0,0.0,0.0,0.0,0.0,0.0,0.0,0.0,0.0,0.0,0.0,0.0,0.0,0.0,0.0,0.0,0.0,0.0,0.0,0.0,0.0,0.0,0.0,0.0,0.0,0.0,0.0,0.0,0.0,0.0,0.0,0.0,0.0,0.0,0.0,0.0,0.0
0.537,0.536,0.535,0.535,0.534,0.533,0.533,0.532,0.531,0.531,0.531,0.531,0.531,0.53,0.529,0.529,0.528,0.527,0.526,0.525,0.524,0.524,0.524,0.523,0.523,0.523,0.523,0.522,0.522,0.521,0.52,0.519,0.519,0.518,0.517,0.517,0.516,0.516,0.516,0.515,0.514,0.514,0.513,0.512,0.511,0.511,0.51,0.51,0.51,0.509,0.509,0.509,0.509,0.508,0.508,0.507,0.506,0.506,0.504,0.504,0.503,0.502,0.502,0.501,0.501,0.5,0.5,0.499,0.499,0.498,0.497,0.497,0.496,0.496,0.496,0.496,0.495,0.495,0.495,0.494,0.494,0.493,0.493,0.492,0.491,0.49,0.49,0.489,0.489,0.488,0.488,0.487,0.487,0.487,0.486,0.485,0.485,0.484,0.484,0.483,0.483,0.482,0.482,0.481,0.481,0.481,0.48,0.479,0.479,0.478,0.478,0.477,0.477,0.477,0.477,0.477,0.477,0.476,0.476,0.475,0.475,0.475,0.474,0.473,0.472,0.471,0.471,0.471,0.47,0.47,0.47,0.469,0.469,0.468,0.468,0.467,0.467,0.467,0.466,0.465,0.465,0.464,0.464,0.464,0.463,0.463,0.463,0.463,0.463,0.0,0.0,0.0,0.0,0.0,0.0,0.0,0.0,0.0,0.0,0.0,0.0,0.331,0.33,0.33,0.329,0.328,0.327,0.326,0.326,0.326,0.326,0.326,0.325,0.324,0.324,0.323,0.323,0.323,0.322,0.322,0.321,0.321,0.32,0.32,0.32,0.32,0.32,0.319,0.319,0.319,0.319,0.319,0.319,0.32,0.32,0.32,0.32,0.321,0.321,0.321,0.321,0.3215,0.322,0.322,0.322,0.322,0.322,0.322,0.322,0.322,0.322,0.322,0.322,0.322,0.322,0.322,0.322,0.322,0.322,0.322,0.322,0.323,0.323,0.323,0.323,0.323,0.324,0.324,0.324,0.325,0.325,0.325,0.325,0.326,0.326,0.326,0.326,0.326,0.326,0.326,0.3265,0.327,0.327,0.327,0.327,0.327,0.327,0.328,0.328,0.329,0.329,0.329,0.329,0.33,0.33,0.33,0.331,0.331,0.331,0.3315,0.332,0.332,0.332,0.332,0.332,0.332,0.332,0.3325,0.333,0.333,0.333,0.333,0.333,0.334,0.334,0.334,0.334,0.334,0.334,0.335,0.335,0.335,0.335,0.335,0.335,0.335,0.335,0.336,0.336,0.337,0.337,0.337,0.3375,0.338,0.338,0.338,0.338,0.339,0.339,0.339,0.339,0.339,0.339,0.34,0.34,0.341,0.341,0.342,0.342,0.34275,0.343,0.344,0.344,0.345,0.345,0.345,0.346,0.347,0.347,0.348,0.3485,0.349,0.35,0.0,0.0,0.352,0.353,0.354,0.355,0.355,0.356,0.358,0.358,0.3585,0.359,0.359,0.35949999999999993,0.36,0.36,0.0,0.0,0.0,0.0,0.0,0.0,0.388,0.388,0.388,0.388,0.389,0.389,0.388,0.388,0.388,0.388,0.388,0.388,0.387,0.387,0.386,0.386,0.386,0.385,0.385,0.385,0.385,0.385,0.384,0.384,0.383,0.382,0.382,0.381,0.382,0.381,0.381,0.381,0.381,0.381,0.381,0.38,0.38,0.38,0.38,0.379,0.379,0.378,0.378,0.377,0.377,0.377,0.377,0.376,0.376,0.375,0.375,0.374,0.374,0.374,0.374,0.373,0.373,0.373,0.373,0.373,0.372,0.372,0.372,0.371,0.371,0.37,0.37,0.37,0.369,0.369,0.369,0.369,0.369,0.368,0.368,0.368,0.368,0.367,0.367,0.366,0.366,0.366,0.366,0.366,0.365,0.365,0.365,0.365,0.365,0.364,0.364,0.364,0.364,0.363,0.362,0.362,0.362,0.362,0.362,0.362,0.361,0.361,0.361,0.36,0.36,0.359,0.359,0.359,0.359,0.358,0.358,0.358,0.358,0.358,0.357,0.357,0.357,0.357,0.356,0.356,0.356,0.355,0.355,0.355,0.355,0.355,0.354,0.354,0.354,0.353,0.353,0.352,0.352,0.352,0.352,0.351,0.0,0.0,0.0,0.35,0.35,0.35,0.349,0.349,0.349,0.348,0.348,0.348,0.348,0.348,0.348,0.348,0.347,0.347,0.347,0.347,0.347,0.346,0.346,0.346,0.345,0.345,0.345,0.345,0.345,0.344,0.344,0.343,0.343,0.343,0.342,0.342,0.342,0.342,0.342,0.342,0.342,0.342,0.342,0.342,0.0,0.0,0.0,0.0,0.0,0.0,0.0,0.0,0.0,0.0,0.0,0.0,0.0,0.0,0.0,0.0,0.0,0.0,0.0,0.0,0.0,0.0,0.0,0.0,0.0,0.0,0.0,0.0,0.0,0.0,0.0,0.0,0.0,0.0,0.0,0.0,0.0,0.0,0.0,0.0,0.0
0.535,0.534,0.533,0.533,0.532,0.532,0.531,0.531,0.531,0.53,0.53,0.529,0.529,0.528,0.527,0.526,0.526,0.525,0.524,0.524,0.523,0.523,0.523,0.522,0.522,0.521,0.52,0.52,0.519,0.518,0.518,0.517,0.517,0.516,0.516,0.516,0.515,0.515,0.514,0.514,0.513,0.512,0.511,0.51,0.51,0.51,0.509,0.509,0.509,0.509,0.508,0.508,0.507,0.507,0.506,0.505,0.504,0.504,0.503,0.502,0.502,0.501,0.5,0.5,0.499,0.498,0.497,0.497,0.496,0.496,0.496,0.495,0.495,0.495,0.495,0.494,0.494,0.493,0.493,0.492,0.491,0.491,0.49,0.49,0.489,0.489,0.489,0.488,0.488,0.487,0.487,0.486,0.485,0.485,0.485,0.484,0.483,0.483,0.482,0.482,0.482,0.481,0.481,0.48,0.479,0.479,0.478,0.477,0.477,0.476,0.476,0.476,0.476,0.476,0.476,0.476,0.475,0.475,0.474,0.474,0.473,0.472,0.472,0.471,0.47,0.47,0.47,0.47,0.469,0.469,0.469,0.468,0.467,0.467,0.466,0.465,0.465,0.465,0.464,0.464,0.464,0.463,0.463,0.463,0.463,0.462,0.461,0.461,0.461,0.0,0.0,0.0,0.0,0.0,0.0,0.0,0.0,0.0,0.0,0.0,0.332,0.331,0.33,0.33,0.32875,0.327,0.327,0.326,0.326,0.326,0.326,0.326,0.325,0.324,0.324,0.323,0.323,0.323,0.322,0.322,0.322,0.321,0.321,0.321,0.32,0.32,0.32,0.32,0.32,0.32,0.32,0.32,0.32,0.32,0.32,0.32,0.321,0.321,0.321,0.321,0.3215,0.322,0.322,0.322,0.322,0.322,0.322,0.322,0.322,0.322,0.322,0.322,0.322,0.322,0.322,0.322,0.322,0.322,0.322,0.323,0.323,0.323,0.323,0.323,0.323,0.324,0.324,0.324,0.325,0.325,0.325,0.326,0.326,0.326,0.326,0.326,0.326,0.3265,0.327,0.327,0.327,0.327,0.327,0.327,0.328,0.328,0.328,0.329,0.329,0.329,0.329,0.33,0.33,0.33,0.331,0.331,0.3315,0.332,0.332,0.332,0.332,0.332,0.332,0.3325,0.333,0.333,0.333,0.333,0.333,0.334,0.334,0.334,0.334,0.334,0.335,0.335,0.335,0.335,0.335,0.335,0.335,0.335,0.335,0.335,0.336,0.336,0.336,0.337,0.337,0.3375,0.338,0.338,0.338,0.338,0.339,0.339,0.339,0.339,0.339,0.34,0.34,0.34,0.34,0.341,0.341,0.342,0.342,0.34275,0.343,0.344,0.344,0.345,0.345,0.345,0.346,0.347,0.348,0.348,0.348,0.3485,0.349,0.35,0.351,0.351,0.352,0.353,0.354,0.355,0.356,0.357,0.357,0.358,0.359,0.3595,0.36,0.36,0.36,0.361,0.0,0.0,0.0,0.0,0.0,0.0,0.386,0.387,0.388,0.388,0.388,0.388,0.388,0.388,0.387,0.387,0.387,0.386,0.38625,0.386,0.385,0.385,0.385,0.385,0.385,0.385,0.385,0.384,0.384,0.383,0.383,0.382,0.382,0.381,0.381,0.381,0.381,0.381,0.38,0.38,0.38,0.38,0.379,0.379,0.378,0.378,0.378,0.377,0.377,0.377,0.377,0.377,0.376,0.375,0.375,0.374,0.374,0.374,0.373,0.373,0.373,0.373,0.373,0.373,0.372,0.372,0.372,0.371,0.37,0.37,0.37,0.37,0.369,0.369,0.369,0.369,0.369,0.369,0.368,0.368,0.367,0.367,0.367,0.366,0.366,0.366,0.366,0.366,0.365,0.365,0.365,0.365,0.364,0.364,0.364,0.364,0.364,0.363,0.362,0.362,0.362,0.362,0.362,0.362,0.361,0.361,0.361,0.36,0.36,0.36,0.359,0.359,0.359,0.359,0.358,0.358,0.358,0.358,0.358,0.357,0.357,0.357,0.356,0.356,0.355,0.355,0.355,0.355,0.355,0.355,0.355,0.354,0.354,0.353,0.353,0.353,0.352,0.352,0.351,0.351,0.351,0.351,0.351,0.35,0.35,0.349,0.349,0.349,0.349,0.349,0.348,0.348,0.348,0.348,0.348,0.348,0.347,0.347,0.347,0.347,0.346,0.346,0.346,0.346,0.346,0.345,0.345,0.345,0.345,0.344,0.344,0.343,0.343,0.342,0.342,0.342,0.342,0.342,0.342,0.342,0.341,0.341,0.341,0.341,0.341,0.342,0.342,0.0,0.0,0.0,0.0,0.0,0.0,0.0,0.0,0.0,0.0,0.0,0.0,0.0,0.0,0.0,0.0,0.0,0.0,0.0,0.0,0.0,0.0,0.0,0.0,0.0,0.0,0.0,0.0,0.0,0.0,0.0,0.0,0.0,0.0,0.0,0.0,0.0,0.0,0.0,0.0,0.0
0.533,0.532,0.532,0.532,0.531,0.531,0.53,0.529,0.528,0.528,0.528,0.527,0.526,0.525,0.525,0.524,0.524,0.523,0.523,0.522,0.521,0.521,0.52,0.519,0.519,0.518,0.518,0.517,0.517,0.516,0.516,0.516,0.516,0.515,0.515,0.514,0.514,0.513,0.512,0.511,0.51,0.51,0.509,0.509,0.509,0.509,0.509,0.508,0.508,0.507,0.507,0.506,0.505,0.504,0.504,0.503,0.502,0.502,0.502,0.501,0.5,0.499,0.499,0.497,0.497,0.496,0.496,0.496,0.495,0.495,0.495,0.495,0.494,0.493,0.493,0.492,0.492,0.491,0.49,0.49,0.489,0.489,0.489,0.489,0.488,0.487,0.487,0.487,0.486,0.485,0.484,0.484,0.484,0.483,0.483,0.483,0.482,0.482,0.482,0.481,0.48,0.479,0.478,0.478,0.477,0.477,0.476,0.476,0.476,0.475,0.475,0.475,0.474,0.474,0.474,0.474,0.473,0.473,0.472,0.471,0.471,0.47,0.47,0.47,0.469,0.469,0.469,0.469,0.469,0.468,0.467,0.466,0.465,0.465,0.465,0.464,0.464,0.464,0.463,0.463,0.463,0.463,0.462,0.461,0.46,0.46,0.459,0.459,0.459,0.0,0.0,0.0,0.0,0.0,0.0,0.0,0.0,0.0,0.0,0.0,0.331,0.331,0.33,0.329,0.329,0.328,0.327,0.327,0.326,0.326,0.326,0.326,0.325,0.324,0.324,0.324,0.323,0.323,0.323,0.322,0.322,0.322,0.321,0.321,0.321,0.32,0.32,0.32,0.32,0.32,0.32,0.32,0.32,0.32,0.32,0.321,0.321,0.321,0.321,0.3215,0.322,0.322,0.322,0.322,0.322,0.322,0.322,0.322,0.322,0.322,0.322,0.322,0.322,0.322,0.322,0.323,0.323,0.323,0.323,0.323,0.323,0.323,0.323,0.323,0.324,0.324,0.324,0.325,0.325,0.325,0.326,0.326,0.326,0.326,0.326,0.3265,0.327,0.327,0.327,0.327,0.327,0.328,0.328,0.328,0.328,0.329,0.329,0.329,0.329,0.33,0.33,0.33,0.331,0.331,0.3315,0.332,0.332,0.332,0.332,0.332,0.332,0.333,0.333,0.333,0.333,0.333,0.334,0.334,0.334,0.334,0.335,0.335,0.335,0.335,0.335,0.335,0.335,0.335,0.335,0.335,0.335,0.336,0.336,0.336,0.336,0.337,0.337,0.3375,0.338,0.338,0.338,0.338,0.339,0.339,0.339,0.339,0.34,0.34,0.34,0.341,0.341,0.341,0.341,0.342,0.342,0.34275,0.343,0.344,0.345,0.345,0.345,0.346,0.346,0.347,0.348,0.348,0.348,0.348,0.3485,0.349,0.35,0.351,0.351,0.352,0.353,0.35350000000000004,0.354,0.355,0.356,0.357,0.358,0.358,0.359,0.3595,0.36,0.361,0.361,0.0,0.0,0.0,0.0,0.0,0.0,0.385,0.385,0.386,0.386,0.386,0.386,0.386,0.386,0.386,0.386,0.385,0.385,0.385,0.385,0.385,0.385,0.385,0.385,0.384,0.384,0.384,0.383,0.383,0.382,0.382,0.382,0.381,0.381,0.381,0.38,0.38,0.38,0.38,0.379,0.379,0.379,0.378,0.378,0.378,0.377,0.377,0.377,0.377,0.377,0.376,0.376,0.375,0.374,0.374,0.373,0.373,0.373,0.373,0.373,0.373,0.373,0.372,0.372,0.372,0.371,0.37,0.37,0.37,0.369,0.369,0.369,0.369,0.369,0.369,0.369,0.368,0.368,0.367,0.367,0.366,0.366,0.366,0.366,0.366,0.366,0.366,0.365,0.365,0.365,0.364,0.364,0.364,0.364,0.363,0.363,0.363,0.362,0.362,0.362,0.362,0.362,0.362,0.361,0.361,0.36,0.36,0.36,0.36,0.359,0.359,0.359,0.359,0.358,0.358,0.358,0.358,0.357,0.357,0.357,0.356,0.356,0.356,0.355,0.355,0.355,0.355,0.355,0.355,0.354,0.354,0.353,0.353,0.352,0.352,0.352,0.352,0.351,0.351,0.351,0.351,0.35,0.35,0.349,0.349,0.349,0.348,0.348,0.348,0.348,0.348,0.348,0.348,0.348,0.347,0.347,0.347,0.346,0.346,0.346,0.346,0.345,0.345,0.345,0.345,0.345,0.345,0.345,0.344,0.344,0.343,0.343,0.343,0.342,0.342,0.342,0.341,0.341,0.341,0.341,0.341,0.341,0.341,0.341,0.341,0.341,0.341,0.341,0.0,0.0,0.0,0.0,0.0,0.0,0.0,0.0,0.0,0.0,0.0,0.0,0.0,0.0,0.0,0.0,0.0,0.0,0.0,0.0,0.0,0.0,0.0,0.0,0.0,0.0,0.0,0.0,0.0,0.0,0.0,0.0,0.0,0.0,0.0,0.0,0.0,0.0,0.0,0.0,0.0
0.532,0.531,0.531,0.531,0.53,0.529,0.528,0.527,0.526,0.526,0.525,0.525,0.524,0.524,0.523,0.523,0.522,0.522,0.521,0.519,0.519,0.518,0.518,0.517,0.517,0.516,0.516,0.516,0.516,0.515,0.515,0.514,0.514,0.513,0.513,0.511,0.511,0.511,0.51,0.509,0.509,0.509,0.509,0.508,0.508,0.508,0.507,0.507,0.506,0.505,0.505,0.504,0.503,0.502,0.502,0.502,0.502,0.501,0.5,0.499,0.498,0.497,0.496,0.496,0.496,0.495,0.495,0.495,0.495,0.494,0.493,0.493,0.492,0.491,0.491,0.49,0.49,0.489,0.489,0.489,0.488,0.488,0.488,0.487,0.486,0.486,0.485,0.484,0.484,0.483,0.483,0.482,0.482,0.482,0.482,0.482,0.481,0.481,0.479,0.479,0.478,0.477,0.477,0.476,0.476,0.476,0.475,0.475,0.475,0.474,0.473,0.472,0.471,0.471,0.471,0.471,0.471,0.47,0.47,0.47,0.47,0.469,0.469,0.469,0.469,0.468,0.468,0.468,0.467,0.466,0.465,0.465,0.464,0.464,0.464,0.463,0.463,0.463,0.463,0.463,0.462,0.46,0.46,0.459,0.459,0.458,0.458,0.458,0.458,0.0,0.0,0.0,0.0,0.0,0.0,0.0,0.0,0.0,0.0,0.0,0.3305,0.33,0.33,0.329,0.328,0.327,0.327,0.326,0.326,0.326,0.326,0.326,0.325,0.324,0.324,0.324,0.324,0.323,0.323,0.323,0.323,0.322,0.322,0.321,0.321,0.321,0.321,0.321,0.321,0.32,0.3205,0.321,0.321,0.321,0.321,0.321,0.321,0.321,0.3215,0.322,0.322,0.322,0.323,0.323,0.323,0.323,0.323,0.323,0.323,0.323,0.323,0.323,0.323,0.323,0.323,0.323,0.323,0.323,0.323,0.323,0.323,0.323,0.323,0.324,0.324,0.324,0.324,0.325,0.325,0.326,0.326,0.326,0.326,0.326,0.3265,0.327,0.327,0.327,0.327,0.328,0.328,0.328,0.329,0.329,0.329,0.329,0.329,0.329,0.33,0.33,0.331,0.331,0.3315,0.332,0.332,0.332,0.332,0.333,0.333,0.333,0.333,0.333,0.333,0.334,0.334,0.334,0.334,0.335,0.335,0.335,0.335,0.335,0.335,0.335,0.335,0.335,0.335,0.336,0.336,0.336,0.336,0.336,0.337,0.337,0.337,0.3375,0.338,0.338,0.338,0.338,0.339,0.339,0.339,0.34,0.34,0.34,0.341,0.341,0.341,0.342,0.342,0.342,0.342,0.34275,0.343,0.344,0.345,0.345,0.345,0.346,0.347,0.347,0.348,0.348,0.348,0.348,0.3485,0.349,0.349,0.35,0.351,0.351,0.352,0.352,0.353,0.354,0.355,0.356,0.357,0.358,0.358,0.359,0.359,0.359625,0.36,0.361,0.0,0.0,0.0,0.0,0.0,0.0,0.0,0.385,0.385,0.385,0.385,0.385,0.386,0.385,0.385,0.385,0.385,0.385,0.385,0.385,0.384,0.384,0.384,0.384,0.383,0.383,0.383,0.382,0.382,0.381,0.381,0.381,0.381,0.381,0.38,0.38,0.379,0.379,0.379,0.378,0.378,0.378,0.378,0.377,0.377,0.377,0.377,0.377,0.376,0.376,0.376,0.374,0.374,0.374,0.373,0.373,0.373,0.373,0.373,0.372,0.372,0.371,0.372,0.371,0.37,0.37,0.37,0.369,0.369,0.369,0.369,0.369,0.369,0.369,0.368,0.368,0.368,0.367,0.367,0.366,0.366,0.366,0.366,0.365,0.365,0.365,0.365,0.365,0.364,0.364,0.364,0.363,0.363,0.363,0.363,0.362,0.362,0.362,0.362,0.362,0.362,0.361,0.361,0.361,0.36,0.36,0.359,0.359,0.359,0.359,0.359,0.359,0.358,0.358,0.358,0.358,0.357,0.357,0.356,0.356,0.356,0.355,0.355,0.355,0.355,0.355,0.355,0.355,0.354,0.354,0.354,0.353,0.352,0.352,0.352,0.351,0.351,0.351,0.351,0.35,0.35,0.349,0.349,0.349,0.348,0.348,0.348,0.348,0.348,0.348,0.348,0.348,0.347,0.347,0.347,0.346,0.346,0.346,0.346,0.345,0.345,0.345,0.345,0.345,0.345,0.345,0.344,0.344,0.344,0.343,0.3425,0.342,0.342,0.342,0.342,0.341,0.341,0.341,0.34,0.34,0.34,0.34,0.339,0.339,0.339,0.0,0.0,0.0,0.339,0.0,0.0,0.0,0.0,0.0,0.0,0.0,0.0,0.0,0.0,0.0,0.0,0.0,0.0,0.0,0.0,0.0,0.0,0.0,0.0,0.0,0.0,0.0,0.0,0.0,0.0,0.0,0.0,0.0,0.0,0.0,0.0,0.0,0.0,0.0,0.0,0.0,0.0,0.0,0.0,0.0
0.531,0.531,0.53,0.529,0.528,0.527,0.526,0.525,0.525,0.524,0.524,0.523,0.523,0.523,0.522,0.521,0.52,0.519,0.518,0.517,0.517,0.516,0.516,0.516,0.516,0.515,0.515,0.515,0.514,0.513,0.512,0.512,0.511,0.511,0.51,0.51,0.509,0.509,0.509,0.509,0.508,0.508,0.508,0.507,0.506,0.506,0.506,0.505,0.504,0.504,0.503,0.502,0.502,0.502,0.501,0.501,0.499,0.499,0.497,0.497,0.496,0.496,0.495,0.495,0.495,0.494,0.494,0.493,0.492,0.491,0.491,0.49,0.49,0.489,0.489,0.489,0.489,0.488,0.488,0.487,0.487,0.486,0.485,0.485,0.484,0.484,0.483,0.483,0.482,0.482,0.482,0.482,0.482,0.481,0.481,0.48,0.479,0.478,0.477,0.477,0.476,0.476,0.476,0.475,0.475,0.475,0.474,0.472,0.471,0.471,0.471,0.47,0.47,0.47,0.47,0.47,0.469,0.469,0.469,0.469,0.469,0.468,0.468,0.468,0.467,0.466,0.466,0.465,0.465,0.464,0.464,0.464,0.463,0.463,0.463,0.463,0.462,0.462,0.462,0.461,0.46,0.459,0.458,0.458,0.458,0.458,0.458,0.458,0.0,0.0,0.0,0.0,0.0,0.0,0.0,0.0,0.0,0.0,0.0,0.331,0.33,0.32975,0.329,0.329,0.328,0.328,0.327,0.327,0.326,0.326,0.326,0.326,0.326,0.325,0.324,0.324,0.324,0.323,0.323,0.323,0.323,0.323,0.322,0.322,0.322,0.321,0.321,0.321,0.321,0.321,0.321,0.321,0.321,0.321,0.321,0.321,0.3215,0.322,0.322,0.322,0.322,0.323,0.323,0.323,0.323,0.323,0.323,0.323,0.323,0.323,0.323,0.323,0.323,0.323,0.323,0.323,0.323,0.323,0.323,0.323,0.323,0.324,0.324,0.324,0.324,0.325,0.325,0.325,0.326,0.326,0.326,0.326,0.326,0.3265,0.327,0.327,0.327,0.328,0.328,0.328,0.328,0.329,0.329,0.329,0.329,0.329,0.33,0.33,0.33,0.331,0.331,0.3315,0.332,0.332,0.332,0.332,0.333,0.333,0.333,0.334,0.334,0.334,0.334,0.334,0.335,0.335,0.335,0.335,0.335,0.335,0.335,0.335,0.335,0.336,0.336,0.336,0.336,0.336,0.336,0.336,0.337,0.337,0.337,0.3375,0.338,0.338,0.338,0.338,0.339,0.339,0.339,0.34,0.34,0.341,0.341,0.341,0.341,0.342,0.342,0.342,0.342,0.34275,0.343,0.344,0.345,0.345,0.3455,0.346,0.347,0.34724999999999995,0.348,0.348,0.348,0.3485,0.349,0.349,0.349,0.35,0.35,0.35,0.351,0.351,0.352,0.353,0.35375,0.355,0.356,0.357,0.358,0.358,0.359,0.359,0.3595,0.36,0.361,0.0,0.0,0.0,0.0,0.384,0.3845,0.385,0.385,0.385,0.385,0.385,0.385,0.385,0.385,0.385,0.385,0.385,0.384,0.384,0.384,0.384,0.383,0.383,0.383,0.382,0.382,0.382,0.382,0.381,0.381,0.381,0.381,0.381,0.38,0.38,0.379,0.379,0.378,0.378,0.378,0.377,0.377,0.377,0.377,0.377,0.377,0.376,0.376,0.376,0.375,0.374,0.374,0.373,0.373,0.373,0.373,0.373,0.373,0.372,0.372,0.371,0.371,0.371,0.37,0.37,0.37,0.369,0.369,0.369,0.369,0.369,0.368,0.368,0.368,0.367,0.367,0.367,0.366,0.366,0.366,0.366,0.365,0.365,0.365,0.365,0.364,0.364,0.364,0.364,0.363,0.363,0.363,0.363,0.363,0.362,0.362,0.362,0.362,0.362,0.361,0.361,0.361,0.36,0.36,0.36,0.359,0.359,0.359,0.359,0.359,0.359,0.358,0.358,0.358,0.358,0.357,0.357,0.356,0.356,0.355,0.355,0.355,0.355,0.355,0.355,0.355,0.354,0.354,0.354,0.353,0.353,0.352,0.352,0.352,0.351,0.351,0.351,0.35,0.35,0.35,0.349,0.349,0.349,0.348,0.348,0.348,0.348,0.348,0.347,0.347,0.347,0.347,0.347,0.346,0.346,0.346,0.345,0.345,0.345,0.345,0.345,0.345,0.345,0.345,0.344,0.344,0.344,0.343,0.343,0.342,0.3425,0.342,0.342,0.342,0.341,0.341,0.34,0.34,0.34,0.339,0.339,0.339,0.339,0.339,0.339,0.3385,0.0,0.0,0.0,0.339,0.0,0.0,0.0,0.0,0.0,0.0,0.0,0.0,0.0,0.0,0.0,0.0,0.0,0.0,0.0,0.0,0.0,0.0,0.0,0.0,0.0,0.0,0.0,0.0,0.0,0.0,0.0,0.0,0.0,0.0,0.0,0.0,0.0,0.0,0.0,0.0,0.0,0.0,0.0,0.0,0.0
0.529,0.528,0.527,0.526,0.525,0.525,0.524,0.524,0.523,0.523,0.523,0.522,0.522,0.52,0.519,0.518,0.517,0.517,0.516,0.516,0.516,0.516,0.515,0.515,0.514,0.513,0.513,0.512,0.511,0.511,0.51,0.51,0.509,0.509,0.509,0.509,0.508,0.508,0.508,0.507,0.506,0.506,0.505,0.505,0.504,0.504,0.504,0.503,0.503,0.502,0.502,0.502,0.501,0.5,0.499,0.498,0.497,0.496,0.496,0.496,0.495,0.495,0.495,0.494,0.493,0.493,0.491,0.491,0.49,0.49,0.489,0.489,0.489,0.489,0.488,0.488,0.487,0.487,0.485,0.485,0.484,0.484,0.483,0.483,0.482,0.482,0.482,0.482,0.482,0.481,0.481,0.481,0.48,0.479,0.478,0.477,0.477,0.476,0.476,0.476,0.475,0.475,0.475,0.474,0.473,0.473,0.471,0.471,0.47,0.47,0.47,0.469,0.469,0.469,0.469,0.469,0.468,0.468,0.468,0.467,0.467,0.467,0.465,0.465,0.465,0.464,0.464,0.464,0.464,0.463,0.463,0.463,0.463,0.462,0.462,0.461,0.461,0.461,0.459,0.459,0.458,0.458,0.458,0.458,0.457,0.457,0.457,0.457,0.0,0.0,0.0,0.0,0.0,0.0,0.0,0.0,0.0,0.0,0.0,0.33,0.33,0.33,0.329,0.329,0.328,0.328,0.327,0.327,0.326,0.326,0.326,0.326,0.326,0.325,0.325,0.324,0.324,0.324,0.324,0.323,0.323,0.323,0.323,0.323,0.322,0.322,0.322,0.322,0.322,0.322,0.322,0.322,0.322,0.322,0.322,0.322,0.322,0.322,0.322,0.323,0.323,0.323,0.323,0.323,0.323,0.323,0.323,0.323,0.323,0.323,0.323,0.323,0.323,0.323,0.323,0.323,0.323,0.324,0.324,0.324,0.324,0.324,0.324,0.325,0.325,0.325,0.326,0.326,0.326,0.326,0.326,0.3265,0.327,0.327,0.327,0.327,0.328,0.328,0.328,0.329,0.329,0.329,0.329,0.329,0.329,0.33,0.33,0.331,0.331,0.3315,0.332,0.332,0.332,0.332,0.333,0.333,0.333,0.334,0.334,0.334,0.335,0.335,0.335,0.335,0.335,0.335,0.335,0.335,0.335,0.335,0.336,0.336,0.336,0.336,0.336,0.336,0.336,0.337,0.337,0.337,0.337,0.3375,0.338,0.338,0.338,0.338,0.339,0.339,0.339,0.339,0.34,0.341,0.341,0.341,0.341,0.342,0.342,0.342,0.342,0.3425,0.343,0.344,0.344,0.345,0.345,0.346,0.34675,0.347,0.34775,0.348,0.348,0.349,0.349,0.349,0.35,0.35,0.35,0.35,0.351,0.351,0.352,0.352,0.353,0.3535,0.354,0.356,0.358,0.358,0.359,0.359,0.3595,0.36,0.0,0.0,0.0,0.0,0.0,0.382,0.384,0.384,0.384,0.384,0.384,0.38425,0.384,0.3845,0.385,0.385,0.384,0.384,0.384,0.384,0.383,0.383,0.383,0.382,0.382,0.382,0.382,0.381,0.381,0.381,0.381,0.381,0.381,0.38,0.38,0.379,0.379,0.378,0.378,0.378,0.377,0.377,0.377,0.377,0.377,0.377,0.376,0.376,0.376,0.375,0.374,0.374,0.373,0.373,0.373,0.373,0.373,0.372,0.372,0.371,0.371,0.371,0.37,0.37,0.37,0.37,0.369,0.369,0.369,0.369,0.369,0.368,0.368,0.367,0.367,0.366,0.366,0.366,0.366,0.366,0.366,0.365,0.365,0.365,0.364,0.364,0.364,0.363,0.363,0.363,0.363,0.362,0.362,0.362,0.362,0.362,0.362,0.362,0.362,0.361,0.361,0.361,0.36,0.36,0.359,0.359,0.359,0.359,0.359,0.359,0.359,0.358,0.358,0.358,0.358,0.357,0.357,0.356,0.356,0.356,0.355,0.355,0.355,0.355,0.355,0.354,0.354,0.354,0.354,0.354,0.353,0.353,0.352,0.352,0.352,0.351,0.351,0.35,0.35,0.349,0.349,0.349,0.348,0.348,0.348,0.348,0.348,0.348,0.347,0.347,0.347,0.347,0.346,0.346,0.346,0.346,0.346,0.345,0.345,0.345,0.345,0.345,0.345,0.344,0.344,0.344,0.344,0.343,0.343,0.342,0.342,0.342,0.342,0.342,0.341,0.341,0.341,0.34,0.34,0.339,0.339,0.339,0.339,0.339,0.339,0.338,0.338,0.338,0.338,0.0,0.0,0.338,0.338,0.0,0.0,0.0,0.0,0.0,0.0,0.0,0.0,0.0,0.0,0.0,0.0,0.0,0.0,0.0,0.0,0.0,0.0,0.0,0.0,0.0,0.0,0.0,0.0,0.0,0.0,0.0,0.0,0.0,0.0,0.0,0.0,0.0,0.0,0.0,0.0,0.0,0.0,0.0,0.0,0.0
0.528,0.526,0.525,0.525,0.524,0.523,0.523,0.523,0.522,0.52,0.519,0.519,0.518,0.517,0.517,0.516,0.516,0.516,0.516,0.515,0.515,0.514,0.514,0.512,0.511,0.511,0.51,0.51,0.509,0.509,0.509,0.509,0.509,0.508,0.508,0.507,0.507,0.505,0.505,0.504,0.504,0.503,0.503,0.503,0.503,0.502,0.502,0.502,0.502,0.501,0.501,0.5,0.499,0.498,0.497,0.496,0.496,0.495,0.495,0.495,0.495,0.494,0.493,0.492,0.491,0.49,0.49,0.489,0.489,0.488,0.488,0.488,0.488,0.487,0.487,0.486,0.484,0.484,0.483,0.483,0.482,0.482,0.482,0.482,0.481,0.481,0.481,0.481,0.481,0.48,0.478,0.477,0.477,0.477,0.476,0.476,0.476,0.475,0.475,0.475,0.474,0.473,0.473,0.471,0.471,0.471,0.47,0.47,0.469,0.469,0.469,0.468,0.468,0.467,0.467,0.467,0.467,0.466,0.465,0.465,0.465,0.464,0.464,0.464,0.464,0.463,0.463,0.463,0.463,0.463,0.462,0.462,0.461,0.461,0.46,0.459,0.459,0.458,0.458,0.458,0.458,0.457,0.457,0.457,0.457,0.457,0.457,0.0,0.0,0.0,0.0,0.0,0.0,0.0,0.0,0.0,0.0,0.0,0.33,0.33,0.3295,0.329,0.329,0.329,0.328,0.327,0.327,0.327,0.326,0.326,0.326,0.326,0.326,0.326,0.325,0.325,0.324,0.324,0.324,0.324,0.323,0.323,0.323,0.323,0.323,0.323,0.323,0.323,0.323,0.323,0.322,0.323,0.323,0.323,0.323,0.323,0.323,0.323,0.323,0.323,0.323,0.323,0.323,0.323,0.323,0.323,0.323,0.323,0.323,0.323,0.323,0.323,0.323,0.324,0.324,0.324,0.324,0.324,0.324,0.324,0.325,0.325,0.325,0.326,0.326,0.326,0.326,0.326,0.326,0.326,0.3265,0.327,0.327,0.327,0.328,0.328,0.328,0.329,0.329,0.329,0.329,0.329,0.33,0.33,0.33,0.33,0.331,0.331,0.3315,0.332,0.332,0.332,0.333,0.333,0.333,0.334,0.334,0.335,0.335,0.335,0.335,0.335,0.335,0.335,0.335,0.335,0.335,0.336,0.336,0.336,0.336,0.336,0.336,0.337,0.337,0.337,0.337,0.337,0.3375,0.338,0.338,0.338,0.338,0.338,0.338,0.339,0.339,0.339,0.34,0.34,0.34,0.341,0.341,0.341,0.342,0.342,0.342,0.342,0.3425,0.343,0.344,0.345,0.345,0.346,0.347,0.34724999999999995,0.348,0.348,0.349,0.349,0.35,0.35,0.35,0.35,0.351,0.351,0.351,0.351,0.352,0.352,0.353,0.35350000000000004,0.354,0.3545,0.355,0.0,0.0,0.0,0.0,0.0,0.0,0.3645,0.0,0.0,0.0,0.0,0.381,0.382,0.383,0.383,0.384,0.384,0.384,0.384,0.384,0.384,0.384,0.384,0.383,0.383,0.383,0.382,0.382,0.382,0.382,0.381,0.381,0.381,0.381,0.381,0.381,0.381,0.38,0.38,0.379,0.379,0.378,0.378,0.377,0.377,0.377,0.377,0.377,0.377,0.376,0.376,0.376,0.376,0.375,0.374,0.374,0.374,0.373,0.373,0.373,0.373,0.372,0.372,0.371,0.371,0.371,0.37,0.37,0.37,0.37,0.369,0.369,0.369,0.369,0.369,0.368,0.368,0.367,0.367,0.367,0.366,0.366,0.366,0.366,0.366,0.366,0.365,0.365,0.364,0.364,0.364,0.363,0.363,0.363,0.362,0.362,0.362,0.362,0.362,0.362,0.362,0.362,0.361,0.361,0.361,0.36,0.36,0.36,0.359,0.359,0.359,0.35875,0.359,0.358,0.358,0.358,0.358,0.358,0.358,0.358,0.358,0.357,0.356,0.356,0.356,0.355,0.355,0.355,0.355,0.354,0.354,0.354,0.354,0.353,0.353,0.353,0.353,0.352,0.352,0.352,0.351,0.351,0.35,0.35,0.349,0.349,0.348,0.348,0.348,0.348,0.348,0.348,0.347,0.347,0.347,0.346,0.346,0.346,0.346,0.346,0.346,0.345,0.345,0.345,0.345,0.345,0.345,0.344,0.344,0.344,0.343,0.343,0.343,0.34299999999999997,0.0,0.0,0.342,0.342,0.341,0.341,0.341,0.34,0.34,0.339,0.339,0.339,0.339,0.339,0.338,0.338,0.338,0.338,0.338,0.338,0.337,0.337,0.337,0.337,0.337,0.0,0.0,0.0,0.0,0.0,0.0,0.0,0.0,0.0,0.0,0.0,0.0,0.0,0.0,0.0,0.0,0.0,0.0,0.0,0.0,0.0,0.0,0.0,0.0,0.0,0.0,0.0,0.0,0.0,0.0,0.0,0.0,0.0,0.0,0.0,0.0,0.0,0.0,0.0,0.0,0.0,0.0
0.525,0.524,0.524,0.523,0.523,0.522,0.521,0.519,0.519,0.518,0.517,0.517,0.516,0.516,0.516,0.516,0.515,0.515,0.514,0.514,0.513,0.511,0.511,0.51,0.51,0.509,0.509,0.509,0.509,0.509,0.508,0.508,0.507,0.507,0.506,0.505,0.504,0.504,0.503,0.503,0.502,0.502,0.502,0.502,0.502,0.501,0.501,0.501,0.5,0.5,0.499,0.497,0.496,0.496,0.495,0.495,0.495,0.495,0.494,0.493,0.493,0.492,0.49,0.49,0.489,0.489,0.488,0.488,0.488,0.487,0.487,0.486,0.486,0.485,0.484,0.483,0.483,0.482,0.482,0.482,0.481,0.481,0.481,0.481,0.48,0.48,0.48,0.479,0.478,0.477,0.477,0.476,0.476,0.476,0.475,0.475,0.475,0.474,0.473,0.473,0.472,0.471,0.471,0.47,0.47,0.47,0.469,0.469,0.469,0.468,0.468,0.467,0.466,0.466,0.465,0.465,0.464,0.464,0.464,0.464,0.463,0.463,0.463,0.463,0.463,0.463,0.462,0.462,0.461,0.461,0.46,0.46,0.459,0.459,0.458,0.458,0.458,0.458,0.457,0.457,0.457,0.457,0.456,0.456,0.455,0.455,0.0,0.0,0.0,0.0,0.0,0.0,0.0,0.0,0.0,0.0,0.0,0.33,0.33,0.329,0.329,0.329,0.329,0.328,0.328,0.327,0.327,0.327,0.327,0.326,0.326,0.326,0.326,0.326,0.326,0.325,0.325,0.324,0.324,0.324,0.324,0.324,0.324,0.323,0.323,0.323,0.323,0.323,0.323,0.323,0.323,0.323,0.323,0.323,0.323,0.323,0.323,0.323,0.323,0.323,0.323,0.323,0.323,0.323,0.323,0.323,0.323,0.323,0.323,0.324,0.324,0.324,0.324,0.324,0.324,0.324,0.324,0.325,0.325,0.325,0.325,0.326,0.326,0.326,0.326,0.326,0.326,0.326,0.3265,0.327,0.327,0.327,0.327,0.328,0.328,0.328,0.329,0.329,0.329,0.329,0.329,0.33,0.33,0.33,0.331,0.331,0.331,0.3315,0.332,0.332,0.332,0.333,0.333,0.334,0.334,0.335,0.335,0.335,0.335,0.335,0.335,0.335,0.335,0.336,0.336,0.336,0.336,0.336,0.336,0.336,0.336,0.337,0.337,0.337,0.337,0.3375,0.338,0.338,0.338,0.338,0.338,0.338,0.338,0.339,0.339,0.339,0.339,0.34,0.34,0.34,0.341,0.341,0.341,0.342,0.342,0.342,0.342,0.3425,0.343,0.344,0.345,0.345,0.347,0.34724999999999995,0.348,0.348,0.349,0.349,0.35,0.35,0.351,0.351,0.351,0.351,0.351,0.352,0.352,0.353,0.35324999999999995,0.354,0.355,0.355,0.0,0.0,0.0,0.0,0.0,0.0,0.0,0.0,0.0,0.369,0.0,0.0,0.0,0.381,0.0,0.0,0.383,0.383,0.383,0.383,0.383,0.383,0.383,0.383,0.383,0.382,0.382,0.382,0.382,0.381,0.381,0.381,0.381,0.381,0.381,0.381,0.381,0.38,0.38,0.379,0.379,0.378,0.378,0.378,0.377,0.377,0.377,0.377,0.377,0.376,0.376,0.376,0.375,0.375,0.374,0.374,0.374,0.373,0.373,0.373,0.373,0.373,0.372,0.372,0.371,0.371,0.37,0.37,0.37,0.369,0.369,0.369,0.369,0.369,0.368,0.368,0.368,0.367,0.367,0.367,0.366,0.366,0.366,0.366,0.366,0.366,0.365,0.365,0.365,0.364,0.364,0.363,0.363,0.363,0.362,0.362,0.362,0.362,0.362,0.362,0.361,0.361,0.361,0.36,0.36,0.36,0.0,0.0,0.359,0.359,0.359,0.359,0.358,0.358,0.358,0.358,0.358,0.358,0.357,0.357,0.357,0.357,0.357,0.356,0.356,0.355,0.355,0.355,0.355,0.355,0.354,0.353,0.353,0.353,0.353,0.353,0.352,0.352,0.352,0.352,0.352,0.351,0.351,0.35,0.349,0.349,0.349,0.348,0.348,0.348,0.348,0.348,0.348,0.347,0.347,0.346,0.346,0.346,0.346,0.345,0.345,0.345,0.345,0.345,0.345,0.345,0.345,0.344,0.344,0.344,0.343,0.343,0.342,0.342,0.342,0.342,0.342,0.0,0.0,0.341,0.341,0.341,0.34,0.34,0.339,0.339,0.339,0.339,0.338,0.338,0.338,0.338,0.338,0.338,0.337,0.337,0.336,0.336,0.336,0.336,0.336,0.336,0.0,0.0,0.0,0.0,0.0,0.0,0.0,0.0,0.0,0.0,0.0,0.0,0.0,0.0,0.0,0.0,0.0,0.0,0.0,0.0,0.0,0.0,0.0,0.0,0.0,0.0,0.0,0.0,0.0,0.0,0.0,0.0,0.0,0.0,0.0,0.0,0.0,0.0,0.0,0.0,0.0,0.0
0.523,0.522,0.521,0.519,0.517,0.517,0.516,0.516,0.516,0.515,0.515,0.514,0.514,0.513,0.513,0.512,0.511,0.51,0.51,0.509,0.509,0.509,0.509,0.508,0.508,0.507,0.507,0.506,0.506,0.505,0.504,0.503,0.505,0.504,0.503,0.503,0.502,0.502,0.502,0.502,0.501,0.501,0.501,0.5,0.5,0.5,0.499,0.499,0.499,0.497,0.496,0.496,0.495,0.495,0.495,0.494,0.494,0.493,0.492,0.491,0.49,0.489,0.489,0.489,0.488,0.488,0.487,0.487,0.486,0.485,0.485,0.484,0.483,0.483,0.482,0.482,0.482,0.481,0.481,0.481,0.48,0.48,0.479,0.479,0.478,0.478,0.477,0.477,0.476,0.476,0.476,0.475,0.475,0.474,0.474,0.473,0.472,0.472,0.471,0.471,0.47,0.47,0.47,0.469,0.469,0.469,0.469,0.468,0.467,0.467,0.466,0.465,0.465,0.464,0.464,0.464,0.464,0.463,0.463,0.463,0.463,0.462,0.462,0.461,0.461,0.461,0.46,0.46,0.459,0.459,0.458,0.458,0.458,0.458,0.457,0.457,0.457,0.457,0.456,0.456,0.455,0.455,0.454,0.454,0.453,0.0,0.0,0.0,0.0,0.0,0.0,0.0,0.0,0.0,0.0,0.0,0.0,0.33,0.33,0.329,0.329,0.329,0.328,0.328,0.328,0.327,0.327,0.327,0.327,0.326,0.326,0.326,0.326,0.326,0.326,0.326,0.325,0.325,0.324,0.324,0.324,0.324,0.324,0.324,0.324,0.324,0.324,0.324,0.323,0.323,0.323,0.323,0.323,0.323,0.323,0.323,0.323,0.323,0.323,0.323,0.323,0.324,0.324,0.324,0.324,0.324,0.324,0.324,0.324,0.324,0.324,0.324,0.324,0.324,0.324,0.324,0.325,0.325,0.326,0.326,0.326,0.326,0.326,0.326,0.326,0.3265,0.327,0.327,0.327,0.327,0.327,0.328,0.328,0.328,0.329,0.329,0.329,0.329,0.329,0.33,0.33,0.33,0.33,0.331,0.331,0.3315,0.332,0.332,0.332,0.333,0.333,0.333,0.334,0.335,0.335,0.335,0.335,0.335,0.335,0.336,0.336,0.336,0.336,0.336,0.336,0.336,0.336,0.336,0.337,0.337,0.337,0.337,0.337,0.3375,0.338,0.338,0.338,0.338,0.338,0.338,0.338,0.339,0.339,0.339,0.339,0.339,0.34,0.34,0.34,0.341,0.341,0.341,0.342,0.342,0.342,0.342,0.3425,0.343,0.344,0.345,0.345,0.347,0.3474999999999999,0.348,0.348,0.349,0.35,0.351,0.351,0.351,0.351,0.351,0.352,0.352,0.352,0.353,0.35324999999999995,0.354,0.354,0.355,0.0,0.0,0.0,0.0,0.0,0.0,0.0,0.0,0.369,0.37,0.3715,0.373,0.376,0.0,0.0,0.381,0.0,0.0,0.3825,0.382,0.383,0.382,0.382,0.382,0.382,0.382,0.382,0.382,0.381,0.381,0.381,0.381,0.381,0.381,0.381,0.381,0.38,0.38,0.38,0.379,0.378,0.378,0.37775,0.377,0.377,0.377,0.377,0.377,0.376,0.376,0.376,0.376,0.375,0.374,0.374,0.373,0.373,0.373,0.373,0.373,0.373,0.372,0.372,0.371,0.371,0.37,0.37,0.37,0.369,0.369,0.369,0.369,0.369,0.369,0.368,0.368,0.367,0.367,0.367,0.366,0.366,0.366,0.366,0.366,0.365,0.365,0.365,0.364,0.364,0.364,0.364,0.363,0.363,0.362,0.362,0.362,0.362,0.362,0.362,0.361,0.361,0.36,0.36,0.36,0.359,0.359,0.359,0.359,0.0,0.0,0.3585,0.358,0.358,0.358,0.358,0.358,0.357,0.357,0.357,0.357,0.356,0.356,0.356,0.356,0.356,0.355,0.355,0.355,0.355,0.354,0.353,0.353,0.353,0.352,0.352,0.352,0.352,0.352,0.352,0.352,0.351,0.351,0.351,0.351,0.349,0.349,0.348,0.348,0.348,0.348,0.348,0.348,0.347,0.347,0.346,0.346,0.346,0.345,0.345,0.345,0.345,0.345,0.345,0.345,0.345,0.345,0.345,0.344,0.344,0.343,0.343,0.343,0.342,0.342,0.342,0.342,0.342,0.342,0.341,0.341,0.341,0.34,0.34,0.34,0.339,0.339,0.339,0.338,0.338,0.338,0.338,0.338,0.338,0.337,0.337,0.337,0.336,0.336,0.336,0.336,0.336,0.336,0.336,0.336,0.0,0.0,0.0,0.0,0.0,0.0,0.0,0.0,0.0,0.0,0.0,0.0,0.0,0.0,0.0,0.0,0.0,0.0,0.0,0.0,0.0,0.0,0.0,0.0,0.0,0.0,0.0,0.0,0.0,0.0,0.0,0.0,0.0,0.0,0.0,0.0,0.0,0.0,0.0,0.0,0.0,0.0
0.522,0.52,0.517,0.517,0.516,0.516,0.515,0.515,0.514,0.513,0.512,0.511,0.511,0.511,0.51,0.509,0.509,0.509,0.509,0.509,0.508,0.508,0.507,0.507,0.506,0.506,0.506,0.505,0.504,0.503,0.502,0.502,0.502,0.502,0.501,0.501,0.5,0.5,0.499,0.499,0.498,0.497,0.497,0.496,0.496,0.496,0.495,0.495,0.495,0.495,0.495,0.494,0.493,0.492,0.491,0.491,0.489,0.489,0.488,0.488,0.488,0.487,0.488,0.488,0.487,0.487,0.486,0.485,0.484,0.483,0.483,0.482,0.482,0.482,0.481,0.481,0.481,0.48,0.479,0.479,0.478,0.478,0.477,0.477,0.476,0.476,0.476,0.476,0.475,0.475,0.475,0.474,0.473,0.472,0.471,0.471,0.471,0.47,0.47,0.47,0.469,0.469,0.469,0.469,0.468,0.468,0.467,0.467,0.466,0.465,0.465,0.464,0.464,0.463,0.463,0.463,0.463,0.463,0.462,0.461,0.461,0.46,0.46,0.459,0.459,0.459,0.458,0.458,0.458,0.458,0.458,0.457,0.457,0.457,0.457,0.456,0.456,0.455,0.454,0.454,0.453,0.453,0.452,0.452,0.452,0.0,0.0,0.0,0.0,0.0,0.0,0.0,0.0,0.0,0.0,0.0,0.0,0.33,0.329,0.329,0.329,0.329,0.328,0.328,0.327,0.327,0.327,0.327,0.327,0.326,0.326,0.326,0.326,0.326,0.326,0.326,0.325,0.325,0.325,0.325,0.324,0.324,0.324,0.324,0.324,0.324,0.324,0.324,0.324,0.324,0.324,0.324,0.324,0.324,0.324,0.324,0.324,0.324,0.324,0.324,0.324,0.324,0.324,0.324,0.324,0.324,0.324,0.324,0.324,0.324,0.324,0.324,0.324,0.325,0.325,0.325,0.326,0.326,0.326,0.326,0.326,0.326,0.3265,0.327,0.327,0.327,0.327,0.327,0.327,0.327,0.328,0.328,0.329,0.329,0.329,0.329,0.329,0.33,0.33,0.33,0.33,0.331,0.331,0.3315,0.332,0.332,0.332,0.332,0.333,0.333,0.334,0.334,0.335,0.335,0.335,0.335,0.336,0.336,0.336,0.336,0.336,0.336,0.336,0.336,0.3365,0.337,0.337,0.337,0.337,0.337,0.337,0.3375,0.338,0.338,0.338,0.338,0.338,0.338,0.339,0.339,0.339,0.339,0.339,0.339,0.339,0.339,0.34,0.34,0.341,0.341,0.341,0.342,0.342,0.342,0.342,0.3425,0.343,0.344,0.345,0.345,0.346,0.347,0.348,0.348,0.349,0.351,0.351,0.351,0.351,0.352,0.352,0.352,0.353,0.353,0.35350000000000004,0.354,0.354,0.355,0.355,0.356,0.0,0.0,0.0,0.0,0.365,0.3665,0.368,0.0,0.371,0.373,0.374,0.377,0.3775,0.378,0.379,0.381,0.381,0.381,0.382,0.382,0.382,0.382,0.382,0.382,0.381,0.381,0.381,0.381,0.381,0.381,0.381,0.38,0.38,0.38,0.38,0.38,0.38,0.379,0.378,0.378,0.377,0.377,0.377,0.377,0.377,0.376,0.376,0.376,0.375,0.375,0.374,0.374,0.373,0.373,0.373,0.373,0.373,0.373,0.372,0.372,0.371,0.371,0.37,0.37,0.37,0.37,0.369,0.369,0.369,0.369,0.369,0.368,0.368,0.368,0.367,0.367,0.366,0.366,0.366,0.366,0.366,0.365,0.365,0.364,0.364,0.364,0.364,0.363,0.363,0.363,0.363,0.362,0.362,0.362,0.362,0.362,0.362,0.361,0.361,0.36,0.36,0.359,0.359,0.359,0.359,0.358,0.358,0.358,0.358,0.358,0.358,0.358,0.357,0.357,0.356,0.356,0.356,0.356,0.356,0.356,0.356,0.355,0.355,0.355,0.355,0.355,0.354,0.354,0.353,0.353,0.352,0.352,0.352,0.352,0.352,0.352,0.352,0.352,0.351,0.351,0.351,0.35,0.349,0.349,0.348,0.348,0.34775,0.348,0.347,0.347,0.347,0.347,0.346,0.346,0.346,0.345,0.345,0.345,0.345,0.345,0.345,0.345,0.344,0.344,0.344,0.344,0.343,0.343,0.343,0.342,0.342,0.342,0.342,0.342,0.342,0.341,0.341,0.341,0.341,0.34,0.34,0.339,0.339,0.339,0.339,0.339,0.338,0.338,0.338,0.338,0.337,0.337,0.336,0.336,0.336,0.336,0.336,0.336,0.335,0.335,0.335,0.336,0.335,0.335,0.0,0.0,0.0,0.0,0.0,0.0,0.0,0.0,0.0,0.0,0.0,0.0,0.0,0.0,0.0,0.0,0.0,0.0,0.0,0.0,0.0,0.0,0.0,0.0,0.0,0.0,0.0,0.0,0.0,0.0,0.0,0.0,0.0,0.0,0.0,0.0,0.0,0.0,0.0,0.0,0.0,0.0
0.517,0.517,0.516,0.516,0.515,0.514,0.513,0.512,0.511,0.511,0.51,0.509,0.509,0.509,0.509,0.509,0.508,0.508,0.508,0.508,0.507,0.506,0.506,0.505,0.504,0.504,0.504,0.503,0.502,0.502,0.502,0.502,0.501,0.501,0.5,0.499,0.499,0.498,0.497,0.497,0.496,0.496,0.495,0.495,0.495,0.495,0.494,0.494,0.494,0.493,0.493,0.492,0.491,0.49,0.489,0.489,0.488,0.488,0.487,0.487,0.486,0.485,0.485,0.484,0.483,0.483,0.482,0.482,0.482,0.481,0.481,0.48,0.48,0.479,0.479,0.478,0.477,0.477,0.476,0.476,0.476,0.475,0.476,0.476,0.476,0.475,0.475,0.475,0.474,0.473,0.472,0.471,0.471,0.47,0.47,0.469,0.469,0.469,0.469,0.469,0.469,0.468,0.468,0.467,0.467,0.466,0.465,0.465,0.464,0.464,0.463,0.463,0.463,0.463,0.462,0.462,0.462,0.461,0.46,0.46,0.459,0.459,0.458,0.458,0.458,0.458,0.458,0.457,0.457,0.457,0.457,0.456,0.456,0.455,0.455,0.455,0.454,0.453,0.453,0.452,0.452,0.452,0.452,0.452,0.0,0.0,0.0,0.0,0.0,0.0,0.0,0.0,0.0,0.0,0.0,0.0,0.33,0.329,0.329,0.329,0.329,0.328,0.328,0.328,0.327,0.327,0.327,0.327,0.327,0.326,0.326,0.326,0.326,0.326,0.326,0.326,0.326,0.326,0.325,0.325,0.325,0.325,0.325,0.325,0.324,0.324,0.324,0.324,0.324,0.324,0.324,0.324,0.324,0.324,0.324,0.324,0.324,0.324,0.324,0.324,0.324,0.324,0.324,0.324,0.324,0.324,0.324,0.324,0.324,0.324,0.325,0.325,0.325,0.325,0.326,0.326,0.326,0.326,0.326,0.326,0.3265,0.327,0.327,0.327,0.327,0.327,0.327,0.328,0.328,0.328,0.328,0.329,0.329,0.329,0.329,0.329,0.33,0.33,0.33,0.331,0.331,0.331,0.3315,0.332,0.332,0.332,0.333,0.333,0.333,0.334,0.334,0.335,0.335,0.335,0.335,0.336,0.336,0.336,0.336,0.3365,0.337,0.337,0.337,0.337,0.337,0.337,0.337,0.337,0.337,0.337,0.3375,0.338,0.338,0.338,0.338,0.338,0.338,0.339,0.339,0.339,0.339,0.339,0.339,0.339,0.339,0.34,0.34,0.34,0.341,0.341,0.341,0.342,0.342,0.342,0.3425,0.343,0.343,0.344,0.345,0.346,0.347,0.0,0.3485,0.349,0.35,0.351,0.351,0.352,0.352,0.352,0.352,0.353,0.35350000000000004,0.354,0.355,0.355,0.355,0.356,0.356,0.3585,0.36024999999999996,0.362,0.364,0.365,0.366,0.369,0.37,0.3715,0.373,0.374,0.376,0.377,0.3775,0.378,0.379,0.38,0.381,0.381,0.381,0.381,0.381,0.381,0.381,0.381,0.381,0.381,0.381,0.381,0.38,0.38,0.38,0.38,0.379,0.38,0.379,0.379,0.378,0.378,0.377,0.377,0.377,0.377,0.376,0.376,0.376,0.375,0.375,0.374,0.374,0.373,0.373,0.373,0.373,0.373,0.373,0.372,0.372,0.372,0.371,0.371,0.37,0.37,0.37,0.369,0.369,0.369,0.369,0.368,0.368,0.368,0.367,0.367,0.367,0.366,0.366,0.366,0.366,0.366,0.366,0.365,0.365,0.364,0.364,0.364,0.363,0.363,0.363,0.362,0.362,0.362,0.362,0.362,0.362,0.361,0.361,0.361,0.36,0.36,0.359,0.359,0.359,0.359,0.359,0.358,0.358,0.358,0.358,0.358,0.357,0.357,0.357,0.356,0.356,0.356,0.356,0.355,0.356,0.355,0.356,0.355,0.355,0.355,0.355,0.355,0.354,0.354,0.353,0.352,0.352,0.352,0.352,0.351,0.351,0.351,0.351,0.351,0.351,0.351,0.35,0.3495,0.349,0.348,0.348,0.348,0.348,0.347,0.347,0.347,0.346,0.346,0.346,0.345,0.345,0.345,0.345,0.345,0.345,0.345,0.344,0.344,0.344,0.344,0.344,0.343,0.343,0.342,0.342,0.342,0.342,0.342,0.342,0.342,0.341,0.341,0.341,0.341,0.341,0.34,0.339,0.339,0.339,0.339,0.339,0.338,0.338,0.338,0.338,0.338,0.337,0.337,0.337,0.336,0.336,0.336,0.336,0.336,0.335,0.335,0.335,0.335,0.335,0.335,0.335,0.335,0.0,0.0,0.0,0.0,0.0,0.0,0.0,0.0,0.0,0.0,0.0,0.0,0.0,0.0,0.0,0.0,0.0,0.0,0.0,0.0,0.0,0.0,0.0,0.0,0.0,0.0,0.0,0.0,0.0,0.0,0.0,0.0,0.0,0.0,0.0,0.0,0.0,0.0,0.0,0.0,0.0,0.0
0.516,0.516,0.515,0.514,0.513,0.511,0.511,0.51,0.51,0.509,0.509,0.509,0.508,0.508,0.508,0.507,0.507,0.507,0.506,0.506,0.505,0.504,0.504,0.503,0.503,0.502,0.502,0.502,0.502,0.501,0.501,0.5,0.499,0.499,0.498,0.497,0.496,0.496,0.496,0.495,0.495,0.495,0.495,0.494,0.493,0.493,0.492,0.492,0.491,0.491,0.49,0.49,0.489,0.488,0.488,0.488,0.487,0.486,0.486,0.485,0.484,0.484,0.483,0.483,0.482,0.482,0.482,0.481,0.481,0.48,0.48,0.479,0.478,0.477,0.477,0.476,0.476,0.476,0.476,0.475,0.475,0.475,0.474,0.473,0.473,0.472,0.471,0.471,0.47,0.47,0.47,0.469,0.468,0.468,0.467,0.467,0.467,0.466,0.466,0.467,0.467,0.467,0.466,0.466,0.465,0.465,0.464,0.464,0.463,0.463,0.463,0.462,0.462,0.461,0.461,0.46,0.46,0.459,0.459,0.458,0.458,0.458,0.458,0.457,0.457,0.457,0.457,0.457,0.456,0.456,0.455,0.455,0.454,0.454,0.453,0.453,0.452,0.452,0.452,0.452,0.452,0.45,0.45,0.449,0.0,0.0,0.0,0.0,0.0,0.0,0.0,0.0,0.0,0.0,0.0,0.0,0.0,0.329,0.329,0.329,0.329,0.328,0.328,0.327,0.327,0.327,0.327,0.327,0.327,0.326,0.326,0.326,0.326,0.326,0.326,0.326,0.326,0.326,0.326,0.325,0.325,0.325,0.325,0.325,0.325,0.325,0.325,0.325,0.325,0.325,0.325,0.325,0.325,0.325,0.325,0.325,0.324,0.324,0.324,0.324,0.324,0.324,0.324,0.324,0.324,0.324,0.325,0.325,0.325,0.325,0.325,0.325,0.326,0.326,0.326,0.326,0.326,0.326,0.3265,0.327,0.327,0.327,0.327,0.328,0.328,0.328,0.328,0.328,0.328,0.329,0.329,0.329,0.329,0.329,0.33,0.33,0.33,0.331,0.331,0.331,0.3315,0.332,0.332,0.332,0.332,0.333,0.333,0.334,0.334,0.335,0.335,0.335,0.335,0.336,0.336,0.336,0.3365,0.337,0.337,0.337,0.337,0.337,0.337,0.338,0.338,0.338,0.338,0.338,0.338,0.338,0.338,0.338,0.338,0.338,0.338,0.339,0.339,0.339,0.339,0.339,0.339,0.339,0.34,0.34,0.34,0.34,0.34,0.341,0.341,0.341,0.341,0.342,0.342,0.342,0.342625,0.343,0.344,0.345,0.345,0.347,0.3475,0.34824999999999995,0.349,0.35,0.351,0.352,0.352,0.352,0.352,0.353,0.353,0.35350000000000004,0.354,0.355,0.356,0.3565,0.35775,0.359,0.3595,0.361,0.362,0.365,0.36550000000000005,0.366,0.369,0.371,0.37174999999999997,0.373,0.374,0.375,0.377,0.377,0.3775,0.378,0.379,0.38,0.38,0.381,0.381,0.381,0.381,0.381,0.381,0.381,0.38,0.38,0.38,0.38,0.379,0.379,0.379,0.378,0.378,0.378,0.378,0.378,0.377,0.377,0.377,0.377,0.376,0.376,0.375,0.375,0.374,0.374,0.373,0.373,0.373,0.373,0.373,0.373,0.372,0.372,0.371,0.371,0.371,0.37,0.37,0.37,0.37,0.369,0.369,0.369,0.368,0.368,0.368,0.367,0.367,0.367,0.366,0.366,0.366,0.366,0.366,0.366,0.366,0.365,0.365,0.364,0.364,0.364,0.363,0.363,0.363,0.362,0.362,0.362,0.362,0.362,0.362,0.361,0.361,0.361,0.36,0.36,0.359,0.359,0.359,0.359,0.358,0.358,0.358,0.358,0.357,0.357,0.357,0.356,0.356,0.356,0.356,0.355,0.355,0.355,0.355,0.355,0.355,0.355,0.355,0.355,0.354,0.354,0.354,0.353,0.352,0.352,0.352,0.351,0.351,0.351,0.351,0.351,0.351,0.351,0.351,0.35,0.35,0.35,0.349,0.0,0.0,0.348,0.348,0.347,0.347,0.346,0.346,0.345,0.345,0.345,0.345,0.345,0.345,0.345,0.345,0.344,0.344,0.344,0.344,0.343,0.343,0.343,0.342,0.342,0.342,0.342,0.342,0.341,0.341,0.341,0.341,0.341,0.341,0.341,0.34,0.34,0.34,0.339,0.339,0.339,0.339,0.338,0.338,0.338,0.338,0.338,0.337,0.337,0.337,0.336,0.336,0.335,0.335,0.335,0.335,0.335,0.335,0.335,0.335,0.335,0.335,0.335,0.335,0.335,0.0,0.0,0.0,0.0,0.0,0.0,0.0,0.0,0.0,0.0,0.0,0.0,0.0,0.0,0.0,0.0,0.0,0.0,0.0,0.0,0.0,0.0,0.0,0.0,0.0,0.0,0.0,0.0,0.0,0.0,0.0,0.0,0.0,0.0,0.0,0.0,0.0,0.0,0.0,0.0,0.0,0.0
0.515,0.514,0.512,0.511,0.51,0.509,0.509,0.509,0.508,0.508,0.508,0.507,0.507,0.506,0.506,0.506,0.505,0.504,0.504,0.504,0.503,0.503,0.502,0.502,0.502,0.502,0.501,0.501,0.5,0.5,0.499,0.499,0.497,0.497,0.496,0.496,0.495,0.495,0.495,0.494,0.494,0.493,0.493,0.492,0.491,0.491,0.49,0.49,0.489,0.489,0.489,0.488,0.488,0.487,0.487,0.486,0.485,0.484,0.484,0.483,0.483,0.482,0.482,0.482,0.481,0.481,0.481,0.48,0.479,0.478,0.477,0.477,0.476,0.476,0.476,0.476,0.475,0.475,0.475,0.474,0.474,0.473,0.472,0.471,0.471,0.47,0.47,0.47,0.469,0.469,0.468,0.467,0.467,0.466,0.466,0.465,0.465,0.465,0.464,0.464,0.464,0.464,0.464,0.463,0.463,0.462,0.462,0.461,0.461,0.46,0.459,0.459,0.46,0.459,0.459,0.459,0.458,0.458,0.458,0.458,0.457,0.457,0.457,0.457,0.456,0.456,0.455,0.455,0.455,0.454,0.453,0.453,0.453,0.452,0.452,0.452,0.452,0.452,0.451,0.45,0.449,0.449,0.448,0.447,0.0,0.0,0.0,0.0,0.0,0.0,0.0,0.0,0.0,0.0,0.0,0.0,0.0,0.329,0.329,0.329,0.328,0.328,0.327,0.327,0.327,0.327,0.327,0.327,0.327,0.326,0.326,0.326,0.326,0.326,0.326,0.326,0.326,0.326,0.326,0.326,0.325,0.325,0.325,0.325,0.325,0.325,0.325,0.325,0.325,0.325,0.325,0.325,0.325,0.325,0.325,0.325,0.325,0.325,0.325,0.325,0.325,0.325,0.325,0.325,0.325,0.325,0.325,0.325,0.325,0.325,0.326,0.326,0.326,0.326,0.326,0.3265,0.327,0.327,0.327,0.327,0.328,0.328,0.328,0.328,0.329,0.329,0.329,0.329,0.329,0.329,0.329,0.329,0.33,0.33,0.33,0.331,0.331,0.331,0.3315,0.332,0.332,0.332,0.332,0.332,0.333,0.333,0.334,0.334,0.335,0.335,0.335,0.335,0.336,0.336,0.336,0.3365,0.337,0.337,0.337,0.338,0.338,0.338,0.338,0.338,0.338,0.338,0.338,0.338,0.338,0.338,0.338,0.338,0.339,0.339,0.339,0.339,0.339,0.339,0.339,0.339,0.34,0.34,0.34,0.34,0.34,0.341,0.341,0.341,0.341,0.341,0.342,0.342,0.342,0.34225,0.343,0.343,0.344,0.345,0.346,0.347,0.348,0.348,0.35,0.351,0.352,0.352,0.353,0.353,0.353,0.35350000000000004,0.354,0.354,0.355,0.355,0.357,0.358,0.3591875,0.36,0.362,0.364,0.364,0.3655,0.367,0.37,0.371,0.372,0.373,0.373,0.374,0.376,0.377,0.377,0.377625,0.378,0.379,0.38,0.38,0.381,0.381,0.381,0.381,0.38,0.38,0.38,0.38,0.379,0.378,0.378,0.378,0.377,0.377,0.377,0.377,0.377,0.377,0.377,0.377,0.377,0.376,0.376,0.375,0.375,0.374,0.374,0.373,0.373,0.373,0.373,0.372,0.372,0.372,0.371,0.371,0.371,0.37,0.37,0.37,0.37,0.369,0.369,0.369,0.369,0.368,0.368,0.367,0.367,0.367,0.366,0.366,0.366,0.366,0.366,0.366,0.366,0.365,0.365,0.365,0.364,0.364,0.363,0.363,0.363,0.362,0.362,0.362,0.362,0.362,0.362,0.361,0.361,0.361,0.361,0.36,0.359,0.359,0.359,0.359,0.358,0.358,0.358,0.358,0.357,0.357,0.357,0.356,0.356,0.356,0.355,0.355,0.355,0.355,0.355,0.355,0.355,0.355,0.355,0.354,0.354,0.354,0.354,0.0,0.0,0.352,0.352,0.351,0.351,0.351,0.351,0.351,0.351,0.35,0.35,0.35,0.35,0.35,0.349,0.348,0.349,0.348,0.0,0.0,0.347,0.346,0.346,0.346,0.345,0.345,0.345,0.345,0.345,0.345,0.345,0.345,0.344,0.344,0.343,0.343,0.343,0.342,0.342,0.342,0.342,0.342,0.342,0.341,0.341,0.341,0.341,0.341,0.341,0.341,0.34,0.34,0.34,0.339,0.339,0.339,0.339,0.339,0.338,0.338,0.338,0.338,0.338,0.337,0.337,0.336,0.336,0.336,0.335,0.335,0.335,0.335,0.335,0.335,0.335,0.335,0.334,0.334,0.334,0.334,0.334,0.334,0.334,0.0,0.0,0.0,0.0,0.0,0.0,0.0,0.0,0.0,0.0,0.0,0.0,0.0,0.0,0.0,0.0,0.0,0.0,0.0,0.0,0.0,0.0,0.0,0.0,0.0,0.0,0.0,0.0,0.0,0.0,0.0,0.0,0.0,0.0,0.0,0.0,0.0,0.0,0.0,0.0,0.0,0.0
0.513,0.511,0.51,0.509,0.509,0.509,0.508,0.508,0.507,0.506,0.506,0.505,0.504,0.504,0.504,0.503,0.503,0.503,0.502,0.502,0.502,0.502,0.502,0.501,0.501,0.5,0.499,0.499,0.498,0.49775,0.497,0.496,0.496,0.496,0.495,0.495,0.494,0.494,0.493,0.493,0.492,0.491,0.491,0.49,0.49,0.489,0.489,0.489,0.488,0.488,0.487,0.487,0.486,0.486,0.485,0.484,0.483,0.483,0.482,0.482,0.482,0.482,0.481,0.481,0.48,0.48,0.479,0.478,0.477,0.477,0.476,0.476,0.476,0.475,0.475,0.474,0.473,0.473,0.473,0.472,0.472,0.471,0.471,0.47,0.47,0.47,0.469,0.469,0.468,0.467,0.467,0.466,0.465,0.465,0.464,0.464,0.464,0.464,0.463,0.463,0.463,0.463,0.463,0.462,0.461,0.461,0.46,0.459,0.459,0.458,0.458,0.458,0.458,0.457,0.457,0.457,0.457,0.457,0.456,0.455,0.455,0.455,0.455,0.455,0.455,0.454,0.454,0.453,0.453,0.453,0.452,0.452,0.452,0.452,0.451,0.451,0.45,0.449,0.449,0.448,0.448,0.447,0.447,0.446,0.446,0.446,0.0,0.0,0.0,0.0,0.0,0.0,0.0,0.0,0.0,0.0,0.0,0.0,0.329,0.328,0.328,0.328,0.327,0.327,0.327,0.327,0.327,0.327,0.327,0.326,0.326,0.326,0.326,0.326,0.326,0.326,0.326,0.326,0.326,0.326,0.326,0.325,0.3255,0.326,0.326,0.326,0.325,0.325,0.325,0.32525,0.325,0.3255,0.326,0.326,0.326,0.325,0.3255,0.326,0.326,0.326,0.326,0.326,0.326,0.326,0.326,0.326,0.326,0.326,0.326,0.326,0.326,0.326,0.326,0.3265,0.327,0.327,0.327,0.328,0.328,0.328,0.328,0.328,0.329,0.329,0.329,0.329,0.329,0.329,0.329,0.329,0.33,0.33,0.33,0.33,0.331,0.331,0.3315,0.332,0.332,0.332,0.332,0.332,0.333,0.333,0.334,0.334,0.335,0.335,0.335,0.335,0.336,0.336,0.336,0.336,0.3365,0.337,0.338,0.338,0.338,0.338,0.338,0.338,0.338,0.338,0.338,0.338,0.338,0.338,0.338,0.338,0.338,0.339,0.339,0.339,0.339,0.339,0.339,0.339,0.34,0.34,0.34,0.34,0.34,0.34,0.341,0.341,0.341,0.341,0.341,0.341,0.342,0.342,0.342,0.342,0.34275,0.343,0.344,0.345,0.347,0.3475,0.348,0.349,0.35,0.351,0.352,0.353,0.35350000000000004,0.354,0.354,0.354,0.354,0.355,0.355,0.357,0.359,0.36,0.361,0.363,0.364,0.365,0.366,0.36787500000000006,0.37,0.371,0.372,0.373,0.373,0.374,0.375,0.376,0.377,0.37725,0.378,0.379,0.379,0.38,0.38,0.38,0.38,0.38,0.38,0.38,0.38,0.379,0.378,0.378,0.378,0.377,0.377,0.377,0.377,0.377,0.377,0.377,0.376,0.376,0.376,0.376,0.375,0.375,0.374,0.374,0.373,0.373,0.373,0.373,0.372,0.372,0.371,0.371,0.371,0.37,0.37,0.37,0.37,0.369,0.369,0.369,0.369,0.369,0.368,0.367,0.367,0.367,0.366,0.366,0.366,0.366,0.366,0.366,0.366,0.365,0.365,0.365,0.365,0.364,0.364,0.363,0.363,0.363,0.362,0.362,0.362,0.362,0.362,0.362,0.361,0.361,0.36,0.36,0.359,0.359,0.359,0.359,0.359,0.358,0.358,0.358,0.358,0.357,0.357,0.356,0.356,0.356,0.355,0.355,0.355,0.355,0.355,0.355,0.355,0.355,0.354,0.354,0.354,0.354,0.353,0.353,0.352,0.352,0.0,0.0,0.351,0.351,0.351,0.351,0.35,0.35,0.35,0.35,0.35,0.349,0.349,0.349,0.348,0.348,0.348,0.348,0.347,0.347,0.346,0.346,0.345,0.345,0.345,0.345,0.345,0.345,0.345,0.345,0.344,0.344,0.344,0.343,0.343,0.343,0.342,0.342,0.342,0.342,0.342,0.341,0.341,0.341,0.341,0.34,0.34,0.34,0.34,0.34,0.34,0.339,0.339,0.339,0.339,0.338,0.338,0.338,0.338,0.338,0.338,0.338,0.337,0.337,0.336,0.336,0.335,0.335,0.335,0.335,0.335,0.335,0.334,0.334,0.334,0.334,0.334,0.333,0.333,0.333,0.333,0.333,0.333,0.333,0.0,0.0,0.0,0.0,0.0,0.0,0.0,0.0,0.0,0.0,0.0,0.0,0.0,0.0,0.0,0.0,0.0,0.0,0.0,0.0,0.0,0.0,0.0,0.0,0.0,0.0,0.0,0.0,0.0,0.0,0.0,0.0,0.0,0.0,0.0,0.0,0.0,0.0,0.0,0.0,0.0,0.0
0.51,0.509,0.509,0.509,0.508,0.507,0.506,0.506,0.505,0.504,0.504,0.504,0.503,0.503,0.503,0.5022500000000001,0.502,0.502,0.502,0.502,0.501,0.5,0.5,0.499,0.499,0.498,0.497,0.497,0.496,0.496,0.496,0.495,0.495,0.495,0.495,0.494,0.493,0.492,0.491,0.491,0.49,0.49,0.489,0.489,0.489,0.488,0.488,0.488,0.487,0.486,0.486,0.485,0.484,0.484,0.483,0.483,0.482,0.482,0.482,0.481,0.481,0.48,0.479,0.479,0.478,0.478,0.477,0.477,0.476,0.476,0.475,0.475,0.474,0.474,0.473,0.472,0.472,0.471,0.471,0.471,0.47,0.47,0.47,0.469,0.469,0.469,0.467,0.467,0.466,0.465,0.465,0.465,0.464,0.464,0.464,0.463,0.463,0.463,0.463,0.463,0.462,0.461,0.461,0.46,0.459,0.459,0.458,0.458,0.458,0.458,0.457,0.457,0.457,0.457,0.456,0.455,0.455,0.455,0.454,0.454,0.453,0.453,0.453,0.453,0.452,0.452,0.452,0.452,0.451,0.451,0.451,0.45,0.451,0.45,0.449,0.449,0.448,0.448,0.447,0.447,0.447,0.446,0.446,0.445,0.444,0.444,0.0,0.0,0.0,0.0,0.0,0.0,0.0,0.0,0.0,0.0,0.0,0.0,0.328,0.328,0.328,0.327,0.327,0.327,0.327,0.327,0.327,0.326,0.326,0.326,0.326,0.326,0.326,0.326,0.326,0.326,0.326,0.326,0.326,0.326,0.326,0.326,0.326,0.326,0.326,0.326,0.326,0.326,0.326,0.326,0.326,0.326,0.326,0.326,0.326,0.326,0.326,0.326,0.326,0.326,0.326,0.326,0.326,0.326,0.326,0.326,0.326,0.326,0.326,0.326,0.326,0.3265,0.327,0.327,0.327,0.327,0.328,0.328,0.328,0.328,0.329,0.329,0.329,0.329,0.329,0.329,0.329,0.33,0.33,0.33,0.33,0.331,0.331,0.331,0.3315,0.332,0.332,0.332,0.332,0.332,0.333,0.333,0.333,0.334,0.334,0.335,0.335,0.335,0.335,0.336,0.336,0.336,0.3365,0.337,0.337,0.338,0.338,0.338,0.339,0.339,0.339,0.339,0.339,0.339,0.339,0.339,0.339,0.339,0.339,0.339,0.339,0.339,0.339,0.339,0.339,0.339,0.34,0.34,0.34,0.34,0.34,0.341,0.341,0.341,0.341,0.341,0.341,0.341,0.341,0.341,0.342,0.342,0.342,0.3425,0.343,0.343,0.344,0.345,0.347,0.34762499999999996,0.348,0.349,0.351,0.352,0.353,0.35350000000000004,0.354,0.354,0.354,0.354,0.355,0.355,0.356,0.359,0.36050000000000004,0.362,0.364,0.365,0.366,0.368,0.369,0.37,0.371,0.372,0.373,0.373,0.374,0.375,0.376,0.377,0.377,0.377,0.37775000000000003,0.378,0.379,0.379,0.379,0.38,0.38,0.38,0.379,0.379,0.378,0.378,0.377,0.377,0.377,0.377,0.377,0.376,0.376,0.376,0.376,0.376,0.376,0.375,0.375,0.374,0.374,0.374,0.373,0.373,0.373,0.372,0.372,0.372,0.371,0.371,0.37,0.37,0.37,0.37,0.369,0.369,0.369,0.369,0.369,0.369,0.368,0.367,0.367,0.366,0.366,0.366,0.366,0.366,0.366,0.365,0.365,0.365,0.365,0.364,0.364,0.364,0.364,0.363,0.363,0.363,0.362,0.362,0.362,0.362,0.362,0.362,0.361,0.361,0.36,0.359,0.359,0.359,0.359,0.359,0.358,0.358,0.358,0.358,0.358,0.357,0.356,0.356,0.355,0.355,0.355,0.355,0.355,0.355,0.355,0.355,0.355,0.355,0.354,0.354,0.354,0.353,0.353,0.352,0.352,0.351,0.351,0.351,0.0,0.0,0.35,0.35,0.35,0.349,0.349,0.349,0.349,0.349,0.349,0.348,0.348,0.348,0.348,0.347,0.347,0.346,0.346,0.346,0.345,0.345,0.345,0.345,0.345,0.345,0.345,0.344,0.344,0.344,0.344,0.343,0.343,0.342,0.342,0.342,0.342,0.341,0.341,0.341,0.341,0.341,0.34,0.34,0.34,0.339,0.339,0.339,0.339,0.339,0.339,0.338,0.338,0.338,0.338,0.338,0.338,0.338,0.337,0.337,0.337,0.336,0.336,0.336,0.336,0.335,0.335,0.335,0.334,0.334,0.334,0.334,0.333,0.333,0.333,0.333,0.333,0.333,0.332,0.332,0.332,0.332,0.332,0.0,0.0,0.0,0.0,0.0,0.0,0.0,0.0,0.0,0.0,0.0,0.0,0.0,0.0,0.0,0.0,0.0,0.0,0.0,0.0,0.0,0.0,0.0,0.0,0.0,0.0,0.0,0.0,0.0,0.0,0.0,0.0,0.0,0.0,0.0,0.0,0.0,0.0,0.0,0.0,0.0,0.0,0.0
