0,0,0,0,0,0,0,0,0,0,0,3.163,3.172,3.189,3.189,3.216,3.234,3.288,3.326,3.365,3.404,3.414,3.414,3.414,3.404,3.384,3.336,3.298,3.243,3.216,3.189,3.163,3.155,3.146,3.155,0,3.181,3.216,0,0,3.496,3.627,0,3.767,3.829,3.868,3.92,3.987,4.056,4.085,4.128,4.158,4.188,4.203,4.218,4.233,4.233,4.249,4.249,4.249,4.249,4.249,4.249,4.249,4.249,4.249,4.218,4.188,4.158,4.07,4.028,3.987,3.946,3.92,3.906,3.88,3.88,3.88,3.88,3.88,3.88,3.88,3.893,3.893,3.906,3.92,3.92,3.92,3.933,3.933,3.92,3.92,3.906,3.893,3.88,3.868,3.868,3.855,3.855,3.842,3.829,3.817,3.804,3.78,3.627,3.465,0,2.955,2.903,2.889,2.867,2.867,2.853,2.832,2.819,2.812,2.805,2.805,2.792,2.785,2.785,2.785,2.772,2.772,2.765,2.772,2.772,2.772,2.785,2.772,2.772,2.772,2.772,2.765,2.765,2.765,2.752,2.746,2.746,2.746,2.746,2.752,2.752,2.752,2.752,2.752,2.746,2.739,2.733,2.733,2.72,2.714,2.714,2.707,2.707,2.707,2.701,2.695,2.689,2.689,2.689,2.689,2.689,2.689,2.695,2.695,2.701,2.701,2.707,2.707,2.714,0,0,0,0,0,0,0,0,0,0,0,1.22,1.219,1.219,0,0,0,0,0,0,0,0,0,0.745,0.746,0.747,0.748,0.748,0.748,0.747,0.747,0.747,0.745,0.743,0.741,0.74,0.739,0.738,0.739,0.739,0.738,0.738,0.738,0.738,0.737,0.737,0.736,0.736,0.735,0.735,0.734,0.734,0.733,0.732,0.731,0.728,0.727,0.726,0.724,0.724,0.723,0.723,0.722,0.722,0.721,0.721,0.72,0.72,0.72,0.719,0.719,0.719,0.718,0.717,0.716,0.714,0.711,0.71,0.709,0.708,0.707,0.706,0.706,0.705,0.704,0.703,0.702,0.7,0.7,0.699,0.698,0.697,0.696,0.695,0.695,0.695,0.694,0.693,0.693,0.693,0.693,0.693,0.692,0.691,0.69,0.688,0.687,0.686,0.684,0.683,0.682,0.681,0.68,0.68,0.68,0.68,0.68,0.679,0.679,0.678,0.677,0.676,0.674,0.672,0.671,0.67,0.669,0.668,0.668,0.667,0.666,0.665,0.664,0.663,0.662,0.66,0.658,0.658,0.657,0.657,0.656,0.656,0.656,0.656,0.655,0.655,0.655,0.655,0.655,0.654,0.654,0.653,0.651,0.649,0.648,0.646,0.645,0.644,0.644,0.644,0.643,0.643,0.642,0.642,0.641,0.64,0.639,0.638,0.637,0.636,0.635,0.634,0.634,0.633,0.633,0.633,0.632,0.632,0.632,0.631,0.63,0.629,0.628,0.627,0.626,0.625,0.624,0.624,0.623,0.623,0.623,0.622,0.622,0.622,0.621,0.621,0.62,0.62,0.618,0.615,0.614,0.613,0.612,0.611,0.611,0.61,0.61,0.609,0.608,0.608,0.607,0.606,0.606,0.605,0.604,0.603,0.603,0.603,0.602,0.602,0.601,0.601,0.601,0.6,0.599,0.598,0.598,0.597,0.596,0.595,0.594,0.594,0.593,0.592,0.592,0.592,0.592,0.591,0.591,0.59,0.59,0.589,0.588,0.588,0.587,0.586,0.585,0.584,0.583,0.583,0.582,0.582,0.581,0.581,0.581,0.581,0.58,0.58,0.58,0.579,0.58,0.58,0.58,0.58,0.58,0,0,0,0,0,0,0,0,0,0,0,0,0.395,0.395,0.395,0.395,0.395,0.394,0.394,0.394,0.394,0.394,0.394,0.394,0.394,0.394,0.395,0.395,0.396,0.396,0.396,0.397,0,0,0,0,0,0,0,0,0,0,0,0,0,0,0,0,0,0.544,0.544,0.543,0.543,0.543,0.542,0.541,0.541,0.541,0.54,0.54,0.54,0.54,0.539,0.539,0.539,0.539,0.538,0.538,0.537,0.537,0.536,0.536,0.536,0.535,0.534,0.534,0.533,0.533,0.532,0.531,0.531,0.531,0.529,0.528,0.527,0.526,0.526,0.525,0.525,0.524,0.524,0.523,0.523,0.523,0.523,0.522,0.522,0.521,0.521,0.521,0.52,0.519,0.519,0.518,0.517,0.517,0.516,0.516,0.516,0.516,0.515,0.515,0.513,0.512,0.511,0.511,0.51,0.509,0.509,0.509,0.509,0.509,0.509,0.508,0.508,0.507,0.507,0.506,0.505,0.505,0.504,0.504,0.503,0.503,0.502,0.502,0.502,0.502,0.502,0.501,0.501,0.501,0.501,0.501,0.501,0.5,0.501,0.5,0.5,0,0,0,0,0,0,0,0,0,0,0,0,0,0,0,0,0,0,0,0,0,0,0,0,0,0,0,0,0,0,0,0,0,0,0,0,0,0,0,0,0,0,0,0,0,0,0,0,0,0,0,0,0,0,0
0,0,0,0,0,0,0,0,0,0,0,3.163,3.172,3.181,3.198,3.207,3.243,3.288,3.336,3.384,3.414,3.434,3.444,3.444,3.444,3.424,3.404,3.355,3.298,3.243,3.207,3.181,3.163,3.146,3.146,3.155,0,3.181,3.225,0,0,3.496,3.615,3.743,0,3.817,3.855,3.893,3.946,4.028,4.07,4.128,4.173,4.188,4.203,4.218,4.218,4.233,4.249,4.249,4.249,4.249,4.249,4.249,4.249,4.233,4.218,4.188,4.173,4.07,4.028,3.987,3.946,3.92,3.893,3.88,3.868,3.868,3.868,3.868,3.868,3.868,3.868,3.868,3.868,3.88,3.88,3.893,3.893,3.893,3.893,3.893,3.88,3.868,3.868,3.855,3.842,3.829,3.829,3.829,3.817,3.804,3.767,3.731,0,3.454,0,2.962,2.91,2.896,2.882,2.867,2.853,2.839,2.832,2.819,2.812,2.812,2.805,2.792,2.792,2.785,2.785,2.772,2.772,2.772,2.772,2.772,2.772,2.772,2.772,2.765,2.765,2.752,2.752,2.746,2.746,2.739,2.733,2.739,2.739,2.752,2.746,2.746,2.746,2.746,2.739,2.739,2.733,2.726,2.72,2.714,2.707,2.707,2.701,2.695,2.695,2.689,2.689,2.689,2.689,2.689,2.689,2.689,2.689,2.689,2.695,2.701,2.701,2.707,2.707,0,0,0,0,0,0,0,0,0,0,0,0,0,0,0,0,0,0,0.744,0.743,0.743,0.743,0.744,0.743,0.745,0.745,0.745,0.747,0.747,0.746,0.745,0.743,0.742,0.741,0.739,0.739,0.737,0.736,0.736,0.736,0.736,0.736,0.735,0.735,0.735,0.735,0.734,0.734,0.734,0.733,0.732,0.73,0.729,0.727,0.725,0.724,0.723,0.722,0.722,0.721,0.721,0.721,0.72,0.72,0.72,0.719,0.719,0.719,0.719,0.718,0.717,0.716,0.715,0.714,0.71,0.709,0.708,0.707,0.706,0.706,0.706,0.704,0.703,0.702,0.7,0.699,0.698,0.696,0.696,0.695,0.695,0.693,0.693,0.693,0.693,0.692,0.692,0.691,0.691,0.69,0.69,0.69,0.688,0.687,0.686,0.684,0.683,0.682,0.681,0.68,0.68,0.679,0.679,0.678,0.678,0.678,0.676,0.676,0.674,0.673,0.672,0.671,0.67,0.669,0.669,0.668,0.667,0.667,0.666,0.665,0.663,0.662,0.658,0.658,0.657,0.656,0.656,0.655,0.655,0.655,0.655,0.654,0.654,0.654,0.654,0.654,0.654,0.654,0.653,0.653,0.651,0.65,0.648,0.647,0.646,0.644,0.644,0.644,0.643,0.642,0.642,0.641,0.64,0.639,0.638,0.637,0.636,0.635,0.634,0.634,0.633,0.633,0.632,0.632,0.631,0.631,0.629,0.629,0.628,0.627,0.626,0.625,0.625,0.624,0.623,0.623,0.622,0.622,0.622,0.622,0.621,0.621,0.621,0.62,0.62,0.619,0.618,0.615,0.613,0.613,0.612,0.612,0.611,0.61,0.609,0.608,0.607,0.606,0.606,0.605,0.604,0.603,0.603,0.602,0.602,0.602,0.602,0.601,0.601,0.601,0.6,0.599,0.599,0.598,0.597,0.595,0.594,0.594,0.593,0.592,0.592,0.592,0.591,0.591,0.591,0.59,0.59,0.589,0.588,0.587,0.586,0.585,0.585,0.584,0.584,0.583,0.582,0.582,0.582,0.581,0.58,0.58,0.579,0.579,0.578,0.578,0.577,0.576,0.576,0.576,0.576,0.576,0.575,0.576,0.576,0,0,0,0,0,0,0,0,0,0,0,0,0.395,0.395,0.395,0.394,0.394,0.394,0.394,0.394,0.394,0.394,0.394,0.394,0.394,0.394,0.395,0.396,0.396,0.396,0.397,0.397,0,0,0,0,0,0,0,0,0,0,0,0,0,0,0,0,0,0.542,0.542,0.541,0.541,0.541,0.54,0.54,0.54,0.539,0.539,0.539,0.539,0.539,0.538,0.538,0.537,0.536,0.536,0.535,0.535,0.534,0.534,0.533,0.533,0.532,0.532,0.532,0.531,0.531,0.531,0.53,0.528,0.527,0.526,0.525,0.524,0.524,0.524,0.523,0.523,0.523,0.523,0.522,0.522,0.521,0.52,0.519,0.519,0.519,0.518,0.518,0.517,0.517,0.517,0.516,0.516,0.516,0.516,0.515,0.514,0.513,0.512,0.511,0.51,0.51,0.509,0.509,0.509,0.508,0.508,0.507,0.507,0.507,0.506,0.505,0.504,0.504,0.504,0.503,0.503,0.502,0.502,0.502,0.502,0.502,0.501,0.501,0.501,0.501,0.5,0.5,0.5,0.5,0.5,0.499,0.499,0.499,0.499,0.499,0.499,0,0,0,0,0,0,0,0,0,0,0,0,0,0,0,0,0,0,0,0,0,0,0,0,0,0,0,0,0,0,0,0,0,0,0,0,0,0,0,0,0,0,0,0,0,0,0,0,0,0,0,0,0,0,0
0,0,0,0,0,0,0,0,0,0,0,3.163,3.172,3.181,3.189,3.207,3.234,3.288,3.336,3.394,3.424,3.444,3.454,3.454,3.454,3.444,3.434,3.394,3.336,3.288,3.225,3.189,3.172,3.146,3.138,3.146,3.155,0,3.181,3.225,0,0,3.485,3.56,3.672,3.78,0,3.829,3.868,3.92,3.987,4.07,4.114,4.158,4.173,4.203,4.203,4.218,4.218,4.233,4.249,4.249,4.249,4.249,4.233,4.233,4.203,4.188,4.085,4.056,4.014,3.973,3.933,3.906,3.893,3.88,3.868,3.868,3.868,3.868,3.868,3.868,3.868,3.868,3.868,3.868,3.868,3.868,3.868,3.868,3.868,3.868,3.868,3.855,3.855,3.829,3.829,3.829,3.817,3.817,3.804,3.767,3.731,0,0,3.444,0,3.113,2.932,2.91,2.896,2.882,2.86,2.853,2.839,2.832,2.819,2.812,2.805,2.805,2.792,2.792,2.785,2.772,2.772,2.765,2.765,2.765,2.765,2.765,2.765,2.765,2.752,2.752,2.752,2.746,2.739,2.739,2.733,2.733,2.739,2.746,2.746,2.746,2.746,2.746,2.739,2.733,2.733,2.726,2.726,2.714,2.714,2.707,2.707,2.695,2.695,2.689,2.689,2.682,2.682,2.682,2.682,2.682,2.682,2.682,2.689,2.695,2.695,2.701,0,0,0,0,0,0,0,0,0,0,0,0,0,0,0.745,0.744,0.743,0.743,0.743,0.742,0.742,0.741,0.743,0.741,0.742,0.743,0.743,0.745,0.745,0.745,0.743,0.743,0.741,0.74,0.738,0.737,0.736,0.735,0.735,0.735,0.734,0.734,0.734,0.734,0.734,0.733,0.733,0.732,0.731,0.73,0.728,0.726,0.724,0.724,0.723,0.722,0.721,0.721,0.72,0.72,0.719,0.719,0.719,0.719,0.719,0.718,0.718,0.717,0.717,0.716,0.715,0.714,0.71,0.709,0.708,0.707,0.706,0.706,0.705,0.704,0.703,0.702,0.7,0.699,0.697,0.696,0.695,0.694,0.694,0.693,0.693,0.693,0.692,0.691,0.69,0.69,0.689,0.688,0.687,0.686,0.685,0.684,0.684,0.683,0.682,0.681,0.68,0.68,0.68,0.679,0.678,0.676,0.676,0.674,0.674,0.674,0.673,0.672,0.671,0.67,0.669,0.669,0.668,0.668,0.667,0.667,0.666,0.665,0.664,0.662,0.659,0.658,0.657,0.656,0.655,0.655,0.655,0.654,0.653,0.653,0.652,0.652,0.652,0.652,0.651,0.651,0.651,0.651,0.651,0.651,0.65,0.649,0.647,0.646,0.644,0.644,0.644,0.643,0.642,0.641,0.64,0.64,0.639,0.638,0.636,0.635,0.634,0.634,0.633,0.632,0.632,0.631,0.631,0.629,0.628,0.628,0.627,0.626,0.625,0.624,0.624,0.623,0.623,0.622,0.622,0.622,0.621,0.621,0.62,0.62,0.62,0.62,0.619,0.618,0.618,0.618,0.616,0.614,0.613,0.612,0.611,0.611,0.61,0.609,0.608,0.607,0.606,0.604,0.603,0.603,0.602,0.602,0.602,0.601,0.601,0.601,0.601,0.601,0.6,0.599,0.598,0.598,0.596,0.595,0.594,0.593,0.592,0.592,0.592,0.592,0.591,0.59,0.59,0.589,0.589,0.588,0.587,0.586,0.586,0.585,0.584,0.583,0.583,0.582,0.582,0.582,0.581,0.581,0.58,0.579,0.578,0.577,0.576,0.575,0.575,0.575,0.574,0.574,0.574,0.573,0.573,0.573,0.574,0.573,0.573,0,0,0,0,0,0,0,0,0,0,0,0,0.395,0.395,0.394,0.394,0.394,0.394,0.394,0.394,0.394,0.394,0.394,0.394,0.394,0.394,0.394,0.395,0.395,0.396,0.396,0.397,0,0,0,0,0,0,0,0,0,0,0,0,0,0,0,0,0,0.54,0.54,0.54,0.54,0.539,0.539,0.539,0.539,0.539,0.539,0.538,0.538,0.537,0.537,0.535,0.535,0.534,0.534,0.533,0.533,0.532,0.532,0.532,0.532,0.531,0.531,0.531,0.531,0.53,0.53,0.527,0.526,0.525,0.525,0.524,0.524,0.523,0.523,0.523,0.522,0.522,0.521,0.521,0.519,0.519,0.518,0.517,0.517,0.517,0.516,0.516,0.516,0.516,0.516,0.516,0.515,0.515,0.515,0.514,0.512,0.511,0.51,0.51,0.509,0.509,0.509,0.508,0.507,0.507,0.506,0.505,0.504,0.504,0.503,0.503,0.503,0.502,0.502,0.502,0.502,0.502,0.501,0.501,0.501,0.5,0.5,0.5,0.499,0.499,0.499,0.498,0.498,0.498,0.497,0.497,0.497,0.497,0.497,0.496,0.496,0,0,0,0,0,0,0,0,0,0,0,0,0,0,0,0,0,0,0,0,0,0,0,0,0,0,0,0,0,0,0,0,0,0,0,0,0,0,0,0,0,0,0,0,0,0,0,0,0,0,0,0,0,0,0,0
0,0,0,0,0,0,0,0,0,0,0,3.155,3.163,3.181,3.189,3.198,3.225,3.27,3.326,3.384,3.424,3.444,3.454,3.454,3.465,3.454,3.444,3.414,3.365,3.298,3.243,3.207,3.181,3.146,3.138,3.129,3.138,3.155,3.181,0,3.216,3.298,0,3.465,3.517,3.615,3.731,3.804,0,3.842,3.88,3.946,4.028,4.085,4.128,4.173,4.173,4.188,4.203,4.218,4.218,4.218,4.218,4.218,4.203,4.203,4.173,4.158,4.07,4.028,3.987,3.946,3.92,3.906,3.893,3.868,3.868,3.868,3.868,3.855,3.855,3.855,3.855,3.855,3.855,3.855,3.855,3.868,3.868,3.868,3.855,3.855,3.855,3.829,3.829,3.817,3.817,3.817,3.804,3.804,3.78,3.743,0,0,0,3.326,0,3.146,2.977,2.932,2.91,2.896,2.874,2.86,2.853,2.839,2.832,2.819,2.819,2.812,2.792,2.792,2.785,2.765,2.765,2.752,2.752,2.765,2.752,2.752,2.752,2.752,2.752,2.746,2.746,2.739,2.726,2.726,2.726,2.726,2.733,2.733,2.739,2.739,2.746,2.739,2.739,2.739,2.739,2.739,2.733,2.72,2.714,2.714,2.707,2.695,2.695,2.689,2.682,2.676,2.676,2.676,2.676,2.682,2.682,2.682,2.689,2.695,0,0,0,0,0,0,0,0,0,0,0,0,0,0,0.745,0.743,0.743,0.743,0.742,0.742,0.741,0.741,0.741,0.741,0.741,0.741,0.74,0.741,0.741,0,0.743,0.741,0.739,0.739,0.738,0.737,0.736,0.735,0.734,0.734,0.734,0.733,0.733,0.732,0.731,0.73,0.73,0.729,0.728,0.727,0.724,0.724,0.723,0.722,0.721,0.721,0.72,0.72,0.719,0.719,0.718,0.717,0.717,0.716,0.715,0.715,0.714,0.713,0.713,0.712,0.712,0.709,0.709,0.708,0.707,0.706,0.706,0.705,0.703,0.702,0.7,0.699,0.698,0.697,0.695,0.695,0.694,0.693,0.693,0.692,0.692,0.691,0.69,0.69,0.688,0.686,0.686,0.684,0.684,0.683,0.682,0.682,0.681,0.681,0.68,0.68,0.68,0.679,0.678,0.678,0.675,0.674,0.673,0.672,0.671,0.67,0.67,0.67,0.669,0.669,0.668,0.668,0.668,0.667,0.667,0.666,0.665,0.664,0.662,0.661,0.658,0.657,0.657,0.656,0.655,0.655,0.654,0.653,0.653,0.651,0.65,0.649,0.649,0.649,0.649,0.649,0.649,0.649,0.649,0.649,0.649,0.648,0.647,0.646,0.645,0.644,0.644,0.643,0.642,0.642,0.641,0.64,0.639,0.637,0.636,0.635,0.634,0.633,0.633,0.632,0.632,0.631,0.628,0.627,0.626,0.625,0.624,0.624,0.623,0.623,0.622,0.622,0.622,0.622,0.621,0.621,0.62,0.62,0.62,0.619,0.618,0.618,0.617,0.617,0.617,0.617,0.616,0.615,0.614,0.613,0.612,0.611,0.611,0.61,0.609,0.608,0.606,0.605,0.603,0.603,0.602,0.601,0.601,0.601,0.601,0.6,0.6,0.599,0.599,0.599,0.598,0.597,0.595,0.594,0.593,0.592,0.592,0.592,0.591,0.591,0.59,0.59,0.589,0.588,0.587,0.586,0.586,0.584,0.584,0.584,0.583,0.582,0.582,0.582,0.581,0.581,0.58,0.579,0.578,0.577,0.576,0.575,0.575,0.574,0.574,0.573,0.573,0.573,0.573,0.573,0.572,0.572,0.572,0.572,0.572,0.572,0.573,0,0,0,0,0,0,0,0,0,0,0,0,0.394,0.394,0.394,0.394,0.394,0.394,0.394,0.394,0.394,0.394,0.393,0.393,0.393,0.394,0.394,0.394,0.396,0.396,0.396,0.397,0,0,0,0,0,0,0,0,0,0,0,0,0,0,0,0,0,0.539,0.539,0.539,0.539,0.539,0.539,0.538,0.538,0.538,0.537,0.537,0.536,0.534,0.533,0.533,0.532,0.532,0.532,0.532,0.531,0.531,0.531,0.531,0.531,0.531,0.53,0.529,0.529,0.527,0.526,0.525,0.524,0.524,0.523,0.523,0.523,0.522,0.522,0.521,0.521,0.519,0.518,0.517,0.517,0.517,0.516,0.516,0.516,0.516,0.516,0.516,0.515,0.515,0.515,0.514,0.514,0.513,0.511,0.511,0.51,0.509,0.509,0.509,0.508,0.508,0.507,0.506,0.505,0.504,0.503,0.503,0.502,0.502,0.502,0.502,0.502,0.501,0.501,0.501,0.5,0.5,0.5,0.499,0.499,0.498,0.497,0.497,0.497,0.496,0.496,0.496,0.496,0.496,0.496,0.496,0.495,0.495,0.495,0.495,0.495,0,0,0,0,0,0,0,0,0,0,0,0,0,0,0,0,0,0,0,0,0,0,0,0,0,0,0,0,0,0,0,0,0,0,0,0,0,0,0,0,0,0,0,0,0,0,0,0,0,0,0,0,0,0,0,0
0,0,0,0,0,0,0,0,0,0,0,3.155,3.163,3.172,3.181,3.189,3.216,3.261,3.298,3.365,3.404,3.434,3.444,3.454,3.454,3.454,3.444,3.414,3.365,3.317,3.261,3.207,3.181,3.146,3.129,3.121,3.129,3.138,3.146,3.172,0,3.207,3.288,3.384,3.444,3.496,3.549,3.661,3.755,3.817,0,3.855,3.893,3.946,4.028,4.07,4.114,4.158,4.173,4.188,4.188,4.188,4.188,4.188,4.173,4.158,4.128,4.07,4.028,3.987,3.946,3.933,3.906,3.893,3.88,3.868,3.868,3.855,3.855,3.855,3.855,3.855,3.855,3.855,3.855,3.855,3.855,3.842,3.842,3.842,3.842,3.842,3.829,3.817,3.817,3.817,3.804,3.804,3.792,3.78,3.755,3.707,3.672,0,3.506,3.355,3.243,3.181,3.146,2.977,2.932,2.918,2.903,2.889,2.874,2.86,2.839,2.832,2.832,2.819,2.805,2.792,2.772,2.765,2.752,2.752,2.746,2.752,2.752,2.752,2.746,2.746,2.739,2.733,2.726,2.726,2.72,2.72,2.72,2.72,2.72,2.726,2.726,2.733,2.739,2.733,2.733,2.733,2.733,2.733,2.72,2.72,2.714,2.707,2.707,2.695,2.689,2.682,2.676,2.676,2.676,2.682,2.682,2.682,0,0,0,0,0,0,0,0,0,0,0,0,0,0,0.746,0.745,0.745,0.743,0.743,0.742,0.741,0.742,0.741,0.741,0.74,0.739,0.739,0.738,0.739,0.739,0.739,0.738,0.739,0.739,0.739,0.738,0.738,0.736,0.736,0.735,0.735,0.734,0.733,0.732,0.73,0.729,0.728,0.727,0.727,0.724,0.724,0.724,0.723,0.722,0.721,0.721,0.72,0.72,0.719,0.719,0.718,0.717,0.716,0.714,0.713,0.712,0.711,0.71,0.71,0.709,0.709,0.709,0.708,0.708,0.707,0.706,0.706,0.706,0.705,0.703,0.702,0.7,0.698,0.697,0.696,0.695,0.695,0.694,0.693,0.693,0.692,0.69,0.69,0.688,0.687,0.686,0.685,0.684,0.683,0.682,0.682,0.681,0.681,0.68,0.68,0.68,0.68,0.679,0.679,0.678,0.677,0.674,0.673,0.671,0.67,0.669,0.669,0.669,0.668,0.668,0.668,0.668,0.667,0.667,0.666,0.666,0.665,0.664,0.663,0.662,0.661,0.658,0.658,0.657,0.656,0.655,0.655,0.654,0.653,0.652,0.651,0.649,0.648,0.647,0.647,0.646,0.646,0.646,0.647,0.647,0.647,0.647,0.647,0.647,0.647,0.647,0.646,0.645,0.644,0.644,0.643,0.642,0.642,0.64,0.64,0.638,0.636,0.635,0.634,0.634,0.633,0.632,0.631,0.63,0.627,0.626,0.624,0.623,0.623,0.622,0.622,0.622,0.622,0.621,0.621,0.62,0.62,0.619,0.619,0.618,0.617,0.617,0.616,0.616,0.616,0.616,0.615,0.615,0.615,0.615,0.615,0.614,0.613,0.612,0.612,0.611,0.61,0.608,0.607,0.605,0.603,0.603,0.601,0.601,0.601,0.6,0.599,0.599,0.598,0.598,0.597,0.597,0.596,0.595,0.594,0.593,0.592,0.592,0.592,0.591,0.591,0.591,0.589,0.589,0.588,0.587,0.586,0.585,0.584,0.584,0.583,0.583,0.582,0.582,0.582,0.581,0.58,0.579,0.578,0.577,0.576,0.575,0.574,0.574,0.574,0.573,0.573,0.573,0.572,0.572,0.572,0.571,0.571,0.571,0.57,0.571,0.571,0.571,0.571,0.571,0,0,0,0,0,0,0,0,0,0,0,0,0,0.394,0.394,0.394,0.394,0.394,0.394,0.394,0.394,0.393,0.393,0.393,0.393,0.393,0.394,0.394,0.394,0.395,0.396,0.396,0.397,0,0,0,0,0,0,0,0,0,0,0,0,0,0,0,0,0,0.536,0.537,0.537,0.537,0.537,0.537,0.537,0.537,0.536,0.536,0.534,0.533,0.533,0.532,0.531,0.531,0.531,0.531,0.531,0.53,0.53,0.53,0.53,0.529,0.529,0.528,0.526,0.525,0.524,0.524,0.523,0.523,0.523,0.522,0.522,0.521,0.52,0.519,0.518,0.517,0.517,0.516,0.516,0.516,0.516,0.515,0.515,0.515,0.514,0.514,0.514,0.514,0.513,0.512,0.511,0.51,0.51,0.509,0.509,0.509,0.508,0.508,0.507,0.506,0.506,0.505,0.504,0.502,0.502,0.502,0.502,0.502,0.501,0.501,0.5,0.5,0.5,0.499,0.499,0.498,0.497,0.497,0.497,0.496,0.496,0.496,0.496,0.495,0.495,0.495,0.495,0.495,0.495,0.495,0.495,0.494,0.494,0.494,0.494,0.493,0,0,0,0,0,0,0,0,0,0,0,0,0,0,0,0,0,0,0,0,0,0,0,0,0,0,0,0,0,0,0,0,0,0,0,0,0,0,0,0,0,0,0,0,0,0,0,0,0,0,0,0,0,0,0,0
0,0,0,0,0,0,0,0,0,0,0,3.155,3.155,3.163,3.172,3.181,3.198,3.225,3.27,3.326,3.365,3.404,3.434,3.444,3.444,3.444,3.434,3.404,3.355,3.298,3.243,3.207,3.181,3.146,3.129,3.121,3.121,3.121,3.138,3.155,3.163,3.207,0,3.261,3.355,3.424,3.465,3.496,3.582,3.672,3.755,3.804,3.842,3.868,0,3.92,3.973,4.028,4.07,4.114,4.158,4.158,4.128,4.128,4.128,4.114,4.07,4.056,4.014,3.973,3.933,3.906,3.893,3.88,3.868,3.868,3.855,3.855,3.855,3.855,3.842,3.842,3.842,3.842,3.842,3.829,3.829,3.829,3.829,3.829,3.829,3.829,3.817,3.804,3.804,3.804,3.792,3.78,3.767,3.743,3.707,3.672,3.649,3.593,3.506,3.414,3.317,3.234,3.181,0,2.993,2.94,2.918,2.925,2.903,2.889,2.867,2.853,2.839,2.819,2.805,2.792,2.765,2.752,2.746,2.746,2.739,2.739,2.739,2.739,2.733,2.733,2.726,2.726,2.72,2.714,2.714,2.714,2.707,2.714,2.714,2.714,2.714,2.72,2.726,2.72,2.726,2.726,2.726,2.726,2.72,2.72,2.714,2.707,2.701,2.701,2.695,2.682,2.682,2.682,0,0,0,0,0,0,0,0,0,0,0,0,0,0,0.747,0.746,0.745,0.745,0.744,0.743,0.743,0.743,0.741,0.741,0.741,0.739,0.74,0.738,0.739,0.738,0.737,0.737,0.737,0.737,0.736,0.736,0.736,0.736,0.736,0.736,0.735,0.735,0.734,0.734,0.733,0.731,0.728,0.727,0.725,0.724,0.723,0.722,0.722,0.721,0.721,0.721,0.72,0.72,0.719,0.719,0.718,0.717,0.716,0.714,0.713,0.712,0.71,0.709,0.709,0.709,0.707,0.707,0.707,0.706,0.706,0.706,0.706,0.706,0.705,0.704,0.703,0.701,0.699,0.698,0.696,0.695,0.694,0.694,0.693,0.693,0.693,0.691,0.69,0.689,0.688,0.686,0.685,0.684,0.682,0.682,0.681,0.681,0.68,0.68,0.68,0.68,0.679,0.679,0.678,0.677,0.677,0.674,0.673,0.672,0.671,0.669,0.669,0.668,0.668,0.668,0.667,0.667,0.667,0.666,0.666,0.666,0.665,0.664,0.663,0.662,0.662,0.661,0.658,0.658,0.657,0.656,0.656,0.655,0.655,0.654,0.653,0.651,0.649,0.648,0.647,0.646,0.645,0.645,0.645,0.644,0.644,0.644,0.645,0.645,0.646,0.646,0.646,0.646,0.646,0.646,0.645,0.644,0.644,0.643,0.642,0.641,0.641,0.64,0.638,0.636,0.635,0.634,0.633,0.633,0.632,0.631,0.627,0.625,0.624,0.623,0.622,0.622,0.621,0.621,0.62,0.62,0.619,0.618,0.618,0.617,0.616,0.616,0.615,0.615,0.614,0.614,0.614,0.614,0.614,0.614,0.614,0.614,0.614,0,0,0,0,0.612,0.611,0.611,0.609,0.607,0.605,0.603,0.602,0.601,0.6,0.598,0.598,0.597,0.596,0.595,0.594,0.594,0.594,0.593,0.593,0.592,0.592,0.592,0.591,0.591,0.59,0.589,0.588,0.587,0.587,0.586,0.586,0.584,0.584,0.583,0.583,0.582,0.582,0.581,0.581,0.581,0.58,0.577,0.576,0.575,0.574,0.574,0.573,0.573,0.573,0.573,0.572,0.572,0.572,0.571,0.57,0.57,0.57,0.569,0.567,0,0.567,0,0.568,0,0.569,0.569,0,0,0,0,0,0,0,0,0,0,0,0,0,0.394,0.394,0.394,0.394,0.394,0.394,0.393,0.393,0.393,0.393,0.393,0.393,0.393,0.393,0.394,0.394,0.395,0.396,0.396,0,0.397,0,0,0,0,0,0,0,0,0,0,0,0,0,0,0,0,0.533,0.534,0.534,0.534,0.535,0.535,0.535,0.535,0.534,0.533,0.532,0.532,0.531,0.531,0.531,0.53,0.53,0.529,0.529,0.528,0.528,0.527,0.527,0.527,0.525,0.525,0.524,0.523,0.523,0.523,0.522,0.521,0.521,0.52,0.519,0.519,0.517,0.517,0.516,0.516,0.516,0.516,0.515,0.515,0.514,0.514,0.513,0.512,0.512,0.511,0.511,0.511,0.51,0.51,0.509,0.509,0.509,0.508,0.508,0.507,0.507,0.506,0.505,0.504,0.504,0.502,0.502,0.502,0.502,0.501,0.501,0.5,0.5,0.499,0.499,0.498,0.497,0.497,0.496,0.496,0.495,0.495,0.495,0.495,0.495,0.495,0.495,0.494,0.494,0.494,0.494,0.494,0.493,0.493,0.492,0.492,0.492,0.492,0.491,0.491,0,0,0,0,0,0,0,0,0,0,0,0,0,0,0,0,0,0,0,0,0,0,0,0,0,0,0,0,0,0,0,0,0,0,0,0,0,0,0,0,0,0,0,0,0,0,0,0,0,0,0,0,0,0,0,0
0,0,0,0,0,0,0,0,0,0,0,3.146,3.155,3.155,3.163,3.172,3.181,3.198,3.234,3.27,3.326,3.365,3.394,3.404,3.424,3.414,3.404,3.365,3.326,3.288,3.234,3.198,3.181,3.146,3.138,3.129,3.113,3.121,3.121,3.138,3.155,3.163,3.189,0,3.234,3.298,3.384,3.444,3.475,3.506,3.582,3.661,3.731,3.792,3.829,3.855,3.88,3.92,0,3.973,4.028,4.056,4.085,4.07,4.085,4.056,4.028,4.014,3.973,3.946,3.92,3.893,3.88,3.868,3.868,3.855,3.855,3.855,3.842,3.842,3.842,3.842,3.829,3.829,3.829,3.829,3.829,3.829,3.829,3.829,3.817,3.817,3.804,3.804,3.792,3.78,3.767,3.755,3.743,3.731,3.696,3.661,3.615,3.582,3.517,3.475,3.394,3.326,3.234,3.243,3.189,3,3.016,2.947,2.925,2.903,2.882,2.86,2.839,2.819,2.805,2.792,2.752,2.746,2.739,2.739,2.733,2.733,2.733,2.726,2.72,2.72,2.72,2.714,2.714,2.714,2.707,2.707,2.707,2.707,2.707,2.707,2.714,2.72,2.726,2.726,2.726,2.733,2.739,2.739,2.739,2.733,2.726,2.72,2.714,2.707,0,0,0,0,0,0,0,0,0,0,0,0,0,0,0,0.745,0.745,0.745,0.744,0.743,0.743,0.743,0.743,0.741,0.741,0.74,0.74,0.739,0.738,0.738,0.737,0.737,0.736,0.736,0.736,0.735,0.735,0.735,0.735,0.735,0.735,0.735,0.734,0.734,0.734,0.733,0.732,0.73,0.728,0.726,0.724,0.722,0.721,0.721,0.72,0.72,0.72,0.719,0.719,0.719,0.718,0.717,0.716,0.714,0.713,0.712,0.711,0.71,0.709,0.708,0.708,0.706,0.706,0.706,0.706,0.705,0.705,0.704,0.703,0.703,0.702,0.701,0.7,0.698,0.697,0,0.694,0.694,0.693,0.693,0.692,0.692,0.69,0.69,0.688,0.687,0.686,0.684,0.683,0.682,0.681,0.681,0.68,0.68,0.68,0.679,0.679,0.678,0.678,0.677,0.677,0.676,0.673,0.672,0.671,0.67,0.669,0.669,0.668,0.668,0.667,0.667,0.666,0.665,0.665,0.664,0.664,0.663,0.662,0.661,0.661,0.66,0.659,0.658,0.657,0.657,0.656,0.655,0.655,0.655,0.654,0.653,0.652,0.65,0.648,0.647,0.646,0.645,0.644,0.644,0.644,0.644,0.644,0.644,0.643,0.644,0.644,0.644,0.645,0.645,0.645,0,0,0,0,0,0.643,0.642,0.641,0.64,0.639,0.639,0.637,0.635,0.634,0.633,0.633,0.632,0.631,0.626,0.624,0.347,0.622,0.621,0.621,0.62,0.619,0.618,0.617,0.616,0.615,0.615,0.614,0.613,0.613,0.613,0.612,0.612,0.612,0.612,0.612,0.612,0.612,0.613,0.613,0.613,0.613,0,0,0,0,0,0,0.61,0.608,0.606,0.603,0.602,0.6,0.599,0.597,0.596,0.594,0.594,0.593,0.593,0.592,0.592,0.592,0.592,0.591,0.591,0.591,0.588,0.588,0.587,0.586,0.586,0.585,0.584,0.584,0.584,0.584,0.583,0.582,0.582,0.582,0.581,0.581,0.58,0.579,0.576,0.575,0.575,0.574,0.573,0.573,0.573,0.572,0.572,0.571,0.571,0.57,0.57,0.569,0.568,0.566,0.566,0.566,0.565,0.565,0.565,0.565,0.565,0.566,0.566,0.566,0,0,0,0,0,0,0,0,0,0,0,0,0.394,0.394,0.394,0.394,0.394,0.393,0.393,0.393,0.393,0.393,0.393,0.393,0.393,0.393,0.393,0.393,0.394,0.394,0.395,0.395,0,0,0.397,0,0,0,0,0,0,0,0,0,0,0,0,0,0,0,0,0.531,0.532,0.531,0.532,0.532,0.532,0.533,0.532,0.532,0.532,0.531,0.531,0.53,0.53,0.529,0.528,0.527,0.527,0.526,0.526,0.526,0.525,0.525,0.524,0.524,0.523,0.523,0.522,0.522,0.521,0.519,0.519,0.518,0.517,0.517,0.516,0.516,0.516,0.516,0.515,0.515,0.514,0.513,0.513,0.512,0.511,0.511,0.51,0.51,0.51,0.509,0.509,0.509,0.509,0.508,0.508,0.507,0.507,0.506,0.505,0.504,0.503,0.503,0.502,0.502,0.501,0.501,0.501,0.5,0.5,0.499,0.498,0.497,0.497,0.496,0.496,0.496,0.495,0.495,0.495,0.495,0.494,0.494,0.494,0.494,0.493,0.493,0.493,0.492,0.492,0.492,0.491,0.491,0.49,0.49,0.49,0.489,0.489,0.489,0.489,0,0,0,0,0,0,0,0,0,0,0,0,0,0,0,0,0,0,0,0,0,0,0,0,0,0,0,0,0,0,0,0,0,0,0,0,0,0,0,0,0,0,0,0,0,0,0,0,0,0,0,0,0,0,0,0
0,0,0,0,0,0,0,0,0,0,0,3.138,3.146,3.155,3.155,3.163,3.172,3.189,3.207,3.234,3.27,3.317,3.336,3.365,3.384,3.384,3.365,3.326,3.288,3.261,3.225,3.189,3.181,3.146,3.138,3.129,3.121,3.121,3.121,3.121,3.138,3.146,3.163,3.181,3.207,0,3.261,3.317,3.394,3.444,0,3.496,3.538,3.615,3.672,3.743,3.792,3.817,3.855,3.88,3.92,3.973,3.987,4.014,4.014,4.014,3.987,3.973,3.933,3.906,3.893,3.868,3.868,3.855,3.855,3.855,3.842,3.842,3.829,3.829,3.829,3.829,3.829,3.829,3.829,3.829,3.829,3.829,3.817,3.817,3.804,3.804,3.804,3.792,3.78,3.767,3.755,3.743,3.731,3.707,3.672,3.627,3.615,3.56,3.528,3.506,3.496,3.454,3.424,3.355,3.261,3.189,3.146,2.993,2.932,2.91,2.896,2.86,2.839,2.819,2.805,2.765,2.752,2.739,2.733,2.726,2.726,2.726,2.72,2.714,2.714,2.714,2.714,2.714,2.707,2.707,2.707,2.707,2.707,2.707,2.707,2.714,2.714,2.714,2.72,2.733,2.733,2.739,2.746,2.752,2.752,2.746,2.746,2.739,0,0,0,0,0,0,0,0,0,0,0,0,0,0,0,0,0.744,0.744,0.743,0.743,0.743,0.743,0.741,0.741,0.741,0.74,0.739,0.738,0.738,0.736,0.736,0.736,0.735,0.735,0.735,0.734,0.734,0.734,0.734,0.734,0.734,0.733,0.733,0.733,0.732,0.731,0.729,0.728,0.726,0.724,0.723,0.721,0.72,0.719,0.719,0.719,0.718,0.717,0.717,0.716,0.715,0.714,0.713,0.712,0.711,0.71,0.709,0.708,0.708,0.707,0.707,0.706,0.706,0.705,0.704,0.703,0.702,0.701,0.7,0.699,0.698,0.698,0.697,0.696,0.695,0.694,0.693,0.693,0.692,0.691,0.689,0.688,0.687,0.686,0.686,0.685,0.684,0.682,0.682,0.681,0.68,0.68,0.68,0.679,0.678,0.678,0.677,0.676,0.675,0.674,0.673,0.672,0.672,0.671,0.67,0.669,0.669,0.668,0.668,0.667,0.666,0.665,0.664,0.664,0.663,0.662,0.661,0.661,0.66,0.659,0.658,0.657,0.657,0.656,0.656,0.655,0.655,0.655,0.654,0.654,0.653,0.651,0.65,0.649,0.647,0.646,0.645,0.645,0.644,0.644,0.643,0.642,0.641,0.641,0.641,0.642,0.642,0,0.643,0.643,0.644,0.644,0.645,0,0,0,0,0,0,0,0.64,0.639,0.638,0.637,0.635,0.634,0.634,0.633,0.632,0.631,0.626,0.347,0.347,0.347,0.347,0.347,0.617,0.616,0.615,0.614,0.613,0.613,0.612,0.612,0.612,0.612,0.612,0.611,0.611,0.611,0.611,0.611,0.611,0.612,0.612,0.612,0.612,0,0,0,0,0,0,0,0,0,0,0.605,0.603,0.6,0.598,0.596,0.594,0.593,0.592,0.592,0.592,0.591,0.591,0.591,0.59,0.589,0.589,0.587,0.586,0.584,0.584,0.584,0.583,0.583,0.583,0.583,0.583,0.583,0.582,0.582,0.582,0.582,0.581,0.58,0.579,0.579,0.575,0.574,0.574,0.573,0.573,0.572,0.572,0.571,0.57,0.57,0.569,0.568,0.567,0.566,0.565,0.565,0.565,0.565,0.564,0.564,0.564,0.564,0.564,0.564,0.564,0.564,0,0,0,0,0,0,0,0,0,0,0,0,0,0,0.394,0.394,0.394,0.394,0.393,0.393,0.393,0.393,0.393,0.393,0.393,0.393,0.393,0.393,0.393,0.394,0.394,0.395,0.396,0,0,0.397,0,0,0,0,0,0,0,0,0,0,0,0,0,0.526,0.527,0.528,0.528,0.528,0.529,0.529,0.53,0.53,0.531,0.531,0.531,0.53,0.53,0.529,0.528,0.527,0.526,0.526,0.525,0.525,0.525,0.524,0.524,0.524,0.523,0.523,0.523,0.522,0.521,0.519,0.518,0.517,0.517,0.516,0.516,0.516,0.516,0.516,0.515,0.515,0.514,0.514,0.513,0.512,0.511,0.51,0.51,0.509,0.509,0.509,0.509,0.509,0.509,0.508,0.508,0.507,0.506,0.505,0.505,0.504,0.503,0.503,0.502,0.502,0.502,0.501,0.501,0.5,0.5,0.499,0.499,0.497,0.497,0.496,0.496,0.496,0.495,0.495,0.495,0.494,0.494,0.493,0.493,0.493,0.492,0.492,0.492,0.491,0.491,0.491,0.49,0.49,0.49,0.489,0.489,0.489,0.488,0.488,0.488,0.488,0.488,0.488,0,0,0,0,0,0,0,0,0,0,0,0,0,0,0,0,0,0,0,0,0,0,0,0,0,0,0,0,0,0,0,0,0,0,0,0,0,0,0,0,0,0,0,0,0,0,0,0,0,0,0,0,0,0,0,0
0,0,0,0,0,0,0,0,0,0,0,3.129,3.138,3.146,3.155,3.155,3.163,3.172,3.189,3.207,3.234,3.261,3.288,3.317,3.326,3.326,3.317,3.288,3.261,3.234,3.207,3.189,3.172,3.155,3.146,3.138,3.129,3.129,3.121,3.121,3.129,3.138,3.146,3.155,3.163,3.181,3.207,3.243,0,3.317,3.384,3.424,3.454,3.475,3.496,3.538,3.615,3.672,3.755,3.817,3.842,3.868,3.906,3.933,3.933,3.946,3.946,3.906,3.893,3.88,3.868,3.855,3.855,3.842,3.829,3.829,3.829,3.829,3.829,3.829,3.829,3.829,3.829,3.817,3.817,3.817,3.817,3.817,3.817,3.817,3.804,3.804,3.792,3.78,3.767,3.755,3.743,3.731,3.707,3.672,3.649,3.615,3.593,3.56,3.549,3.528,3.506,3.496,3.454,3.434,3.365,3.243,3.181,3.039,2.962,2.925,2.896,2.867,2.853,2.832,2.805,2.772,2.752,2.739,2.733,2.726,2.72,2.72,2.714,2.714,2.714,2.714,2.707,2.707,2.707,2.707,2.707,2.707,2.707,2.707,2.714,2.714,2.72,2.726,2.746,2.752,2.765,2.772,0,0,0,0,0,0,0,0,0,0,0,0,0,0,0,0,0.747,0,0,0.745,0.744,0.743,0.743,0.743,0.743,0.742,0.741,0.741,0.74,0.739,0.739,0.739,0.737,0.737,0.736,0.735,0.735,0.734,0.734,0.734,0.734,0.733,0.733,0.732,0.732,0.73,0.73,0.729,0.728,0.728,0.727,0.725,0.724,0.723,0.722,0.72,0.719,0.719,0.718,0.716,0.716,0.714,0.714,0.712,0.711,0.71,0.71,0.709,0.709,0.708,0.707,0.707,0.706,0.706,0.705,0.704,0.703,0.702,0.701,0.7,0.699,0.698,0.697,0.696,0.695,0.695,0.694,0.694,0.693,0.693,0.692,0.692,0.688,0.687,0.686,0.685,0.683,0.683,0.682,0.682,0.681,0.681,0.68,0.68,0.68,0.679,0.679,0.678,0.677,0.676,0.674,0.673,0.672,0.671,0.67,0.67,0.669,0.669,0.669,0.668,0.668,0.667,0.667,0.666,0.665,0.664,0.663,0.662,0.661,0.66,0.659,0.658,0.658,0.657,0.657,0.656,0.655,0.655,0.655,0.655,0.654,0.654,0.653,0.651,0.651,0.65,0.649,0.647,0.646,0.645,0.645,0.644,0.644,0.643,0.641,0.64,0.639,0.639,0.638,0.639,0.639,0.639,0.64,0.641,0.642,0,0,0,0,0,0,0,0,0,0,0,0,0,0,0,0.635,0.634,0,0.632,0.632,0.346,0.346,0.347,0.347,0.347,0.347,0.347,0.348,0.348,0.348,0.612,0.612,0.611,0.611,0.611,0.611,0.611,0.611,0.611,0.611,0.611,0.611,0.611,0.611,0.611,0.611,0.611,0,0,0,0,0,0,0,0,0,0,0,0,0,0.598,0.596,0,0.592,0.592,0.591,0.591,0.59,0.589,0.588,0.586,0.586,0.585,0.584,0.584,0.583,0.582,0.582,0.582,0.582,0.582,0.582,0.582,0.582,0.582,0.582,0.582,0.581,0.581,0.58,0.579,0.579,0.575,0.574,0.573,0.573,0.572,0.571,0.57,0.57,0.568,0.567,0.566,0.566,0.565,0.565,0.564,0.564,0.564,0.564,0.564,0.563,0.563,0.563,0.563,0.563,0.563,0.563,0,0,0,0,0,0,0,0,0,0,0,0,0,0,0.394,0.394,0.393,0.393,0.394,0.393,0.393,0.393,0.393,0.393,0.393,0.393,0.393,0.393,0.393,0.393,0.394,0.394,0.395,0.395,0.396,0,0.397,0,0,0,0,0,0,0,0,0,0,0,0,0,0.524,0.525,0.525,0.526,0.526,0.526,0.526,0.527,0.527,0.526,0.526,0.525,0.525,0.527,0.526,0.525,0.525,0.524,0.524,0.523,0.523,0.523,0.523,0.523,0.522,0.522,0.521,0.52,0.519,0.517,0.517,0.516,0.516,0.516,0.516,0.515,0.515,0.514,0.514,0.514,0.513,0.512,0.511,0.51,0.51,0.509,0.509,0.509,0.509,0.508,0.508,0.508,0.507,0.507,0.506,0.505,0.504,0.504,0.503,0.502,0.502,0.502,0.502,0.501,0.501,0.5,0.5,0.499,0.498,0.497,0.497,0.496,0.496,0.496,0.495,0.495,0.495,0.495,0.494,0.493,0.493,0.492,0.491,0.491,0.491,0.49,0.49,0.49,0.489,0.489,0.489,0.489,0.489,0.489,0.488,0.488,0.487,0.487,0.487,0.487,0.486,0.486,0,0,0,0,0,0,0,0,0,0,0,0,0,0,0,0,0,0,0,0,0,0,0,0,0,0,0,0,0,0,0,0,0,0,0,0,0,0,0,0,0,0,0,0,0,0,0,0,0,0,0,0,0,0,0,0,0
0,0,0,0,0,0,0,0,0,0,0,0,3.138,3.138,3.146,3.146,3.155,3.163,3.181,3.189,3.207,3.225,3.243,3.261,3.27,3.27,3.27,3.243,3.234,3.216,3.198,3.189,3.181,3.155,3.155,3.146,3.146,3.138,3.129,3.129,3.121,3.129,3.129,3.138,3.146,3.155,3.163,3.181,3.198,3.225,3.27,0,3.326,3.384,3.414,3.444,3.465,3.496,3.549,3.661,3.743,3.804,3.829,3.855,3.868,3.88,3.88,3.868,3.855,3.855,3.842,3.829,3.829,3.829,3.829,3.817,3.817,3.817,3.817,3.817,3.817,3.817,3.817,3.817,3.817,3.804,3.804,3.804,3.804,3.792,3.792,3.78,3.767,3.755,3.743,3.731,3.696,3.661,3.661,3.649,3.615,3.593,3.582,3.56,3.549,3.528,3.517,3.496,3.475,3.454,3.414,3.317,3.207,3.155,2.993,2.932,2.903,2.867,2.86,2.839,2.812,2.772,2.752,2.739,2.726,2.72,2.714,2.714,2.714,2.707,2.707,2.707,2.707,2.707,2.707,2.707,2.701,2.707,2.707,2.714,2.72,2.726,2.739,2.765,0,0,2.812,0,0,0,0,0,0,0,0,0,0,0.747,0,0,0.747,0.747,0.746,0.745,0.745,0.744,0.743,0.743,0.742,0.741,0.742,0.741,0.741,0.74,0.741,0.74,0.738,0.738,0.737,0.736,0.735,0.735,0.734,0.734,0.734,0.733,0.732,0.73,0.73,0.729,0.728,0.728,0.727,0.726,0.725,0.724,0.724,0.723,0.723,0.722,0.72,0.719,0.719,0.718,0.716,0.714,0.713,0.711,0.71,0.709,0.709,0.708,0.708,0.707,0.707,0.707,0.706,0.706,0.706,0.704,0.703,0.702,0.701,0.7,0.699,0.698,0.696,0.695,0.695,0.694,0.694,0.693,0.693,0.693,0.692,0.691,0.691,0.688,0.687,0.684,0.683,0.682,0.681,0.681,0.68,0.68,0.68,0.68,0.679,0.679,0.678,0.678,0.677,0.676,0.674,0.673,0.671,0.67,0.67,0.669,0.669,0.668,0.668,0.668,0.667,0.667,0.667,0.666,0.666,0.665,0.664,0.663,0.662,0.661,0.66,0.658,0.658,0.657,0.656,0.656,0.656,0.655,0.655,0.655,0.654,0.654,0.654,0.653,0.652,0.65,0.649,0.648,0.647,0.646,0.645,0.645,0.644,0.644,0.644,0.643,0.64,0.64,0.638,0.638,0.636,0.636,0.636,0.635,0.636,0.637,0.638,0,0,0,0,0,0,0,0,0,0,0,0,0,0,0,0,0,0,0,0,0,0.346,0.346,0.346,0.346,0.347,0.347,0.347,0.347,0.348,0.348,0.348,0.348,0.611,0.611,0.61,0.61,0.609,0.609,0.61,0.61,0.61,0.61,0.61,0.61,0.61,0.61,0.611,0,0,0,0,0,0,0,0,0,0,0,0,0,0,0,0.593,0.592,0.591,0.591,0.589,0.586,0.586,0.584,0.584,0.583,0.583,0.583,0.582,0.582,0.581,0.581,0.581,0.581,0.58,0.58,0.581,0.581,0.581,0.581,0.581,0.581,0.581,0.581,0.58,0.578,0.575,0.574,0.573,0.573,0.572,0.571,0.569,0.568,0.566,0.566,0.565,0.564,0.564,0.564,0.563,0.563,0.563,0.563,0.563,0.562,0.563,0.562,0.562,0.562,0.563,0.563,0,0,0,0,0,0,0,0,0,0,0,0,0,0,0,0.394,0.393,0.393,0.394,0.393,0.393,0.393,0.393,0.393,0.393,0.393,0.393,0.393,0.393,0.393,0.393,0.393,0.394,0.395,0.395,0.396,0,0.397,0,0,0,0,0,0,0,0,0,0,0,0,0,0.523,0.523,0.523,0.524,0.524,0.524,0.524,0.524,0.524,0.524,0.524,0.523,0.523,0.523,0.523,0.522,0.523,0.523,0.522,0.522,0.522,0.522,0.521,0.521,0.519,0.518,0.518,0.517,0.516,0.516,0.516,0.515,0.514,0.514,0.514,0.513,0.512,0.512,0.512,0.511,0.51,0.51,0.509,0.509,0.509,0.509,0.508,0.507,0.507,0.506,0.506,0.505,0.504,0.504,0.503,0.503,0.502,0.502,0.502,0.501,0.501,0.5,0.5,0.499,0.499,0.498,0.497,0.496,0.496,0.496,0.496,0.495,0.495,0.495,0.494,0.493,0.493,0.492,0.492,0.491,0.491,0.49,0.49,0.489,0.489,0.489,0.489,0.489,0.488,0.488,0.488,0.488,0.487,0.487,0.486,0.485,0.485,0.485,0.485,0.485,0.484,0.484,0,0,0,0,0,0,0,0,0,0,0,0,0,0,0,0,0,0,0,0,0,0,0,0,0,0,0,0,0,0,0,0,0,0,0,0,0,0,0,0,0,0,0,0,0,0,0,0,0,0,0,0,0,0,0,0,0
0,0,0,0,0,0,0,0,0,0,0,0,3.121,3.138,3.138,3.146,3.146,3.155,3.163,3.181,3.189,3.198,3.216,3.225,3.234,3.243,3.234,3.234,3.225,3.216,3.198,3.189,3.181,3.172,3.163,3.155,3.155,3.146,3.146,3.138,3.129,3.129,3.121,3.129,3.129,3.138,3.146,3.146,3.155,3.172,3.181,3.198,3.234,3.261,3.317,0,3.365,3.414,3.454,3.496,3.582,3.672,3.767,3.804,3.829,3.855,3.855,3.842,3.829,3.829,3.829,3.817,3.817,3.817,3.804,3.817,3.804,3.804,3.804,3.804,3.804,3.804,3.804,3.804,3.804,3.804,3.804,3.792,3.78,3.78,3.743,3.731,3.707,3.707,3.696,3.672,3.661,3.649,3.627,3.627,3.615,3.582,3.582,3.549,3.549,3.528,3.517,3.506,3.485,3.465,3.444,3.384,3.243,3.172,3.016,2.932,2.903,2.874,2.86,2.839,2.819,2.772,2.752,2.739,2.726,2.714,2.714,2.714,2.714,2.714,2.707,2.707,2.707,2.707,2.707,2.707,2.707,0,0,0,0,0,0,0,0,0,0,0,0,0,0,0.749,0.749,0.748,0.748,0.747,0.747,0.746,0.746,0.745,0.745,0.744,0.743,0.743,0.743,0.742,0.742,0.742,0.741,0.74,0.74,0.739,0.739,0.739,0.738,0.737,0.736,0.736,0.735,0.734,0.734,0.733,0.732,0.731,0.73,0.728,0.728,0.727,0.726,0.724,0.724,0.724,0.723,0.722,0.722,0.722,0.721,0.721,0.719,0.719,0.717,0.716,0.714,0.712,0.71,0.709,0.708,0.708,0.707,0.707,0.706,0.706,0.706,0.706,0.706,0.705,0.703,0.702,0.701,0.699,0.698,0.698,0.696,0.695,0.695,0.694,0.693,0.693,0.693,0.692,0.692,0.691,0.691,0.69,0.687,0.686,0.684,0.683,0.682,0.681,0.68,0.68,0.679,0.679,0.678,0.678,0.678,0.677,0.676,0.676,0.674,0.673,0.671,0.67,0.669,0.669,0.668,0.668,0.668,0.667,0.667,0.666,0.666,0.665,0.665,0.664,0.663,0.663,0.661,0.66,0.659,0.658,0.658,0.657,0.657,0.656,0.655,0.655,0.655,0.655,0.654,0.654,0.653,0.652,0.651,0.65,0.65,0.649,0.648,0.646,0.645,0.645,0.644,0.644,0.644,0.643,0.642,0.64,0.64,0.638,0.638,0.636,0.636,0.635,0.634,0.634,0.634,0.634,0.635,0.635,0,0,0,0,0,0,0,0,0,0,0,0,0,0,0,0,0,0,0,0,0.345,0.346,0.346,0.346,0.346,0.346,0.347,0.347,0.347,0.348,0.348,0.348,0.348,0.348,0.61,0.349,0.609,0.609,0.609,0.609,0.608,0.608,0.608,0.609,0.609,0.609,0.609,0.61,0,0,0,0,0,0,0,0,0,0,0,0,0,0,0,0,0,0.591,0.589,0.588,0.584,0.584,0.583,0.583,0.582,0.582,0.581,0.581,0.581,0.58,0.579,0.579,0.579,0.579,0.579,0.579,0.579,0.58,0.58,0.581,0.581,0.581,0.581,0.58,0.579,0.575,0.574,0.573,0.572,0.571,0.57,0.568,0.566,0.565,0.565,0.564,0.563,0.563,0.563,0.562,0.562,0.561,0.561,0.561,0.561,0.561,0.561,0.561,0.561,0.562,0.562,0.562,0,0,0,0,0,0,0,0,0,0,0,0,0,0.394,0.394,0.394,0.394,0.394,0.393,0.393,0.393,0.393,0.393,0.393,0.393,0.393,0.393,0.393,0.393,0.393,0.393,0.393,0.394,0.395,0.395,0.396,0,0.397,0,0,0,0,0,0,0,0,0,0,0,0,0,0,0.522,0.523,0.523,0.523,0.523,0.523,0.523,0.523,0.523,0.522,0.522,0.521,0.52,0.519,0.519,0.518,0.518,0.517,0.519,0.519,0.519,0.518,0.517,0.517,0.516,0.516,0.516,0.515,0.514,0.513,0.513,0.512,0.511,0.511,0.511,0.51,0.51,0.51,0.509,0.509,0.509,0.508,0.508,0.507,0.506,0.505,0.505,0.504,0.504,0.503,0.503,0.502,0.502,0.502,0.502,0.501,0.501,0.499,0.499,0.498,0.498,0.497,0.497,0.496,0.496,0.496,0.495,0.495,0.495,0.495,0.494,0.494,0.493,0.492,0.491,0.491,0.491,0.49,0.49,0.489,0.489,0.489,0.488,0.488,0.488,0.488,0.488,0.487,0.487,0.486,0.485,0.485,0.485,0.484,0.483,0.483,0.483,0.483,0.483,0.482,0.482,0,0,0,0,0,0,0,0,0,0,0,0,0,0,0,0,0,0,0,0,0,0,0,0,0,0,0,0,0,0,0,0,0,0,0,0,0,0,0,0,0,0,0,0,0,0,0,0,0,0,0,0,0,0,0,0,0
0,0,0,0,0,0,0,0,0,0,0,0,0,3.129,3.138,3.146,3.146,3.155,3.163,3.172,3.181,3.189,3.198,3.207,3.216,3.225,3.225,3.216,3.216,3.207,3.198,3.189,3.181,3.181,3.172,3.163,3.163,3.155,3.155,3.146,3.146,3.138,3.129,3.129,3.121,3.121,3.121,3.129,3.129,3.146,3.146,3.155,3.163,3.181,3.198,3.234,3.298,0,3.384,3.444,3.485,3.549,3.649,3.743,3.804,3.817,3.829,3.817,3.817,3.804,3.817,3.804,3.804,3.804,3.804,3.804,3.804,3.792,3.792,3.792,3.792,3.792,3.792,3.792,3.78,3.78,3.743,3.743,3.743,3.731,3.707,3.707,3.696,3.672,3.672,3.661,3.649,3.627,3.615,3.593,3.593,3.582,3.56,3.549,3.549,3.538,3.517,3.517,3.496,3.475,3.454,3.414,3.288,3.189,3.047,2.947,2.903,2.874,2.86,2.839,2.819,2.772,2.746,2.739,2.726,2.714,2.714,2.714,2.714,2.707,2.707,2.707,2.701,2.701,0,0,0,0,0,0,0,0,0,0,0,0,0,0,0.75,0.75,0.749,0.749,0.748,0.748,0.746,0.745,0.745,0.744,0.744,0.743,0.744,0.743,0.742,0.742,0.742,0.741,0.74,0.739,0.738,0.737,0.738,0.737,0.736,0.736,0.736,0.735,0.735,0.734,0.733,0.732,0.731,0.73,0.728,0.727,0.725,0.724,0.724,0.723,0.722,0.722,0.721,0.721,0.72,0.72,0.72,0.719,0.719,0.717,0.716,0.714,0.712,0.71,0.709,0.708,0.707,0.706,0.706,0.706,0.706,0.705,0.705,0.704,0.703,0.702,0.7,0.699,0.698,0.697,0.696,0.695,0.694,0.694,0.693,0.693,0.693,0.692,0.691,0.69,0.69,0.689,0.688,0.687,0.686,0.684,0.683,0.682,0.681,0.68,0.68,0.679,0.678,0.677,0.676,0.675,0.675,0.674,0.673,0.672,0.671,0.669,0.669,0.669,0.668,0.668,0.667,0.667,0.667,0.666,0.665,0.664,0.663,0.663,0.662,0.661,0.66,0.66,0.659,0.658,0.657,0.657,0.656,0.655,0.655,0.655,0.655,0.655,0.654,0.653,0.653,0.651,0.65,0.649,0.649,0.648,0.646,0.646,0.646,0.645,0.645,0.644,0.644,0.643,0.642,0.64,0.64,0.639,0.638,0.637,0.635,0.635,0.634,0.634,0.634,0.634,0.633,0.633,0.633,0.634,0.634,0.634,0.634,0,0,0,0,0,0,0,0,0,0,0,0,0,0,0,0,0,0,0,0.345,0.345,0.346,0.346,0.346,0.346,0.347,0.347,0.348,0.348,0.348,0.348,0.348,0.61,0.349,0.349,0.35,0.351,0.351,0.608,0.608,0.608,0.608,0.608,0.608,0.609,0,0,0,0,0,0,0,0,0,0,0,0,0,0,0,0,0,0,0,0,0.585,0.584,0.583,0.582,0.582,0.581,0.581,0.58,0.58,0.579,0.578,0.577,0.577,0.576,0.576,0.576,0.576,0.576,0.577,0.578,0.579,0.579,0.58,0.58,0.58,0.58,0.579,0.575,0.573,0.572,0.571,0.569,0.566,0.565,0.564,0.563,0.563,0.562,0.561,0.561,0.56,0.56,0.559,0.559,0.559,0.559,0.559,0.56,0.56,0.56,0.561,0.561,0,0,0,0,0,0,0,0,0,0,0,0,0,0,0.394,0.393,0,0.394,0.393,0.393,0.393,0.393,0.393,0.393,0.393,0.393,0.393,0.393,0.393,0.393,0.393,0.393,0.393,0.393,0.394,0.395,0.395,0.396,0,0.397,0,0,0,0,0,0,0,0,0,0,0,0,0,0.521,0.522,0.521,0.521,0.521,0.521,0.521,0.52,0.519,0.519,0.519,0.518,0.517,0.517,0.517,0.517,0.516,0.516,0.516,0.516,0.516,0.516,0.516,0.516,0.516,0.515,0.515,0.513,0.512,0.511,0.511,0.51,0.51,0.51,0.51,0.509,0.509,0.509,0.509,0.509,0.508,0.507,0.506,0.505,0.504,0.504,0.503,0.503,0.502,0.502,0.502,0.502,0.501,0.501,0.5,0.5,0.498,0.497,0.497,0.496,0.496,0.496,0.496,0.495,0.495,0.495,0.495,0.495,0.494,0.494,0.493,0.492,0.491,0.49,0.49,0.49,0.489,0.489,0.489,0.489,0.488,0.488,0.488,0.487,0.487,0.487,0.486,0.485,0.485,0.484,0.483,0.483,0.483,0.482,0.482,0.482,0.482,0.482,0.482,0.482,0.482,0.482,0,0,0,0,0,0,0,0,0,0,0,0,0,0,0,0,0,0,0,0,0,0,0,0,0,0,0,0,0,0,0,0,0,0,0,0,0,0,0,0,0,0,0,0,0,0,0,0,0,0,0,0,0,0,0,0,0
0,0,0,0,0,0,0,0,0,0,0,0,0,3.129,3.138,3.146,3.146,3.155,3.163,3.163,3.181,3.181,3.189,3.198,3.207,3.207,3.216,3.207,3.207,3.207,3.207,3.198,3.189,3.189,3.189,3.181,3.172,3.163,3.155,3.155,3.146,3.146,3.138,3.138,3.129,3.121,3.121,3.121,3.121,3.129,3.138,3.138,3.146,3.155,3.172,3.189,3.216,3.27,3.355,0,3.434,3.485,3.538,3.627,3.707,3.767,3.792,3.804,3.804,3.792,3.804,3.792,3.792,3.78,3.792,3.78,3.78,3.78,3.767,3.767,3.755,3.755,3.755,3.743,3.743,3.731,3.731,3.731,3.707,3.696,3.672,3.672,3.672,3.661,3.649,3.649,3.627,3.627,3.615,3.593,3.593,3.582,3.56,3.549,3.549,3.538,3.528,3.517,3.496,3.485,3.465,3.434,3.317,3.207,3.072,2.955,2.903,2.874,2.86,2.839,2.819,2.772,2.752,2.739,0,2.714,2.714,2.714,2.707,0,0,0,0,0,0,0,0,0,0,0,0,0,0.752,0.751,0.751,0.75,0.75,0.75,0.749,0.748,0.748,0.747,0.747,0.746,0.745,0.743,0.744,0.743,0.743,0.741,0.743,0.741,0.741,0.74,0.739,0.739,0.738,0.738,0.736,0.736,0.736,0.735,0.735,0.734,0.734,0.733,0.732,0.731,0.73,0.728,0.727,0.725,0.724,0.723,0.722,0.722,0.721,0.72,0.72,0.72,0.719,0.719,0.719,0.717,0.717,0.716,0.714,0.712,0.71,0.709,0.708,0.707,0.706,0.706,0.705,0.704,0.703,0.703,0.702,0.701,0.7,0.699,0.698,0.697,0.696,0.695,0.695,0.694,0.693,0.693,0.693,0.692,0.692,0.691,0.69,0.689,0.688,0.687,0.686,0.684,0.683,0.682,0.682,0.681,0.68,0.68,0.679,0.678,0.678,0.676,0.674,0.673,0.672,0.671,0.671,0.669,0.669,0.668,0.668,0.668,0.668,0.667,0.667,0.666,0.665,0.664,0.663,0.663,0.662,0.661,0.66,0.658,0.658,0.657,0.657,0.657,0.656,0.656,0.655,0.655,0.654,0.654,0.654,0.653,0.653,0.651,0.65,0.65,0.649,0.648,0.647,0.646,0.645,0.645,0.644,0.644,0.644,0.643,0.643,0.642,0.641,0.639,0.638,0.636,0.635,0.635,0.634,0.634,0.634,0.633,0.633,0.633,0.633,0.633,0.632,0.632,0.632,0.632,0.632,0.632,0,0,0,0,0,0,0,0,0,0,0,0,0,0,0,0,0,0,0,0,0.345,0.345,0.346,0.346,0.346,0.347,0.347,0.347,0.348,0.348,0.348,0.348,0.348,0.609,0.349,0.349,0.35,0.351,0.351,0.352,0.607,0.607,0.608,0.608,0.608,0.608,0,0,0,0,0,0,0,0,0,0,0,0,0,0,0,0,0,0,0,0,0.583,0.582,0.582,0.581,0.58,0.579,0.578,0.577,0.576,0.575,0.575,0.575,0.574,0.574,0.574,0.574,0.574,0.575,0.575,0.576,0.576,0.578,0,0,0,0,0,0,0.572,0.57,0.567,0.565,0.564,0.564,0.562,0.561,0.56,0.559,0.559,0.558,0.558,0.558,0.558,0.558,0.558,0.558,0.558,0.559,0.559,0.56,0,0,0,0,0,0,0,0,0,0,0,0,0,0,0,0,0.393,0.393,0.393,0.393,0.393,0.393,0.393,0.393,0.393,0.393,0.393,0.393,0.393,0.393,0.393,0.393,0.393,0.393,0.393,0.393,0.394,0.394,0.394,0,0.396,0,0,0,0,0,0,0,0,0,0,0,0,0,0,0.519,0.519,0.519,0.519,0.518,0.517,0.517,0.517,0.517,0.516,0.516,0.516,0.516,0.516,0.516,0.516,0.516,0.515,0.515,0.514,0.514,0.514,0.513,0.511,0.51,0.512,0.511,0.51,0.51,0.509,0.509,0.509,0.509,0.509,0.509,0.509,0.508,0.508,0.508,0.507,0.505,0.504,0.503,0.503,0.502,0.502,0.502,0.502,0.501,0.501,0.501,0.5,0.5,0.498,0.497,0.496,0.496,0.496,0.495,0.495,0.495,0.495,0.495,0.495,0.494,0.494,0.493,0.493,0.493,0.491,0.49,0.49,0.489,0.489,0.489,0.489,0.488,0.488,0.488,0.488,0.487,0.487,0.486,0.486,0.484,0.484,0.484,0.483,0.482,0.482,0.482,0.482,0.482,0.482,0.482,0.481,0.481,0.481,0.481,0.481,0.481,0.481,0,0,0,0,0,0,0,0,0,0,0,0,0,0,0,0,0,0,0,0,0,0,0,0,0,0,0,0,0,0,0,0,0,0,0,0,0,0,0,0,0,0,0,0,0,0,0,0,0,0,0,0,0,0,0,0,0
0,0,0,0,0,0,0,0,0,0,0,0,0,3.138,3.146,3.146,3.146,3.155,3.163,3.163,3.181,3.181,3.181,3.189,3.198,3.198,3.207,3.207,3.216,3.207,3.216,3.207,3.207,3.198,3.189,3.189,3.181,3.181,3.163,3.163,3.155,3.155,3.146,3.146,3.138,3.129,3.129,3.121,3.121,3.113,3.121,3.129,3.138,3.138,3.155,3.163,3.181,3.207,3.27,3.355,0,3.434,3.485,3.528,3.593,3.672,3.731,3.743,3.755,3.755,3.767,3.767,3.767,3.743,3.743,3.755,3.743,3.755,3.743,3.743,3.743,3.731,3.707,3.707,3.707,3.696,3.696,3.672,3.661,3.661,3.649,3.649,3.649,3.627,3.627,3.615,3.615,3.615,3.593,3.593,3.582,3.56,3.549,3.549,3.549,3.528,3.528,3.517,3.496,3.485,3.465,3.444,3.336,3.225,3.08,2.97,2.91,2.874,2.86,2.853,2.819,2.805,2.752,0,0,0,0,0,0,0,0,0,0,0,0,0,0,0,0,0.752,0.752,0.751,0.751,0.75,0.75,0.749,0.749,0.749,0.749,0.748,0.747,0.746,0.745,0.744,0.743,0.742,0.741,0.741,0.741,0.741,0.74,0.739,0.738,0.738,0.737,0.737,0.736,0.735,0.735,0.735,0.734,0.734,0.734,0.732,0.731,0.73,0.728,0.727,0.725,0.724,0.723,0.722,0.721,0.721,0.72,0.72,0.719,0.719,0.718,0.717,0.716,0.715,0.714,0.714,0.712,0.711,0.709,0.708,0.707,0.706,0.706,0.705,0.704,0.702,0.7,0.699,0.699,0.698,0.698,0.696,0.696,0.695,0.695,0.694,0.693,0.693,0.693,0.693,0.692,0.691,0.69,0.69,0.688,0.687,0.685,0.684,0.683,0.682,0.682,0.681,0.68,0.68,0.68,0.679,0.679,0.678,0.677,0.675,0.673,0.672,0.671,0.669,0.669,0.668,0.668,0.668,0.667,0.667,0.666,0.666,0.665,0.665,0.664,0.663,0.662,0.661,0.66,0.659,0.658,0.657,0.657,0.656,0.656,0.655,0.655,0.655,0.654,0.654,0.653,0.652,0.651,0.651,0.65,0.649,0.648,0.647,0.647,0.646,0.645,0.645,0.645,0.644,0.644,0.643,0.637,0.636,0.636,0.635,0.634,0.633,0.633,0.632,0.632,0.631,0.631,0.63,0.63,0.629,0.629,0.629,0.629,0.63,0.63,0.63,0.63,0.631,0.631,0.631,0.631,0,0,0,0,0,0,0,0,0,0,0,0,0,0,0,0,0,0,0,0,0.345,0.345,0.345,0.346,0.346,0.346,0.347,0.347,0.348,0.348,0.348,0.348,0.348,0.609,0.349,0.349,0.35,0.351,0.351,0.351,0.352,0.352,0,0,0.607,0,0,0,0,0,0,0,0,0,0,0,0,0,0,0,0,0,0,0,0,0,0,0,0.581,0.581,0.579,0.577,0.576,0.575,0.574,0.574,0.573,0.573,0.573,0.573,0.573,0.573,0.573,0.573,0,0.574,0.574,0,0,0,0,0,0,0,0,0,0.567,0.565,0.564,0.562,0.387,0.387,0.387,0.387,0.557,0.557,0.556,0.556,0.556,0.556,0.556,0.557,0.557,0.557,0.558,0.559,0,0,0,0,0,0,0,0,0,0,0,0,0,0,0,0,0.394,0.393,0.393,0.393,0.393,0.393,0.393,0.393,0.393,0.393,0.393,0.393,0.393,0.393,0.393,0.393,0.393,0.393,0.393,0.393,0.393,0.394,0.394,0.394,0,0.396,0,0,0,0,0,0,0,0,0,0,0,0,0,0,0.517,0.516,0.516,0.516,0.516,0.516,0.516,0.516,0.516,0.515,0.515,0.515,0.514,0.514,0.514,0.514,0.513,0.513,0.513,0.512,0.511,0.51,0.509,0.509,0.509,0.509,0.508,0.508,0.507,0.508,0.508,0.508,0.508,0.507,0.507,0.507,0.506,0.506,0.504,0.503,0.502,0.502,0.502,0.502,0.501,0.501,0.501,0.5,0.5,0.499,0.499,0.497,0.496,0.496,0.495,0.495,0.495,0.495,0.494,0.494,0.494,0.493,0.493,0.493,0.492,0.492,0.491,0.491,0.49,0.489,0.489,0.489,0.488,0.488,0.488,0.488,0.487,0.487,0.486,0.486,0.485,0.485,0.483,0.483,0.482,0.482,0.482,0.482,0.482,0.481,0.481,0.481,0.481,0.48,0.48,0.48,0.48,0.48,0.48,0.48,0.48,0.481,0,0,0,0,0,0,0,0,0,0,0,0,0,0,0,0,0,0,0,0,0,0,0,0,0,0,0,0,0,0,0,0,0,0,0,0,0,0,0,0,0,0,0,0,0,0,0,0,0,0,0,0,0,0,0,0,0
0,0,0,0,0,0,0,0,0,0,0,0,0,3.146,3.146,3.146,3.146,3.155,3.163,3.163,3.172,3.181,3.181,3.189,3.189,3.198,3.207,3.207,3.216,3.216,3.216,3.216,3.216,3.216,3.207,3.198,3.189,3.181,3.181,3.163,3.163,3.155,3.155,3.146,3.146,3.138,3.129,3.129,3.121,3.121,3.121,3.121,3.129,3.129,3.146,3.155,3.163,3.189,3.216,3.27,3.365,0,3.444,3.485,3.528,3.517,3.56,3.593,3.627,3.661,3.672,3.696,3.707,3.707,3.707,3.731,3.731,3.731,3.731,3.731,3.731,3.707,3.696,3.696,3.696,3.672,3.661,3.649,3.649,3.649,3.627,3.615,3.615,3.615,3.593,3.593,3.593,3.582,3.582,3.582,3.56,3.56,3.549,3.549,3.538,3.538,3.528,3.517,3.496,3.485,3.475,3.444,3.336,0,0,2.977,2.91,2.874,2.86,0,0,0,0,0,0,0,0,0,0,0,0,0,0,0,0,0,0.751,0.751,0.751,0.751,0.75,0.75,0.75,0.75,0.749,0.749,0.748,0.747,0.747,0.746,0.744,0.744,0.742,0.743,0.742,0.741,0.74,0.739,0.739,0.738,0.738,0.737,0.736,0.736,0.735,0.735,0.734,0.734,0.734,0.733,0.731,0.73,0.729,0.728,0.727,0.725,0.724,0.723,0.722,0.721,0.72,0.72,0.719,0.719,0.718,0.717,0.715,0.714,0.713,0.712,0.71,0.71,0.709,0.709,0.708,0.708,0.707,0.706,0.706,0.704,0.703,0.699,0.698,0.696,0.696,0.695,0.695,0.694,0.694,0.694,0.693,0.693,0.693,0.693,0.692,0.691,0.691,0.69,0.689,0.687,0.687,0.684,0.683,0.682,0.681,0.681,0.68,0.68,0.68,0.679,0.679,0.678,0.677,0.676,0.675,0.674,0.672,0.671,0.669,0.668,0.668,0.667,0.667,0.667,0.666,0.666,0.665,0.664,0.663,0.663,0.662,0.661,0.66,0.659,0.658,0.658,0.657,0.657,0.656,0.655,0.655,0.655,0.654,0.653,0.653,0.652,0.651,0.65,0.649,0.648,0.648,0.647,0.646,0.646,0.645,0.645,0.642,0.641,0.64,0.64,0.638,0.636,0.635,0.634,0.634,0.633,0.633,0.632,0.632,0.631,0.63,0.629,0.629,0.628,0.627,0.626,0.626,0.626,0.626,0.626,0.627,0.627,0.628,0.628,0.629,0.629,0.63,0.631,0,0,0,0,0,0,0,0,0,0,0,0,0,0,0,0,0,0,0,0,0.345,0.345,0.345,0.345,0.346,0.346,0.347,0.347,0.347,0.348,0.348,0.348,0.348,0.348,0,0.349,0.349,0.35,0.351,0.351,0.352,0.352,0.352,0.353,0,0,0,0,0,0,0,0,0,0,0,0,0,0,0,0,0,0,0,0,0,0,0,0,0,0,0.579,0.576,0.575,0.574,0.573,0.573,0.573,0.572,0.571,0.572,0.572,0.572,0.572,0.572,0.572,0.573,0,0,0,0,0,0,0,0,0,0,0,0,0.563,0.387,0.387,0.387,0.387,0.387,0.387,0.387,0.387,0.556,0.555,0.556,0.555,0.556,0.556,0.556,0.557,0.557,0,0,0,0,0,0,0,0,0,0,0,0,0,0,0,0,0,0,0.393,0.393,0.393,0.393,0.393,0.393,0.393,0.393,0.393,0.393,0.393,0.392,0.392,0.392,0.392,0.392,0.393,0.393,0.393,0.393,0.394,0.394,0.394,0,0.396,0,0,0,0,0,0,0,0,0,0,0,0,0,0,0,0.515,0.515,0.515,0.515,0.515,0.515,0.514,0.514,0.513,0.513,0.512,0.512,0.511,0.511,0.511,0.511,0.51,0.51,0.509,0.509,0.509,0.508,0.508,0.507,0.507,0.506,0.505,0.505,0.504,0.504,0.504,0.504,0.505,0.505,0.504,0.503,0.503,0.502,0.502,0.501,0.501,0.501,0.5,0.5,0.499,0.499,0.498,0.497,0.496,0.496,0.495,0.495,0.495,0.495,0.494,0.494,0.493,0.493,0.492,0.491,0.491,0.491,0.49,0.49,0.489,0.489,0.489,0.489,0.488,0.488,0.488,0.487,0.487,0.487,0.486,0.486,0.485,0.485,0.483,0.483,0.482,0.482,0.482,0.482,0.481,0.481,0.481,0.48,0.48,0.479,0.479,0.478,0.478,0.478,0.477,0.477,0.478,0.478,0.478,0.478,0.478,0,0,0,0,0,0,0,0,0,0,0,0,0,0,0,0,0,0,0,0,0,0,0,0,0,0,0,0,0,0,0,0,0,0,0,0,0,0,0,0,0,0,0,0,0,0,0,0,0,0,0,0,0,0,0,0,0
0,0,0,0,0,0,0,0,0,0,0,0,0,3.163,3.163,3.155,3.155,3.155,3.163,3.163,3.163,3.172,3.181,3.189,3.189,3.207,3.207,3.216,3.225,3.225,3.225,3.225,3.225,3.216,3.216,3.207,3.207,3.189,3.181,3.181,3.172,3.163,3.163,3.155,3.155,3.146,3.146,3.138,3.129,3.129,3.121,3.129,3.121,3.129,3.146,3.146,3.155,3.163,3.181,3.207,3.261,3.326,3.404,3.454,3.485,3.475,3.496,3.528,3.56,3.593,3.615,3.649,3.661,3.696,3.707,3.731,3.731,3.731,3.731,3.731,3.707,3.696,3.672,3.661,3.649,3.649,3.649,3.627,3.615,3.593,3.593,3.593,3.582,3.582,3.582,3.582,3.582,3.582,3.582,3.56,3.56,3.549,3.549,3.549,3.538,3.538,3.528,3.506,3.496,3.485,3.465,3.434,3.336,3.225,0,0,0,0,0,0,0,0,0,0,0,0,0,0,0,0,0,0.751,0.751,0.751,0.751,0.751,0.751,0.75,0.75,0.75,0.75,0.75,0.749,0.748,0.748,0.747,0.746,0.746,0.745,0.742,0.742,0.741,0.74,0.739,0.739,0.738,0.738,0.737,0.736,0.736,0.735,0.735,0.735,0.734,0.734,0.733,0.733,0.732,0.729,0.728,0.727,0.726,0.724,0.724,0.723,0.722,0.721,0.72,0.72,0.719,0.719,0.718,0.717,0.714,0.712,0.712,0.71,0.709,0.709,0.708,0.708,0.707,0.707,0.706,0.706,0.706,0.705,0.703,0.702,0.7,0.697,0.695,0.694,0.694,0.693,0.693,0.693,0.693,0.693,0.692,0.692,0.691,0.69,0.69,0.688,0.688,0.687,0.686,0.685,0.682,0.681,0.681,0.68,0.68,0.68,0.679,0.678,0.678,0.677,0.676,0.676,0.674,0.673,0.672,0.671,0.67,0.668,0.668,0.667,0.667,0.666,0.665,0.664,0.663,0.663,0.662,0.661,0.66,0.66,0.659,0.658,0.658,0.657,0.657,0.656,0.655,0.655,0.655,0.654,0.653,0.652,0.651,0.65,0.649,0.649,0.648,0.647,0.647,0.646,0.644,0.643,0.643,0.642,0.641,0.64,0.639,0.636,0.636,0.635,0.634,0.634,0.633,0.633,0.632,0.632,0.631,0.631,0.63,0.629,0.628,0.626,0.625,0.624,0.623,0.623,0.623,0.623,0.623,0.623,0,0.624,0.624,0.625,0.626,0.628,0,0,0,0,0,0,0,0,0,0,0,0,0,0,0,0,0,0,0,0,0,0,0.345,0.345,0.345,0.345,0.346,0.346,0.346,0.347,0.347,0.348,0.348,0.348,0.348,0.348,0,0.349,0.349,0.35,0.351,0.351,0.351,0.352,0.352,0.353,0.353,0,0,0,0,0,0,0,0,0,0,0,0,0,0,0,0,0,0,0,0,0,0,0,0,0,0,0,0.575,0,0,0.573,0.573,0.571,0.571,0.571,0.571,0.571,0.571,0.571,0.571,0.571,0.572,0,0,0,0,0,0,0,0,0,0,0,0.561,0.386,0.386,0.386,0.386,0.387,0.387,0.387,0.387,0.387,0.387,0.555,0.555,0.555,0.555,0.556,0.556,0.556,0,0,0,0,0,0,0,0,0,0,0,0,0,0,0,0,0,0,0.393,0.393,0.393,0.393,0.393,0.393,0.393,0.393,0.393,0.392,0.392,0.392,0.392,0.392,0.392,0.392,0.392,0.392,0.393,0.393,0.393,0.394,0.394,0.394,0,0.396,0,0,0,0,0,0,0,0,0,0,0,0,0,0,0,0.513,0.513,0.513,0.513,0.513,0.513,0.512,0.511,0.511,0.51,0.51,0.51,0.509,0.509,0.509,0.509,0.509,0.509,0.508,0.507,0.506,0.506,0.505,0.505,0.504,0.503,0.503,0.502,0.502,0.502,0.502,0.502,0.502,0.502,0.501,0.502,0.502,0.501,0.5,0.5,0.499,0.499,0.498,0.497,0.497,0.496,0.496,0.495,0.495,0.495,0.495,0.494,0.494,0.493,0.493,0.492,0.491,0.491,0.49,0.489,0.489,0.489,0.489,0.489,0.489,0.488,0.488,0.488,0.487,0.487,0.486,0.485,0.485,0.485,0.484,0.483,0.483,0.482,0.482,0.482,0.481,0.481,0.481,0.48,0.48,0.479,0.478,0.478,0.477,0.477,0.477,0.477,0.476,0.476,0.476,0.476,0.476,0.476,0.476,0.476,0,0,0,0,0,0,0,0,0,0,0,0,0,0,0,0,0,0,0,0,0,0,0,0,0,0,0,0,0,0,0,0,0,0,0,0,0,0,0,0,0,0,0,0,0,0,0,0,0,0,0,0,0,0,0,0,0,0
0,0,0,0,0,0,0,0,0,0,0,0,0,3.172,3.163,3.163,3.163,3.155,3.163,3.163,3.163,3.172,3.181,3.181,3.189,3.198,3.207,3.216,3.225,3.234,3.234,3.234,3.234,3.234,3.225,3.225,3.216,3.207,3.198,3.189,3.189,3.189,3.181,3.181,3.172,3.163,3.163,3.155,3.146,3.146,3.146,3.146,3.146,3.146,3.146,3.146,3.155,3.163,3.181,3.189,3.225,3.288,3.336,3.404,3.444,3.465,3.485,3.506,0,3.528,3.56,3.593,3.627,3.661,3.672,3.696,3.707,3.707,3.707,3.696,3.672,3.661,3.661,3.649,3.627,3.615,3.615,3.593,3.593,3.582,3.582,3.582,3.582,3.56,3.582,3.582,3.56,3.56,3.56,3.56,3.56,3.549,3.549,3.549,3.538,3.528,3.528,3.506,3.496,3.485,3.485,3.444,3.355,0,0,0,0,0,0,0,0,0,0,0,0,0,0,0,0.751,0.751,0.751,0.751,0.751,0.75,0.75,0.75,0.75,0.75,0.75,0.749,0.749,0.748,0.749,0.748,0.746,0.745,0.744,0.742,0.741,0.739,0.739,0.738,0.737,0.737,0.736,0.736,0.735,0.735,0.735,0.734,0.734,0.734,0.733,0.732,0.731,0.728,0.727,0.726,0.724,0.724,0.723,0.722,0.722,0.721,0.72,0.72,0.719,0.719,0.717,0.716,0.715,0.712,0.711,0.71,0.709,0.708,0.708,0.707,0.707,0.706,0.706,0.706,0.705,0.705,0.704,0.703,0.701,0.698,0.696,0.695,0.694,0.693,0.693,0.692,0.692,0.692,0.691,0.69,0.69,0.689,0.688,0.687,0.686,0.685,0.684,0.682,0.682,0.681,0.68,0.68,0.679,0.679,0.678,0.677,0.676,0.675,0.674,0.673,0.672,0.672,0.671,0.67,0.669,0.669,0.668,0.667,0.666,0.666,0.665,0.663,0.662,0.661,0.66,0.66,0.658,0.658,0.657,0.657,0.657,0.656,0.656,0.655,0.655,0.655,0.655,0.654,0.653,0.651,0.65,0.649,0.648,0.647,0.647,0.644,0.644,0.644,0.644,0.643,0.642,0.641,0.64,0.639,0.636,0.635,0.634,0.634,0.633,0.633,0.633,0.632,0.632,0.631,0.63,0.629,0.629,0.628,0.627,0.625,0.624,0.624,0.622,0.622,0.622,0.622,0.621,0.621,0.622,0.622,0.622,0.622,0.623,0.623,0,0,0,0,0,0,0,0,0,0,0,0,0,0,0,0,0,0,0,0,0,0.345,0.345,0.345,0.345,0.345,0.345,0.345,0.346,0.346,0.346,0.347,0.347,0.347,0.348,0.348,0.348,0.348,0,0.349,0.349,0.35,0.35,0.351,0.351,0.352,0.352,0.352,0.353,0.353,0.354,0,0,0,0,0,0,0,0,0,0,0,0,0,0,0,0,0,0,0,0,0,0,0,0,0,0,0,0,0.573,0.572,0.571,0.57,0.57,0.57,0.57,0.57,0.57,0.57,0.57,0.571,0.571,0,0,0,0,0,0,0,0,0,0,0,0.557,0.386,0.386,0.386,0.386,0.387,0.386,0.387,0.386,0.387,0.387,0.553,0.554,0.554,0.555,0.555,0.555,0,0,0,0,0,0,0,0,0,0,0,0,0,0,0,0,0,0,0,0.393,0.393,0.393,0.393,0.393,0.393,0.392,0.392,0.392,0.392,0.392,0.392,0.392,0.392,0.392,0.392,0.392,0.392,0.392,0.393,0.393,0.393,0.393,0.394,0,0,0,0,0,0,0,0,0,0,0,0,0,0,0,0,0,0.51,0.511,0.51,0.511,0.511,0.51,0.51,0.509,0.509,0.509,0.509,0.509,0.508,0.508,0.508,0.507,0.507,0.506,0.506,0.505,0.504,0.503,0.503,0.502,0.502,0.502,0.502,0.502,0.502,0.501,0.501,0.501,0.5,0.5,0.499,0.497,0.497,0.496,0.496,0.497,0.496,0.496,0.495,0.495,0.495,0.495,0.495,0.494,0.494,0.493,0.493,0.492,0.492,0.491,0.491,0.49,0.49,0.489,0.489,0.488,0.488,0.488,0.488,0.488,0.487,0.487,0.486,0.486,0.485,0.485,0.484,0.483,0.483,0.482,0.482,0.482,0.482,0.481,0.481,0.481,0.48,0.479,0.478,0.478,0.477,0.477,0.476,0.476,0.476,0.476,0.475,0.475,0.475,0.475,0.475,0.475,0.475,0.475,0.475,0.475,0,0,0,0,0,0,0,0,0,0,0,0,0,0,0,0,0,0,0,0,0,0,0,0,0,0,0,0,0,0,0,0,0,0,0,0,0,0,0,0,0,0,0,0,0,0,0,0,0,0,0,0,0,0,0,0,0,0
0,0,0,0,0,0,0,0,0,0,0,3.189,3.181,3.181,3.172,3.163,3.163,3.155,3.155,3.155,3.163,3.163,3.172,3.181,3.189,3.189,3.198,3.216,3.225,3.225,3.234,3.234,3.234,3.234,3.234,3.234,3.225,3.225,3.207,3.198,3.198,3.198,3.189,3.189,3.189,3.181,3.181,3.163,3.163,3.155,3.155,3.155,3.146,3.146,3.146,3.155,3.155,3.163,3.172,3.181,3.198,3.234,3.288,3.336,3.394,3.434,3.454,3.465,3.485,3.506,3.538,3.56,0,3.615,3.649,3.661,3.696,3.696,3.672,3.672,3.661,3.649,3.627,3.627,3.615,3.593,3.593,3.593,3.56,3.56,3.56,3.56,3.56,3.549,3.56,3.56,3.56,3.56,3.56,3.56,3.549,3.549,3.538,3.549,3.538,3.528,3.517,3.517,0,0,0,0,0,0,0,0,0,0,0,0,0,0,0.752,0.751,0.751,0.751,0.751,0.75,0.751,0.75,0.75,0.75,0.75,0.75,0.75,0.749,0.749,0.749,0.748,0.748,0.747,0.745,0.745,0.744,0.743,0.74,0.739,0.738,0.737,0.736,0.736,0.735,0.735,0.735,0.735,0.734,0.734,0.734,0.733,0.733,0.732,0.73,0.729,0.727,0.725,0.724,0.723,0.722,0.722,0.721,0.72,0.72,0.719,0.719,0.718,0.717,0.716,0.714,0.711,0.71,0.709,0.709,0.708,0.707,0.706,0.706,0.706,0.706,0.705,0.704,0.703,0.702,0.702,0.7,0.7,0.697,0.695,0.695,0.694,0.693,0.693,0.692,0.69,0.69,0.689,0.688,0.687,0.686,0.685,0.684,0.684,0.683,0.682,0.681,0.68,0.68,0.68,0.68,0.679,0.678,0.676,0.675,0.674,0.673,0.672,0.671,0.67,0.669,0.669,0.668,0.668,0.667,0.667,0.666,0.665,0.664,0.663,0.662,0.661,0.66,0.658,0.658,0.657,0.657,0.657,0.656,0.656,0.655,0.655,0.655,0.654,0.654,0.653,0.651,0.65,0.649,0.649,0.645,0.644,0.644,0.644,0.644,0.643,0.642,0.642,0.641,0.64,0.64,0.639,0.635,0.634,0.634,0.633,0.633,0.632,0.632,0.631,0.631,0.63,0.629,0.629,0.628,0.626,0.626,0.625,0.624,0.623,0.623,0.622,0.622,0.621,0.62,0.62,0.62,0.62,0.619,0.62,0.62,0.621,0,0.622,0,0,0,0,0,0,0,0,0,0,0,0,0,0,0,0,0,0,0,0,0,0,0.345,0.345,0.345,0.345,0.345,0.345,0.346,0.346,0.347,0.347,0.347,0.348,0.348,0.348,0.348,0.348,0.348,0,0.349,0.349,0.35,0.351,0.351,0.351,0.352,0.352,0.353,0.353,0.354,0.354,0,0.355,0,0,0,0,0,0,0,0,0,0,0,0,0,0,0,0,0,0,0,0,0,0,0,0,0,0,0.571,0.57,0.57,0.569,0.569,0.568,0.568,0.569,0.569,0.569,0.569,0,0,0,0,0,0,0,0,0,0,0,0,0.385,0.385,0.385,0.386,0.386,0.386,0.386,0.386,0.386,0.386,0.387,0.387,0.552,0.552,0.553,0.553,0.554,0,0,0,0,0,0,0,0,0,0,0,0,0,0,0,0,0,0,0,0.393,0.393,0.393,0.393,0.393,0.392,0.392,0.392,0.392,0.392,0.391,0.391,0.391,0.391,0.391,0.391,0.391,0.391,0.392,0.392,0.393,0.393,0.393,0.393,0,0.394,0,0,0,0,0,0,0,0,0,0,0,0,0,0,0,0.509,0.509,0.509,0.509,0.509,0.509,0.509,0.509,0.509,0.508,0.508,0.508,0.507,0.507,0.506,0.505,0.505,0.504,0.504,0.503,0.502,0.502,0.502,0.502,0.502,0.501,0.501,0.5,0.5,0.5,0.5,0.499,0.498,0.497,0.497,0.496,0.496,0.495,0.495,0.494,0.494,0.493,0.493,0.493,0.494,0.494,0.494,0.493,0.492,0.492,0.491,0.491,0.49,0.49,0.49,0.489,0.489,0.488,0.488,0.488,0.487,0.487,0.487,0.486,0.486,0.485,0.485,0.484,0.483,0.483,0.482,0.482,0.482,0.482,0.481,0.481,0.481,0.48,0.48,0.479,0.478,0.477,0.477,0.477,0.476,0.476,0.476,0.475,0.475,0.475,0.474,0.474,0.473,0.473,0.473,0.473,0.473,0.473,0.472,0.472,0.472,0,0,0,0,0,0,0,0,0,0,0,0,0,0,0,0,0,0,0,0,0,0,0,0,0,0,0,0,0,0,0,0,0,0,0,0,0,0,0,0,0,0,0,0,0,0,0,0,0,0,0,0,0,0,0,0,0,0
0,0,0,0,0,0,0,0,0,0,0,3.207,3.189,3.189,3.181,3.172,3.163,3.155,3.155,3.155,3.155,3.163,3.163,3.172,3.181,3.189,3.198,3.207,3.207,3.216,3.225,3.234,3.234,3.234,3.234,3.234,3.225,3.234,3.234,3.225,3.225,3.225,3.225,3.216,3.207,3.198,3.189,3.189,3.181,3.172,3.163,3.163,3.155,3.155,3.155,3.155,3.155,3.163,3.163,3.181,3.189,3.207,3.234,3.288,3.326,3.365,3.404,3.424,3.454,3.465,3.485,3.517,3.538,3.582,0,3.615,3.649,3.672,3.672,3.672,3.661,3.649,3.627,3.593,3.593,3.582,3.582,3.56,3.549,3.549,3.549,3.549,3.549,3.538,3.538,3.549,3.549,3.56,3.56,3.549,0,0,0,0,0,0,0,0,0,0,0,0,0,0,0.757,0.755,0.754,0.754,0.753,0.753,0.752,0.751,0.751,0.75,0.75,0.75,0.75,0.75,0.75,0.75,0.75,0.749,0.749,0.749,0.748,0.748,0.748,0.747,0.746,0.745,0.745,0.743,0.742,0.739,0.738,0.737,0.736,0.736,0.735,0.735,0.734,0.734,0.734,0.734,0.733,0.732,0.731,0.73,0.729,0.728,0.726,0.724,0.724,0.723,0.722,0.721,0.721,0.72,0.719,0.719,0.718,0.717,0.716,0.715,0.713,0.71,0.709,0.709,0.708,0.707,0.707,0.706,0.706,0.706,0.705,0.704,0.703,0.702,0.701,0.7,0.699,0.698,0.698,0.696,0.695,0.694,0.693,0.693,0.693,0.692,0.69,0.689,0.687,0.687,0.686,0.684,0.683,0.682,0.681,0.681,0.68,0.68,0.68,0.68,0.679,0.678,0.678,0.677,0.676,0.674,0.672,0.671,0.67,0.669,0.669,0.668,0.668,0.668,0.667,0.666,0.666,0.665,0.664,0.662,0.661,0.66,0.658,0.658,0.657,0.657,0.656,0.656,0.655,0.655,0.655,0.655,0.654,0.654,0.653,0.651,0.65,0.65,0.646,0.645,0.645,0.644,0.644,0.644,0.643,0.642,0.642,0.641,0.64,0.639,0.638,0.636,0.635,0.634,0.634,0.633,0.632,0.632,0.631,0.63,0.629,0.628,0.627,0.627,0.626,0.625,0.624,0.624,0.623,0.623,0.622,0.622,0.621,0.62,0.62,0.619,0.618,0.617,0.617,0.616,0.616,0.616,0.617,0.617,0.618,0.619,0.62,0,0,0,0,0,0,0,0,0,0,0,0,0,0,0,0,0,0,0,0.345,0.345,0.345,0.345,0.345,0.345,0.346,0.346,0.346,0.346,0.347,0.347,0.347,0.348,0.348,0.348,0.348,0.348,0.348,0.349,0.349,0.349,0.35,0.35,0.351,0.351,0.352,0.352,0.352,0.353,0.354,0.354,0,0.355,0.355,0,0,0,0,0,0,0,0,0,0,0,0,0,0,0,0,0,0,0,0,0,0,0,0,0,0,0,0.568,0.567,0.567,0.567,0.566,0.566,0.566,0.566,0.567,0,0,0,0,0,0,0,0,0,0,0,0,0.385,0.385,0.385,0.385,0.385,0.386,0.386,0.386,0.386,0.386,0.386,0.386,0,0.55,0.55,0.551,0.551,0,0,0,0,0,0,0,0,0,0,0,0,0,0,0,0,0,0,0,0.392,0,0.392,0.392,0.392,0.392,0.392,0.392,0.391,0.391,0.391,0.391,0.391,0.391,0.391,0.391,0.391,0.391,0.391,0.391,0.392,0.392,0.393,0.393,0.393,0,0,0,0,0,0,0,0,0,0,0,0,0,0,0,0,0.508,0.508,0.508,0.508,0.508,0.508,0.508,0.508,0.507,0.507,0.507,0.506,0.505,0.505,0.504,0.504,0.503,0.503,0.502,0.502,0.502,0.502,0.501,0.501,0.5,0.499,0.499,0.499,0.498,0.498,0.498,0.497,0.496,0.496,0.496,0.495,0.495,0.495,0.494,0.493,0.493,0.492,0.492,0.491,0.491,0.49,0.49,0.49,0.489,0.489,0.49,0.49,0.489,0.489,0.489,0.488,0.488,0.487,0.487,0.486,0.486,0.485,0.485,0.485,0.484,0.484,0.483,0.482,0.482,0.482,0.482,0.481,0.481,0.481,0.48,0.48,0.479,0.479,0.478,0.477,0.477,0.476,0.476,0.476,0.475,0.475,0.475,0.474,0.473,0.473,0.472,0.472,0.471,0.471,0.471,0.47,0.47,0.47,0.47,0.47,0.47,0.47,0,0,0,0,0,0,0,0,0,0,0,0,0,0,0,0,0,0,0,0,0,0,0,0,0,0,0,0,0,0,0,0,0,0,0,0,0,0,0,0,0,0,0,0,0,0,0,0,0,0,0,0,0,0,0,0,0,0
0,0,0,0,0,0,0,0,0,0,0,3.216,3.207,3.189,3.181,3.181,3.163,3.163,3.155,3.155,3.155,3.163,3.163,3.172,3.181,3.189,3.189,3.198,3.207,3.216,3.225,3.225,3.234,3.234,3.243,3.243,3.243,3.261,3.261,3.27,3.261,3.27,3.261,3.27,3.243,3.234,3.216,3.207,3.198,3.189,3.181,3.172,3.172,3.163,3.163,3.163,3.163,3.163,3.163,3.172,3.181,3.189,3.207,3.225,3.261,3.288,3.326,3.355,3.394,3.424,3.454,3.475,3.496,3.528,3.582,0,3.627,3.661,3.661,3.661,3.649,3.627,3.615,3.615,3.582,3.582,3.582,3.549,3.538,3.538,3.538,3.538,3.538,3.538,3.538,0,0,0,0,0,0,0,0,0,0,0,0,0,0,0,0,0.755,0.755,0.756,0.755,0.754,0.753,0.753,0.752,0.752,0.751,0.75,0.75,0.75,0.75,0.75,0.749,0.749,0.749,0.749,0.748,0.749,0.748,0.747,0.747,0.746,0.745,0.744,0.743,0.741,0.739,0.738,0.737,0.736,0.735,0.735,0.734,0.734,0.734,0.733,0.732,0.731,0.73,0.73,0.728,0.728,0.727,0.724,0.724,0.723,0.722,0.721,0.721,0.72,0.72,0.719,0.719,0.717,0.716,0.715,0.713,0.712,0.709,0.709,0.708,0.707,0.707,0.706,0.706,0.706,0.705,0.705,0.704,0.702,0.701,0.7,0.699,0.698,0.697,0.695,0.695,0.694,0.694,0.693,0.693,0.693,0.692,0.691,0.69,0.688,0.686,0.685,0.683,0.682,0.682,0.681,0.68,0.68,0.68,0.679,0.679,0.678,0.678,0.677,0.676,0.675,0.674,0.673,0.671,0.67,0.669,0.668,0.668,0.668,0.667,0.666,0.665,0.665,0.664,0.663,0.662,0.661,0.659,0.658,0.657,0.657,0.656,0.656,0.655,0.655,0.655,0.655,0.654,0.654,0.653,0.651,0.65,0.649,0.645,0.645,0.644,0.644,0.644,0.644,0.643,0.642,0.642,0.641,0.64,0.639,0.638,0.637,0.635,0.634,0.634,0.634,0.633,0.632,0.632,0.631,0.63,0.629,0.628,0.626,0.625,0.624,0.623,0.623,0.623,0.622,0.622,0.622,0.621,0.621,0.62,0.619,0.618,0.617,0.616,0.615,0.615,0.614,0.614,0.613,0.613,0.614,0.614,0.614,0.615,0.616,0,0,0,0,0,0,0,0,0,0,0,0,0,0,0,0,0,0,0,0.345,0.345,0.345,0.345,0.345,0.345,0.345,0.346,0.346,0.346,0.346,0.347,0.347,0.348,0.348,0.348,0.348,0.348,0.348,0,0.349,0.349,0.35,0.351,0.351,0.351,0.352,0.352,0.353,0.354,0.354,0.354,0,0.355,0.355,0.355,0.355,0.355,0.355,0,0,0,0,0,0,0,0,0,0,0,0,0,0,0,0,0,0,0,0,0,0,0,0,0,0,0,0,0,0,0,0,0,0,0,0,0,0,0,0,0,0,0,0,0.384,0.385,0.385,0.385,0.385,0.385,0.386,0.386,0.386,0.386,0.386,0.386,0.548,0.549,0.549,0.549,0,0,0,0,0,0,0,0,0,0,0,0,0,0,0,0,0,0,0,0,0.391,0.392,0.392,0.392,0.391,0.391,0.391,0.391,0.391,0.391,0.39,0.39,0.39,0.39,0.39,0.39,0.39,0.39,0.39,0.391,0.391,0.391,0.391,0.392,0.393,0.393,0,0,0,0,0,0,0,0,0,0,0,0,0,0,0,0.506,0.507,0.507,0.507,0.507,0.507,0.506,0.507,0.506,0.505,0.505,0.504,0.504,0.503,0.503,0.502,0.502,0.502,0.502,0.501,0.501,0.501,0.499,0.499,0.499,0.498,0.497,0.497,0.496,0.496,0.496,0.496,0.496,0.495,0.495,0.495,0.494,0.494,0.492,0.491,0.491,0.491,0.49,0.49,0.489,0.489,0.489,0.489,0.488,0.488,0.488,0.488,0.487,0.487,0.487,0.487,0.487,0.486,0.485,0.485,0.484,0.483,0.483,0.483,0.483,0.482,0.482,0.482,0.482,0.481,0.481,0.48,0.48,0.479,0.478,0.478,0.478,0.477,0.477,0.476,0.476,0.476,0.475,0.475,0.475,0.474,0.473,0.473,0.472,0.471,0.471,0.47,0.47,0.47,0.47,0.469,0.469,0.469,0.469,0.469,0.468,0.468,0.468,0,0,0,0,0,0,0,0,0,0,0,0,0,0,0,0,0,0,0,0,0,0,0,0,0,0,0,0,0,0,0,0,0,0,0,0,0,0,0,0,0,0,0,0,0,0,0,0,0,0,0,0,0,0,0,0,0,0
0,0,0,0,0,0,0,0,0,0,0,3.225,3.216,3.207,3.189,3.189,3.181,3.172,3.163,3.163,3.163,3.163,3.163,3.172,3.181,3.189,3.189,3.198,3.207,3.207,3.216,3.225,3.234,3.243,3.261,3.261,3.27,3.288,3.298,3.298,3.317,3.317,3.326,3.317,3.317,3.298,3.261,3.243,3.225,3.216,3.198,3.189,3.181,3.181,3.172,3.163,3.163,3.163,3.163,3.163,3.172,3.181,3.181,3.189,3.207,3.225,3.243,3.27,3.317,3.365,3.414,3.444,3.475,3.506,3.549,3.615,0,3.661,3.661,3.661,3.649,3.627,3.615,3.593,3.582,3.56,3.56,3.538,0,0,0,0,0,0,0,0,0,0,0,0,0,0,0,0,0.75,0.751,0,0.752,0.752,0.753,0.754,0.754,0.753,0.754,0.753,0.753,0.753,0.752,0.752,0.751,0.75,0.75,0.75,0.749,0.749,0.748,0.748,0.748,0.748,0.748,0.746,0.746,0.745,0.745,0.743,0.743,0.741,0.738,0.737,0.736,0.735,0.735,0.734,0.734,0.734,0.733,0.731,0.73,0.729,0.728,0.727,0.726,0.725,0.724,0.723,0.722,0.722,0.721,0.721,0.72,0.719,0.719,0.718,0.717,0.716,0.715,0.714,0.712,0.711,0.709,0.708,0.707,0.707,0.706,0.706,0.706,0.705,0.704,0.703,0.702,0.701,0.7,0.699,0.698,0.697,0.696,0.694,0.694,0.693,0.693,0.693,0.693,0.692,0.692,0.691,0.69,0.689,0.688,0.686,0.684,0.682,0.681,0.681,0.68,0.68,0.679,0.678,0.678,0.677,0.676,0.676,0.674,0.673,0.672,0.671,0.671,0.67,0.669,0.669,0.668,0.667,0.667,0.665,0.665,0.664,0.663,0.662,0.661,0.66,0.658,0.658,0.657,0.657,0.656,0.655,0.655,0.655,0.655,0.654,0.654,0.653,0.652,0.65,0.646,0.646,0.645,0.644,0.644,0.644,0.643,0.642,0.642,0.641,0.64,0.64,0.639,0.638,0.636,0.635,0.634,0.634,0.633,0.633,0.633,0.632,0.632,0.631,0.63,0.629,0.628,0.626,0.625,0.624,0.623,0.622,0.622,0.622,0.621,0.621,0.62,0.62,0.619,0.618,0.617,0.616,0.615,0.614,0.613,0.613,0.612,0.612,0.612,0.612,0.612,0.612,0.612,0.612,0.612,0.613,0,0,0,0,0,0,0,0,0,0,0,0,0,0,0,0,0,0,0,0,0.345,0.345,0.345,0.345,0.345,0.345,0.345,0.345,0.346,0.346,0.347,0.347,0.347,0.348,0.348,0.348,0.348,0.348,0,0.349,0.349,0.35,0.351,0.351,0.351,0.352,0.352,0.353,0.353,0.354,0.354,0.355,0.355,0.355,0.355,0.355,0.355,0.355,0.356,0,0,0,0,0,0,0,0,0,0,0,0,0,0,0,0,0,0,0,0,0,0,0,0,0,0,0,0,0,0,0,0,0,0,0,0,0,0,0,0,0,0,0,0.383,0.384,0.384,0.384,0.385,0.385,0.385,0.385,0.386,0.386,0.386,0.386,0.386,0.386,0.386,0.548,0,0,0,0,0,0,0,0,0,0,0,0,0,0,0,0,0,0,0.39,0.391,0.391,0.391,0.391,0.391,0.391,0.391,0.391,0.39,0.39,0.39,0.39,0.39,0.39,0.39,0.39,0.39,0.39,0.39,0.39,0.39,0.39,0.391,0.391,0.391,0.392,0.392,0.393,0,0,0,0,0,0,0,0,0,0,0,0,0,0,0,0.505,0.505,0.505,0.505,0.505,0.505,0.505,0.504,0.504,0.503,0.503,0.502,0.502,0.502,0.502,0.501,0.501,0.501,0.5,0.5,0.499,0.497,0.497,0.497,0.496,0.496,0.496,0.495,0.495,0.495,0.495,0.495,0.495,0.494,0.493,0.492,0.492,0.491,0.49,0.489,0.489,0.489,0.489,0.488,0.488,0.488,0.488,0.488,0.487,0.487,0.486,0.485,0.485,0.485,0.484,0.483,0.483,0.482,0.482,0.482,0.483,0.482,0.482,0.482,0.482,0.481,0.481,0.481,0.48,0.479,0.478,0.478,0.477,0.477,0.476,0.476,0.476,0.476,0.476,0.475,0.475,0.475,0.474,0.473,0.473,0.472,0.471,0.471,0.47,0.47,0.47,0.469,0.469,0.469,0.468,0.468,0.468,0.467,0.467,0.466,0.466,0.465,0,0,0,0,0,0,0,0,0,0,0,0,0,0,0,0,0,0,0,0,0,0,0,0,0,0,0,0,0,0,0,0,0,0,0,0,0,0,0,0,0,0,0,0,0,0,0,0,0,0,0,0,0,0,0,0,0,0,0
0,0,0,0,0,0,0,0,0,0,0,3.234,3.216,3.207,3.198,3.189,3.181,3.172,3.172,3.163,3.163,3.163,3.172,3.181,3.181,3.189,3.189,3.189,3.207,3.207,3.216,3.234,3.243,3.243,3.27,3.288,3.298,3.326,3.326,3.336,3.355,3.365,3.365,3.365,3.355,3.336,3.326,3.288,3.27,3.243,3.225,3.207,3.189,3.189,3.181,3.172,3.172,3.163,3.163,3.163,3.163,3.163,3.172,3.181,3.181,3.189,3.198,3.216,3.261,3.298,3.355,3.414,3.454,3.485,3.528,3.593,0,3.661,3.661,3.661,3.649,3.615,3.593,3.582,3.56,0,0,0,0,0,0,0,0,0,0,0,0,0,0,0,0,0.749,0.75,0,0.75,0.751,0.751,0.752,0.751,0.752,0.753,0.753,0.753,0.753,0.753,0.752,0.752,0.751,0.75,0.75,0.75,0.749,0.749,0.749,0.747,0.747,0.747,0.746,0.745,0.745,0.744,0.743,0.742,0.741,0.739,0.737,0.736,0.735,0.735,0.734,0.734,0.733,0.732,0.73,0.728,0.727,0.726,0.724,0.724,0.723,0.722,0.722,0.721,0.721,0.72,0.72,0.719,0.719,0.718,0.717,0.716,0.714,0.713,0.712,0.71,0.709,0.709,0.707,0.706,0.706,0.706,0.706,0.705,0.704,0.703,0.702,0.701,0.7,0.699,0.698,0.697,0.696,0.695,0.694,0.693,0.693,0.693,0.692,0.692,0.691,0.69,0.69,0.689,0.688,0.687,0.686,0.685,0.683,0.682,0.681,0.68,0.679,0.678,0.678,0.677,0.676,0.674,0.673,0.672,0.672,0.671,0.67,0.669,0.669,0.669,0.668,0.668,0.668,0.667,0.666,0.664,0.663,0.662,0.661,0.66,0.658,0.658,0.657,0.657,0.656,0.656,0.655,0.655,0.655,0.654,0.654,0.653,0.652,0.65,0.646,0.645,0.645,0.645,0.644,0.644,0.644,0.643,0.642,0.641,0.64,0.639,0.638,0.637,0.636,0.635,0.634,0.634,0.633,0.633,0.633,0.632,0.632,0.631,0.631,0.63,0.629,0.628,0.627,0.625,0.624,0.623,0.622,0.622,0.621,0.62,0.62,0.619,0.618,0.617,0.617,0.616,0.615,0.614,0.614,0.613,0.612,0.612,0.612,0.611,0.611,0.611,0.611,0.611,0.611,0.611,0.611,0.611,0.611,0.612,0,0,0,0,0,0,0,0,0,0,0,0,0,0,0,0,0,0,0,0.345,0,0.345,0.345,0.345,0.345,0.345,0.345,0.346,0.346,0.347,0.347,0,0.348,0.348,0.348,0.348,0.348,0,0.349,0.349,0.35,0.35,0.351,0.351,0.352,0.352,0.353,0.353,0.354,0.354,0,0.355,0.355,0.355,0.355,0.356,0.356,0.356,0.357,0,0,0,0,0,0,0,0,0,0,0,0,0,0,0,0,0,0,0,0,0,0,0,0,0,0,0,0,0,0,0,0,0,0,0,0,0,0,0,0,0,0,0,0.384,0.384,0.384,0.385,0.385,0.385,0.385,0.385,0.385,0.385,0.386,0.386,0.386,0.386,0.386,0,0,0,0,0,0,0,0,0,0,0,0,0,0,0,0,0.389,0.389,0.389,0.39,0.39,0.39,0.39,0.39,0.39,0.39,0.39,0.39,0.39,0.389,0.389,0.389,0.389,0.389,0.389,0.389,0.389,0.389,0.39,0.39,0.39,0.39,0.391,0.391,0.391,0.392,0.392,0.392,0,0,0,0,0,0,0,0,0,0,0,0,0,0,0,0.504,0.504,0.504,0.504,0.504,0.503,0.503,0.503,0.502,0.502,0.502,0.502,0.501,0.501,0.5,0.5,0.499,0.499,0.497,0.496,0.496,0.496,0.496,0.495,0.495,0.495,0.495,0.495,0.494,0.494,0.494,0.493,0.493,0.491,0.491,0.49,0.489,0.489,0.489,0.488,0.488,0.488,0.488,0.487,0.487,0.487,0.486,0.486,0.485,0.484,0.484,0.483,0.483,0.482,0.482,0.482,0.482,0.481,0.481,0.481,0.481,0.48,0.48,0.479,0.479,0.48,0.479,0.478,0.478,0.477,0.477,0.476,0.476,0.476,0.475,0.475,0.475,0.475,0.474,0.474,0.473,0.472,0.472,0.471,0.471,0.47,0.47,0.47,0.469,0.469,0.469,0.468,0.468,0.468,0.467,0.466,0.465,0.465,0.465,0.464,0.464,0.464,0,0,0,0,0,0,0,0,0,0,0,0,0,0,0,0,0,0,0,0,0,0,0,0,0,0,0,0,0,0,0,0,0,0,0,0,0,0,0,0,0,0,0,0,0,0,0,0,0,0,0,0,0,0,0,0,0,0,0
0,0,0,0,0,0,0,0,0,0,0,3.234,3.216,3.207,3.198,3.189,3.181,3.181,3.181,3.172,3.181,3.181,3.181,3.181,3.189,3.189,3.189,3.198,3.207,3.216,3.225,3.234,3.243,3.27,3.288,3.298,3.317,3.336,3.365,3.384,3.394,3.404,3.404,3.404,3.394,3.384,3.365,3.336,3.298,3.27,3.243,3.225,3.207,3.189,3.189,3.181,3.172,3.163,3.163,3.163,3.163,3.163,3.163,3.163,3.163,3.181,3.181,3.189,3.216,3.234,3.288,3.355,3.424,0,3.496,3.56,3.649,3.649,3.649,3.627,3.615,3.593,3.593,3.56,0,0,0,0,0,0,0,0,0,0,0,0,0,0,0,0,0,0.749,0.749,0.75,0.749,0.75,0.75,0.751,0.751,0.751,0.752,0.752,0.752,0.752,0.752,0.751,0.751,0.75,0.75,0.749,0.749,0.748,0.747,0.746,0.745,0.744,0.743,0.743,0.741,0.741,0.74,0.739,0.738,0.737,0.735,0.735,0.734,0.734,0.732,0.73,0.728,0.727,0.726,0.724,0.724,0.723,0.722,0.721,0.72,0.72,0.72,0.719,0.719,0.718,0.718,0.717,0.716,0.714,0.713,0.712,0.71,0.709,0.708,0.708,0.706,0.706,0.706,0.705,0.704,0.703,0.702,0.701,0.7,0.699,0.698,0.698,0.696,0.696,0.695,0.694,0.694,0.693,0.693,0.692,0.691,0.69,0.69,0.688,0.687,0.686,0.686,0.685,0.684,0.683,0.683,0.682,0.682,0.681,0.68,0.68,0.678,0.676,0.674,0.673,0.672,0.671,0.67,0.669,0.669,0.669,0.668,0.668,0.668,0.667,0.667,0.667,0.666,0.664,0.662,0.661,0.66,0.658,0.658,0.657,0.657,0.656,0.656,0.655,0.655,0.655,0.654,0.654,0.653,0.652,0.651,0.646,0.645,0.645,0.645,0.644,0.644,0.643,0.643,0.642,0.642,0.64,0.639,0.638,0.636,0.635,0.634,0.634,0.633,0.633,0.633,0.632,0.632,0.632,0.631,0.63,0.629,0.629,0.628,0.627,0.626,0.625,0.624,0.623,0.623,0.622,0.622,0.62,0.619,0.618,0.617,0.616,0.615,0.615,0.614,0.614,0.613,0.612,0.612,0.612,0.611,0.611,0.611,0.61,0.61,0.609,0.609,0.609,0.609,0.61,0.609,0.61,0.611,0,0,0,0,0,0,0,0,0,0,0,0,0,0,0,0,0,0,0,0,0,0,0,0.345,0.345,0.345,0.345,0.345,0.346,0.346,0.346,0.347,0.347,0,0.348,0.348,0.348,0.348,0,0.349,0.349,0.35,0.35,0.351,0.351,0.352,0.352,0.353,0.353,0.354,0.354,0,0.355,0.355,0.355,0.355,0.355,0.356,0.356,0.357,0.357,0,0,0,0,0,0,0,0,0,0,0,0,0,0,0,0,0,0,0,0,0,0,0,0,0,0,0,0,0,0,0,0,0,0,0,0,0,0,0,0,0,0,0.383,0.384,0.384,0.384,0.384,0.385,0.385,0.385,0.385,0.385,0.385,0.386,0.385,0.385,0.385,0.385,0,0,0,0,0,0,0,0,0,0,0,0,0,0,0.389,0,0.389,0.389,0.389,0.389,0.39,0.389,0.389,0.389,0.39,0.389,0.389,0.389,0.389,0.389,0.389,0.389,0.389,0.389,0.389,0.389,0.389,0.389,0.389,0.39,0.39,0.39,0.39,0.391,0.391,0.392,0.391,0.392,0,0,0,0,0,0,0,0,0,0,0,0,0,0,0.503,0.503,0.503,0.503,0.502,0.502,0.502,0.502,0.502,0.502,0.501,0.501,0.5,0.5,0.499,0.497,0.497,0.496,0.496,0.496,0.495,0.495,0.495,0.495,0.494,0.494,0.494,0.493,0.493,0.493,0.492,0.492,0.491,0.49,0.49,0.489,0.489,0.488,0.488,0.488,0.487,0.487,0.486,0.486,0.485,0.484,0.484,0.483,0.483,0.483,0.482,0.482,0.482,0.482,0.482,0.481,0.481,0.48,0.48,0.479,0.479,0.478,0.477,0.477,0.476,0.476,0.476,0.476,0.475,0.475,0.475,0.475,0.475,0.475,0.475,0.474,0.474,0.473,0.472,0.471,0.471,0.471,0.47,0.47,0.47,0.47,0.469,0.469,0.469,0.468,0.468,0.467,0.467,0.466,0.465,0.465,0.464,0.464,0.463,0.464,0.463,0.463,0.463,0,0,0,0,0,0,0,0,0,0,0,0,0,0,0,0,0,0,0,0,0,0,0,0,0,0,0,0,0,0,0,0,0,0,0,0,0,0,0,0,0,0,0,0,0,0,0,0,0,0,0,0,0,0,0,0,0,0,0
0,0,0,0,0,0,0,0,0,0,0,3.234,3.225,3.207,3.198,3.189,3.189,3.189,3.181,3.181,3.181,3.181,3.181,3.189,3.189,3.189,3.189,3.198,3.207,3.216,3.234,3.234,3.261,3.27,3.298,3.326,3.355,3.384,3.394,3.414,3.424,3.424,3.434,3.434,3.434,3.414,3.404,3.384,3.355,3.298,3.27,3.243,3.216,3.198,3.189,3.181,3.172,3.163,3.163,3.163,3.163,3.155,3.155,3.155,3.163,3.163,3.163,3.172,3.189,3.198,3.225,3.27,0,0,0,0,0,0,0,0,0,0,0,0,0,0,0,0,0,0,0,0,0,0,0,0,0,0.75,0.749,0.749,0.749,0.749,0.748,0.749,0.749,0.749,0.75,0.75,0.75,0.75,0.751,0.751,0.751,0.75,0.75,0.75,0.749,0.749,0.748,0.747,0.746,0.745,0.743,0.743,0.741,0.741,0.739,0.739,0.738,0.737,0.736,0.736,0.735,0.734,0.734,0.733,0.731,0.729,0.727,0.725,0.724,0.723,0.722,0.721,0.721,0.72,0.719,0.719,0.718,0.718,0.717,0.716,0.715,0.714,0.712,0.711,0.71,0.709,0.708,0.708,0.707,0.706,0.706,0.705,0.704,0.703,0.702,0.701,0.699,0.698,0.697,0.696,0.695,0.695,0.694,0.694,0.693,0.693,0.693,0.692,0.691,0.691,0.69,0.688,0.687,0.686,0.685,0.684,0.683,0.682,0.682,0.681,0.681,0.68,0.68,0.68,0.68,0.678,0.677,0.675,0.673,0.672,0.671,0.669,0.669,0.669,0.668,0.668,0.667,0.667,0.667,0.666,0.666,0.665,0.663,0.662,0.661,0.659,0.658,0.657,0.657,0.656,0.656,0.655,0.655,0.655,0.654,0.654,0.653,0.653,0.651,0.65,0.645,0.645,0.644,0.644,0.644,0.643,0.643,0.642,0.641,0.64,0.64,0.639,0.638,0.636,0.635,0.634,0.633,0.633,0.632,0.632,0.631,0.631,0.63,0.629,0.629,0.628,0.627,0.626,0.625,0.624,0.624,0.623,0.623,0.622,0.622,0.621,0.621,0.619,0.617,0.617,0.616,0.615,0.614,0.613,0.613,0.612,0.612,0.612,0.611,0.611,0.611,0.611,0.61,0.609,0.609,0.608,0.607,0.608,0.608,0.607,0.608,0.608,0,0,0,0,0,0,0,0,0,0,0,0,0,0,0,0,0,0,0,0,0,0,0,0,0,0,0.345,0.345,0.345,0.345,0.345,0.346,0.346,0.347,0.347,0,0.348,0.348,0.348,0,0.349,0.349,0.349,0.35,0.35,0.351,0.351,0.352,0.352,0.352,0.353,0,0.354,0,0.355,0.355,0.355,0.355,0.356,0.356,0.356,0.357,0.357,0.358,0.358,0.358,0,0,0,0,0,0,0,0,0,0,0,0,0,0,0,0,0,0,0,0,0,0,0,0,0,0,0,0,0,0,0,0,0,0,0,0,0,0,0,0,0.383,0.383,0.384,0.384,0.384,0.385,0.385,0.385,0.385,0.385,0.385,0.385,0.385,0.385,0.385,0.385,0,0,0,0,0,0,0,0,0,0,0,0.387,0.388,0,0,0.389,0.389,0.389,0.389,0.389,0.389,0.389,0.389,0.389,0.389,0.389,0.389,0.389,0.389,0.389,0.389,0.389,0.389,0.389,0.389,0.389,0.389,0.389,0.389,0.39,0.39,0.39,0.391,0.391,0.391,0.392,0.392,0.392,0,0,0,0,0,0,0,0,0,0,0,0,0,0,0,0.502,0.502,0.502,0.502,0.502,0.502,0.501,0.501,0.5,0.499,0.499,0.498,0.497,0.496,0.496,0.495,0.495,0.495,0.495,0.494,0.494,0.493,0.493,0.493,0.492,0.492,0.491,0.491,0.49,0.49,0.49,0.489,0.489,0.488,0.488,0.488,0.487,0.487,0.486,0.486,0.485,0.483,0.483,0.483,0.482,0.482,0.482,0.482,0.482,0.481,0.481,0.481,0.48,0.48,0.479,0.478,0.478,0.477,0.477,0.476,0.476,0.476,0.476,0.475,0.475,0.475,0.475,0.474,0.473,0.473,0.472,0.472,0.471,0.47,0.47,0.47,0.47,0.47,0.47,0.47,0.47,0.469,0.469,0.469,0.469,0.469,0.468,0.468,0.467,0.466,0.465,0.465,0.464,0.464,0.464,0.463,0.463,0.463,0.463,0.463,0.462,0.462,0,0,0,0,0,0,0,0,0,0,0,0,0,0,0,0,0,0,0,0,0,0,0,0,0,0,0,0,0,0,0,0,0,0,0,0,0,0,0,0,0,0,0,0,0,0,0,0,0,0,0,0,0,0,0,0,0,0,0
0,0,0,0,0,0,0,0,0,0,0,0,0,3.207,3.198,3.198,3.189,3.189,3.189,3.189,3.189,3.189,3.189,3.189,3.198,3.198,3.198,3.207,3.207,3.225,3.234,3.243,3.27,3.288,3.317,3.336,3.365,3.394,3.424,3.434,3.444,3.444,3.444,3.444,3.444,3.434,3.424,3.404,3.384,3.317,3.288,3.261,3.234,3.207,3.198,3.189,3.181,3.163,3.163,3.163,3.163,3.155,3.155,3.155,3.155,3.155,3.155,3.163,3.163,0,0,0,0,0,0,0,0,0,0,0,0,0,0,0,0,0,0,0,0,0,0,0.757,0.754,0.753,0.752,0.751,0.75,0.75,0.749,0.748,0.748,0.748,0.748,0.748,0.748,0.749,0.749,0.749,0.749,0.75,0.75,0.75,0.75,0.749,0.748,0.748,0.747,0.746,0.745,0.743,0.742,0.741,0.74,0.739,0.738,0.737,0.736,0.736,0.735,0.735,0.734,0.734,0.733,0.731,0.729,0.727,0.726,0.724,0.723,0.722,0.721,0.72,0.72,0.719,0.718,0.717,0.716,0.715,0.714,0.713,0.712,0.71,0.709,0.709,0.708,0.708,0.707,0.706,0.706,0.706,0.704,0.703,0.702,0.7,0.699,0.698,0.697,0.696,0.695,0.694,0.694,0.693,0.693,0.693,0.693,0.692,0.692,0.69,0.69,0.688,0.687,0.686,0.684,0.683,0.682,0.682,0.681,0.68,0.68,0.68,0.68,0.68,0.679,0.679,0.677,0.676,0.674,0.673,0.672,0.67,0.669,0.668,0.668,0.668,0.667,0.667,0.666,0.666,0.665,0.664,0.664,0.662,0.661,0.66,0.659,0.658,0.657,0.657,0.656,0.655,0.655,0.654,0.654,0.654,0.653,0.653,0.651,0.65,0.645,0.644,0.644,0.644,0.643,0.643,0.643,0.642,0.641,0.64,0.639,0.638,0.637,0.636,0.635,0.634,0.633,0.633,0.632,0.632,0.631,0.63,0.63,0.629,0.628,0.627,0.626,0.626,0.625,0.624,0.623,0.623,0.622,0.622,0.622,0.622,0.621,0.621,0.619,0.618,0.617,0.615,0.614,0.613,0.613,0.612,0.612,0.611,0.611,0.611,0.611,0.611,0.61,0.609,0.609,0.608,0.608,0.607,0.605,0.605,0.604,0.604,0.605,0.605,0.606,0,0,0,0,0,0,0,0,0,0,0,0,0,0,0,0,0,0,0,0,0,0,0,0,0,0.345,0.345,0.345,0.345,0.345,0.346,0.346,0.346,0.347,0.347,0,0.348,0.348,0.348,0.348,0,0.349,0.349,0.35,0.35,0.351,0.351,0.351,0.352,0.352,0.353,0,0.354,0.354,0.355,0.355,0.355,0.355,0.356,0.356,0.356,0.357,0.357,0.358,0.358,0.358,0.359,0,0,0,0,0,0,0,0,0,0,0,0,0,0,0,0,0,0,0,0,0,0,0,0,0,0,0,0,0,0,0,0,0,0,0,0,0,0,0,0,0.382,0.383,0.383,0.384,0.384,0.384,0.385,0.385,0.385,0.385,0.385,0.385,0.385,0.385,0.385,0.385,0.384,0,0,0,0,0,0,0,0,0,0.385,0.386,0.387,0.388,0.388,0.389,0.389,0.389,0.389,0.389,0.389,0.389,0.389,0.389,0.389,0.389,0.389,0.388,0.388,0.388,0.388,0.389,0.389,0.389,0.389,0.389,0.389,0.389,0.389,0.389,0.39,0.39,0.391,0.391,0.391,0.392,0.392,0.393,0,0,0,0,0,0,0,0,0,0,0,0,0,0,0,0,0.501,0.501,0.5,0.5,0.5,0.499,0.499,0.497,0.497,0.497,0.496,0.495,0.495,0.495,0.495,0.494,0.494,0.493,0.493,0.492,0.491,0.491,0.491,0.49,0.49,0.49,0.489,0.489,0.489,0.489,0.488,0.488,0.487,0.487,0.486,0.486,0.485,0.484,0.483,0.483,0.482,0.482,0.482,0.482,0.482,0.481,0.481,0.481,0.48,0.48,0.479,0.478,0.477,0.476,0.476,0.476,0.476,0.475,0.475,0.475,0.475,0.474,0.474,0.473,0.473,0.472,0.472,0.471,0.47,0.47,0.47,0.47,0.469,0.469,0.469,0.469,0.468,0.468,0.468,0.467,0.467,0.466,0.466,0.465,0.467,0.466,0.466,0.465,0.464,0.464,0.463,0.463,0.463,0.463,0.462,0.462,0.461,0.461,0.461,0.46,0.46,0,0,0,0,0,0,0,0,0,0,0,0,0,0,0,0,0,0,0,0,0,0,0,0,0,0,0,0,0,0,0,0,0,0,0,0,0,0,0,0,0,0,0,0,0,0,0,0,0,0,0,0,0,0,0,0,0,0,0
0,0,0,0,0,0,0,0,0,0,0,0,0,0,3.189,3.189,3.189,3.189,3.189,3.189,3.189,3.189,3.198,3.198,3.207,3.207,3.207,3.207,3.216,3.225,3.234,3.261,3.27,3.298,3.326,3.355,3.384,3.414,3.424,3.444,3.444,3.454,3.454,3.454,3.444,3.444,3.424,3.414,3.394,3.365,3.317,3.27,3.243,3.216,3.198,3.189,3.181,3.163,3.163,3.155,3.155,3.155,3.155,3.146,3.155,3.146,3.146,0,0,0,0,0,0,0,0,0,0,0,0,0,0,0,0,0,0,0,0,0,0.759,0.757,0.757,0.755,0.754,0.752,0.751,0.751,0.75,0.749,0.748,0.747,0.747,0.747,0.746,0.747,0.747,0.747,0.747,0.747,0.748,0.748,0.748,0.747,0.747,0.746,0.745,0.744,0.743,0.742,0.741,0.739,0.738,0.737,0.736,0.736,0.735,0.735,0.734,0.734,0.733,0.732,0.73,0.729,0.728,0.726,0.724,0.723,0.722,0.721,0.72,0.719,0.719,0.717,0.716,0.715,0.714,0.712,0.711,0.71,0.709,0.709,0.708,0.707,0.707,0.706,0.706,0.706,0.705,0.703,0.702,0.7,0.699,0.698,0.696,0.695,0.695,0.694,0.693,0.693,0.693,0.693,0.692,0.692,0.691,0.691,0.69,0.688,0.688,0.687,0.686,0.684,0.683,0.682,0.681,0.68,0.68,0.68,0.68,0.679,0.678,0.678,0.677,0.676,0.674,0.674,0.672,0.671,0.67,0.669,0.668,0.668,0.667,0.666,0.666,0.665,0.664,0.664,0.663,0.662,0.661,0.66,0.659,0.658,0.658,0.657,0.656,0.656,0.655,0.655,0.654,0.654,0.653,0.651,0.65,0.65,0.649,0.644,0.644,0.644,0.643,0.643,0.642,0.641,0.64,0.64,0.639,0.638,0.637,0.636,0.635,0.634,0.634,0.633,0.633,0.632,0.632,0.631,0.63,0.629,0.628,0.627,0.626,0.625,0.624,0.623,0.623,0.623,0.622,0.622,0.622,0.621,0.621,0.62,0.619,0.618,0.617,0.616,0.615,0.614,0.613,0.613,0.612,0.612,0.611,0.611,0.611,0.61,0.609,0.609,0.608,0.608,0.608,0.606,0.605,0.604,0.603,0.603,0.603,0.602,0.602,0.602,0.602,0.603,0.603,0,0,0,0,0,0,0,0,0,0,0,0,0,0,0,0,0,0,0,0,0,0,0,0,0,0.345,0.345,0.345,0.345,0.346,0.346,0.346,0.346,0.347,0.347,0,0.348,0.348,0.348,0.348,0.349,0.349,0.349,0.35,0.351,0.351,0.351,0.352,0.352,0.353,0.353,0,0.354,0.355,0.355,0.355,0.355,0.355,0.356,0.356,0.357,0.357,0.358,0.358,0.358,0.359,0.359,0.359,0,0,0,0,0,0,0,0,0,0,0,0,0,0,0,0,0,0,0,0,0,0,0,0,0,0,0,0,0,0,0,0,0,0,0,0,0,0,0,0.382,0.382,0.383,0.383,0.384,0.384,0.385,0.385,0.385,0.385,0.385,0.385,0.385,0.384,0.384,0.383,0.382,0.382,0,0,0,0.382,0.383,0,0.384,0.384,0.385,0.385,0.386,0.387,0.387,0.388,0.388,0.388,0.388,0.388,0.388,0.388,0.388,0.388,0.388,0.388,0.388,0.388,0.388,0.388,0.388,0.388,0.388,0.388,0.389,0.389,0.389,0.389,0.389,0.389,0.39,0.39,0.391,0.391,0.392,0.392,0.393,0.393,0,0,0,0,0,0,0,0,0,0,0,0,0,0,0,0,0,0.499,0.499,0.498,0.497,0.497,0.496,0.496,0.495,0.495,0.495,0.495,0.494,0.494,0.493,0.493,0.492,0.491,0.491,0.49,0.49,0.49,0.489,0.489,0.489,0.489,0.488,0.488,0.488,0.487,0.487,0.487,0.486,0.485,0.484,0.483,0.483,0.482,0.482,0.482,0.482,0.481,0.481,0.481,0.48,0.48,0.479,0.478,0.478,0.477,0.477,0.476,0.475,0.475,0.475,0.474,0.474,0.473,0.473,0.473,0.472,0.472,0.471,0.471,0.471,0.47,0.47,0.47,0.469,0.469,0.469,0.469,0.468,0.468,0.468,0.467,0.467,0.466,0.466,0.465,0.465,0.465,0.464,0.464,0.464,0.463,0.463,0.463,0.462,0.461,0.461,0.46,0.46,0.459,0.459,0.46,0.459,0.459,0.459,0.458,0.458,0,0,0,0,0,0,0,0,0,0,0,0,0,0,0,0,0,0,0,0,0,0,0,0,0,0,0,0,0,0,0,0,0,0,0,0,0,0,0,0,0,0,0,0,0,0,0,0,0,0,0,0,0,0,0,0,0,0,0
0,0,0,0,0,0,0,0,0,0,0,0,0,0,3.189,3.189,3.181,3.189,3.189,3.189,3.189,3.198,3.207,3.207,3.207,3.207,3.207,3.207,3.216,3.225,3.234,3.261,3.27,3.298,3.326,3.355,3.384,3.404,3.424,3.434,3.444,3.444,3.444,3.444,3.444,3.444,3.424,3.414,3.394,3.384,3.317,3.288,3.243,3.225,3.207,3.189,3.181,3.172,3.163,3.155,3.155,3.155,3.146,3.146,0,0,0,0,0,0,0,0,0,0,0,0,0,0,0,0,0,0,0,0,0.759,0.759,0.757,0.758,0.758,0.756,0.755,0.754,0.753,0.752,0.751,0.75,0.75,0.748,0.747,0.745,0.745,0.745,0.745,0.744,0.745,0.745,0.745,0.744,0.744,0.744,0.743,0.743,0.743,0.742,0.741,0.74,0.739,0.738,0.737,0.736,0.735,0.735,0.734,0.734,0.734,0.733,0.73,0.729,0.728,0.727,0.725,0.724,0.723,0.722,0.721,0.72,0.719,0.719,0.716,0.714,0.713,0.712,0.711,0.71,0.709,0.708,0.708,0.707,0.707,0.706,0.706,0.706,0.705,0.704,0.702,0.7,0.699,0.698,0.696,0.695,0.694,0.694,0.693,0.693,0.693,0.692,0.692,0.691,0.69,0.69,0.688,0.688,0.687,0.686,0.685,0.684,0.683,0.682,0.682,0.681,0.68,0.68,0.679,0.679,0.678,0.678,0.677,0.674,0.674,0.673,0.672,0.671,0.67,0.669,0.669,0.668,0.668,0.667,0.666,0.665,0.663,0.662,0.662,0.66,0.66,0.658,0.658,0.658,0.657,0.657,0.656,0.656,0.655,0.655,0.655,0.654,0.653,0.653,0.651,0.65,0.649,0.644,0.644,0.644,0.643,0.643,0.642,0.641,0.64,0.639,0.638,0.637,0.636,0.635,0.635,0.634,0.634,0.633,0.633,0.632,0.632,0.631,0.631,0.63,0.629,0.628,0.626,0.625,0.624,0.623,0.623,0.622,0.622,0.622,0.621,0.621,0.621,0.62,0.62,0.62,0.618,0.616,0.616,0.615,0.614,0.613,0.612,0.612,0.612,0.611,0.611,0.61,0.61,0.609,0.608,0.607,0.607,0.606,0.604,0.603,0.603,0.603,0.602,0.602,0.602,0.601,0.601,0.601,0.601,0.601,0.601,0.602,0,0,0,0,0,0,0,0,0,0,0,0,0,0,0,0,0,0,0,0,0,0,0,0,0,0,0.345,0.345,0.345,0.345,0.345,0.346,0.346,0.346,0.347,0.347,0,0.348,0.348,0.348,0.348,0.349,0.349,0.35,0.35,0.351,0.351,0.351,0.352,0.352,0.353,0,0.354,0.354,0.355,0.355,0.355,0.355,0.356,0.356,0.357,0.357,0.358,0.358,0.358,0.359,0.359,0.359,0.359,0.36,0,0.361,0,0,0,0,0,0,0,0,0,0,0,0,0,0,0,0,0,0,0,0,0,0,0,0,0,0,0,0,0,0,0,0,0,0,0.381,0,0.381,0.382,0.382,0.383,0.383,0.384,0.384,0.384,0.385,0.384,0.384,0.384,0.383,0.383,0.382,0.382,0.382,0.381,0.381,0.381,0.381,0.381,0.382,0.383,0.383,0,0.384,0.385,0.385,0.385,0,0.386,0.386,0.387,0.387,0.387,0.387,0.387,0.387,0.387,0.387,0.387,0.387,0.387,0.387,0.387,0.387,0.388,0.388,0.388,0.388,0.389,0.389,0.389,0.389,0.39,0.39,0.39,0.391,0.392,0.392,0.392,0.393,0.393,0,0,0,0,0,0,0,0,0,0,0,0,0,0,0,0,0.497,0.497,0.496,0.496,0.496,0.495,0.495,0.495,0.495,0.494,0.494,0.493,0.493,0.492,0.491,0.491,0.49,0.49,0.489,0.489,0.489,0.488,0.488,0.488,0.488,0.487,0.487,0.487,0.486,0.485,0.485,0.484,0.483,0.483,0.482,0.482,0.482,0.482,0.481,0.481,0.48,0.48,0.48,0.479,0.479,0.478,0.477,0.477,0.476,0.476,0.475,0.475,0.474,0.473,0.473,0.472,0.471,0.471,0.471,0.47,0.47,0.47,0.47,0.47,0.469,0.469,0.469,0.469,0.468,0.468,0.468,0.467,0.467,0.466,0.466,0.465,0.465,0.464,0.464,0.464,0.464,0.463,0.463,0.463,0.463,0.462,0.462,0.461,0.46,0.459,0.459,0.458,0.458,0.458,0.458,0.457,0.457,0.457,0.457,0.457,0.458,0,0,0,0,0,0,0,0,0,0,0,0,0,0,0,0,0,0,0,0,0,0,0,0,0,0,0,0,0,0,0,0,0,0,0,0,0,0,0,0,0,0,0,0,0,0,0,0,0,0,0,0,0,0,0,0,0,0,0
0,0,0,0,0,0,0,0,0,0,0,0,0,0,0,3.172,3.181,3.181,3.181,3.181,3.189,3.198,3.198,3.207,3.207,3.207,3.207,3.216,3.216,3.225,3.234,3.261,3.27,3.298,3.326,3.355,3.384,3.394,3.414,3.424,3.434,3.444,3.444,3.444,3.444,3.434,3.424,3.414,3.394,3.384,3.326,3.298,3.261,3.234,3.216,3.189,3.181,3.172,3.163,3.163,3.155,3.155,0,0,0,0,0,0,0,0,0,0,0,0,0,0,0,0,0,0,0,0.757,0.757,0.757,0.757,0.757,0.757,0.757,0.756,0.755,0.754,0.753,0.752,0.751,0.75,0.749,0.749,0.747,0.746,0.743,0.743,0.742,0.741,0.741,0.741,0.741,0.741,0.74,0.74,0.739,0.739,0.739,0.738,0.738,0.737,0.736,0.736,0.735,0.735,0.734,0.734,0.733,0.73,0.729,0.728,0.727,0.725,0.724,0.723,0.722,0.721,0.721,0.72,0.719,0.719,0.718,0.714,0.713,0.712,0.71,0.709,0.708,0.708,0.707,0.707,0.706,0.706,0.706,0.705,0.704,0.703,0.701,0.7,0.699,0.697,0.696,0.695,0.694,0.693,0.693,0.693,0.692,0.691,0.69,0.69,0.688,0.687,0.686,0.685,0.684,0.684,0.683,0.682,0.682,0.681,0.681,0.68,0.68,0.68,0.679,0.678,0.678,0.676,0.676,0.673,0.672,0.671,0.67,0.67,0.669,0.669,0.668,0.668,0.667,0.667,0.666,0.664,0.663,0.661,0.658,0.658,0.657,0.657,0.657,0.656,0.656,0.656,0.655,0.655,0.655,0.655,0.654,0.653,0.653,0.651,0.65,0.649,0.648,0.644,0.644,0.643,0.642,0.642,0.641,0.64,0.639,0.638,0.636,0.635,0.635,0.634,0.634,0.633,0.633,0.633,0.632,0.632,0.631,0.631,0.63,0.629,0.628,0.627,0.626,0.625,0.624,0.623,0.623,0.622,0.622,0.621,0.621,0.62,0.62,0.618,0.618,0.617,0.617,0.616,0.615,0.614,0.613,0.613,0.612,0.612,0.611,0.611,0.611,0.61,0.61,0.609,0.608,0.607,0.606,0.604,0.603,0.602,0.602,0.602,0.601,0.601,0.601,0.601,0.601,0.601,0.601,0.6,0.6,0.6,0.601,0,0,0,0,0,0,0,0,0,0,0,0,0,0,0,0,0,0,0,0,0,0,0,0,0,0,0,0,0.345,0.345,0.345,0.345,0.345,0.346,0.346,0.347,0.347,0.347,0,0.348,0.348,0.348,0.348,0.349,0.349,0.35,0.35,0.351,0.351,0.351,0.352,0.352,0.353,0,0.354,0.354,0.355,0.355,0.355,0.355,0.356,0.356,0.357,0.357,0.358,0.358,0.358,0.359,0.359,0.359,0.36,0.36,0.36,0,0.361,0.361,0.361,0.361,0.361,0.361,0.361,0.361,0.361,0,0,0,0.362,0.362,0,0,0,0.362,0.362,0.362,0,0.364,0,0,0,0,0,0,0,0,0,0,0,0,0,0,0.381,0,0.382,0.382,0.383,0.383,0.384,0.384,0.384,0.384,0.384,0.383,0.382,0.382,0.382,0.381,0.381,0.381,0.381,0.381,0.381,0.381,0.382,0.382,0.383,0.383,0,0.384,0.385,0.385,0.385,0.385,0.385,0.386,0.386,0.386,0.386,0.386,0.386,0.386,0.386,0.386,0.386,0.386,0.386,0.386,0.387,0.387,0.388,0.388,0.388,0.389,0.389,0.389,0.389,0.39,0.39,0.391,0.391,0.392,0.392,0.393,0.393,0.393,0.394,0,0,0,0,0,0,0,0,0,0,0,0,0,0,0,0.495,0.495,0.495,0.495,0.494,0.494,0.494,0.493,0.493,0.493,0.492,0.491,0.491,0.49,0.49,0.489,0.489,0.489,0.488,0.488,0.488,0.487,0.487,0.487,0.486,0.485,0.485,0.484,0.483,0.483,0.483,0.482,0.482,0.482,0.481,0.481,0.48,0.48,0.48,0.479,0.478,0.478,0.477,0.477,0.477,0.476,0.476,0.475,0.475,0.474,0.473,0.473,0.471,0.471,0.47,0.47,0.47,0.47,0.469,0.469,0.469,0.469,0.469,0.469,0.468,0.468,0.468,0.467,0.467,0.466,0.466,0.465,0.465,0.464,0.464,0.464,0.464,0.464,0.463,0.463,0.463,0.463,0.462,0.462,0.461,0.46,0.459,0.459,0.458,0.458,0.458,0.457,0.457,0.457,0.456,0.455,0.455,0.455,0.455,0.455,0,0,0,0,0,0,0,0,0,0,0,0,0,0,0,0,0,0,0,0,0,0,0,0,0,0,0,0,0,0,0,0,0,0,0,0,0,0,0,0,0,0,0,0,0,0,0,0,0,0,0,0,0,0,0,0,0,0,0,0
0,0,0,0,0,0,0,0,0,0,0,0,0,0,0,3.155,3.163,3.163,3.172,3.172,3.181,3.189,3.189,3.198,3.198,3.198,3.207,3.207,3.207,3.225,3.225,3.243,3.261,3.288,3.317,3.326,3.355,3.384,3.394,3.404,3.414,3.424,3.434,3.424,3.424,3.424,3.414,3.404,3.384,3.365,3.326,3.298,3.261,3.234,3.207,3.189,3.181,3.172,3.163,3.155,0,0,0,0,0,0,0,0,0,0,0,0,0,0,0,0,0,0,0.754,0.754,0.754,0.755,0.754,0.756,0.756,0.756,0.756,0.755,0.754,0.753,0.753,0.752,0.752,0.75,0.75,0.749,0.747,0.745,0.743,0.741,0.739,0.739,0.738,0.738,0.738,0.738,0.737,0.737,0.736,0.736,0.736,0.736,0.735,0.735,0.735,0.734,0.734,0.734,0.733,0.731,0.728,0.727,0.726,0.724,0.723,0.722,0.722,0.721,0.72,0.72,0.719,0.719,0.717,0.716,0.712,0.71,0.709,0.708,0.708,0.707,0.706,0.706,0.706,0.706,0.705,0.704,0.704,0.703,0.702,0.7,0.698,0.696,0.695,0.695,0.694,0.693,0.693,0.692,0.691,0.69,0.69,0.688,0.687,0.685,0.684,0.683,0.682,0.682,0.681,0.681,0.681,0.68,0.68,0.68,0.68,0.679,0.678,0.678,0.677,0.676,0.674,0.672,0.671,0.67,0.669,0.669,0.668,0.668,0.668,0.668,0.667,0.667,0.666,0.664,0.663,0.662,0.658,0.657,0.657,0.656,0.656,0.655,0.655,0.655,0.654,0.654,0.654,0.653,0.653,0.652,0.651,0.65,0.649,0.648,0.647,0.644,0.643,0.642,0.642,0.641,0.64,0.639,0.638,0.636,0.635,0.634,0.634,0.633,0.633,0.633,0.632,0.632,0.632,0.631,0.631,0.63,0.629,0.628,0.628,0.627,0.625,0.624,0.624,0.623,0.623,0.622,0.622,0.621,0.621,0.62,0.619,0.617,0.617,0.616,0.615,0.615,0.614,0.614,0.613,0.612,0.612,0.612,0.611,0.611,0.611,0.61,0.609,0.609,0.608,0.607,0.606,0.605,0.603,0.602,0.602,0.601,0.601,0.601,0.6,0.6,0.6,0.6,0.599,0.599,0.599,0.599,0.599,0.599,0.599,0.599,0.6,0,0,0,0,0,0,0,0,0,0,0,0,0,0,0,0,0,0,0,0,0,0,0,0,0,0,0.345,0.345,0.345,0.345,0.345,0.345,0.346,0.346,0.346,0.347,0.347,0,0.348,0.348,0.348,0.348,0.349,0.349,0.35,0.35,0.351,0.351,0.351,0.352,0.352,0.353,0.353,0,0.354,0.355,0.355,0.355,0.355,0.356,0.356,0.357,0.357,0.358,0.358,0.359,0.359,0.359,0.359,0.36,0.36,0.36,0,0.361,0.361,0.361,0.361,0.36,0,0.36,0,0,0.361,0.361,0.361,0,0.362,0.362,0.362,0.362,0.362,0.362,0.362,0.363,0.363,0,0,0,0,0,0,0,0,0,0,0,0,0.377,0.379,0.381,0.381,0.381,0,0.382,0.382,0.383,0.383,0.383,0.383,0.383,0.382,0.381,0.381,0.381,0.381,0.381,0.381,0.381,0.381,0.381,0.381,0.381,0.381,0.382,0.382,0.383,0,0.384,0.384,0.385,0.385,0.385,0.385,0.385,0.385,0.385,0.385,0.385,0.385,0.385,0,0.386,0.386,0.386,0.386,0.386,0.387,0.387,0.388,0.388,0.389,0.389,0.389,0.389,0.39,0.39,0.391,0.391,0.392,0.393,0.393,0.393,0.393,0.394,0,0,0,0,0,0,0,0,0,0,0,0,0,0,0,0.494,0.493,0.493,0.493,0.493,0.492,0.491,0.491,0.491,0.491,0.49,0.49,0.489,0.489,0.489,0.488,0.488,0.488,0.487,0.487,0.486,0.486,0.485,0.484,0.484,0.483,0.483,0.482,0.482,0.482,0.482,0.481,0.481,0.48,0.48,0.479,0.478,0.478,0.477,0.477,0.477,0.476,0.476,0.476,0.476,0.475,0.474,0.473,0.473,0.472,0.471,0.47,0.47,0.47,0.469,0.469,0.469,0.469,0.468,0.468,0.468,0.468,0.467,0.467,0.467,0.466,0.466,0.465,0.465,0.465,0.464,0.464,0.464,0.464,0.463,0.463,0.463,0.463,0.463,0.462,0.461,0.461,0.46,0.46,0.459,0.458,0.458,0.458,0.457,0.457,0.457,0.455,0.455,0.454,0.454,0.453,0.453,0.453,0.453,0.453,0,0,0,0,0,0,0,0,0,0,0,0,0,0,0,0,0,0,0,0,0,0,0,0,0,0,0,0,0,0,0,0,0,0,0,0,0,0,0,0,0,0,0,0,0,0,0,0,0,0,0,0,0,0,0,0,0,0,0,0
0,0,0,0,0,0,0,0,0,0,0,0,0,0,0,3.129,3.138,3.146,3.155,3.155,3.163,3.181,3.181,3.189,3.189,3.189,3.198,3.198,3.207,3.216,3.225,3.234,3.261,3.27,3.288,3.317,3.326,3.355,3.365,3.384,3.394,3.404,3.404,3.404,3.414,3.404,3.394,3.384,3.365,3.326,3.317,3.288,3.261,0,0,0,0,0,0,0,0,0,0,0,0,0,0,0,0,0,0,0,0.755,0.754,0.754,0.753,0.753,0.753,0.753,0.753,0.753,0.754,0.754,0.754,0.754,0.754,0.754,0.753,0.753,0.752,0.752,0.751,0.75,0.749,0.748,0.746,0.744,0.741,0.739,0.738,0.737,0.736,0.736,0.736,0.735,0.735,0.735,0.735,0.734,0.734,0.734,0.734,0.734,0.733,0.732,0.731,0.73,0.729,0.726,0.724,0.724,0.723,0.722,0.721,0.721,0.72,0.719,0.719,0.718,0.717,0.715,0.712,0.71,0.709,0.708,0.707,0.707,0.706,0.706,0.706,0.705,0.704,0.703,0.702,0.701,0.7,0.698,0.697,0.696,0.695,0.694,0.694,0.693,0.693,0.692,0.691,0.69,0.689,0.688,0.686,0.684,0.683,0.682,0.681,0.681,0.68,0.68,0.68,0.68,0.679,0.679,0.679,0.678,0.678,0.677,0.676,0.674,0.673,0.671,0.67,0.669,0.669,0.668,0.668,0.668,0.667,0.667,0.667,0.666,0.665,0.664,0.663,0.662,0.66,0.657,0.657,0.656,0.655,0.655,0.654,0.654,0.653,0.653,0.652,0.651,0.65,0.65,0.649,0.648,0.647,0.647,0.646,0.643,0.642,0.642,0.641,0.64,0.639,0.638,0.636,0.635,0.634,0.634,0.633,0.633,0.632,0.632,0.632,0.631,0.63,0.63,0.629,0.629,0.628,0.627,0.626,0.625,0.624,0.624,0.623,0.622,0.622,0.622,0.622,0.621,0.621,0.62,0.619,0.617,0.616,0.615,0.614,0.614,0.613,0.613,0.612,0.612,0.612,0.611,0.611,0.611,0.61,0.609,0.609,0.608,0.608,0.607,0.605,0.603,0.603,0.602,0.602,0.601,0.601,0.6,0.599,0.599,0.598,0.598,0.598,0.598,0.598,0.598,0.598,0.598,0.598,0.598,0.598,0.598,0.598,0,0,0,0,0,0,0,0,0,0,0,0,0,0,0,0,0,0,0,0,0,0,0,0,0,0,0.344,0.345,0.345,0.345,0.345,0.345,0.345,0.346,0.346,0.346,0.347,0.347,0,0.348,0.348,0.348,0.348,0.349,0.349,0.349,0.35,0.35,0.351,0.351,0.351,0.352,0.352,0.353,0.353,0,0.354,0.355,0.355,0.355,0.355,0.356,0.356,0.357,0.358,0.358,0.358,0.359,0.359,0.359,0.359,0.36,0.36,0.36,0,0.361,0.361,0.36,0.36,0.36,0.36,0.36,0.36,0.36,0,0.361,0.361,0,0.362,0.362,0.362,0.362,0.362,0.362,0,0.363,0.363,0.364,0.364,0.365,0.365,0,0,0,0,0,0.373,0,0.376,0.377,0.378,0.379,0.381,0.381,0.381,0.381,0.381,0,0.381,0.381,0.381,0.381,0.381,0.381,0.381,0.38,0.38,0.38,0.38,0.38,0.381,0.381,0.381,0.381,0.381,0.382,0.382,0.383,0,0.384,0.384,0,0.385,0.385,0.385,0.385,0.385,0.385,0.385,0.385,0.385,0.385,0.385,0.385,0,0.386,0.386,0,0.387,0.388,0.388,0.389,0.389,0.389,0.389,0.39,0.39,0.391,0.392,0.393,0.393,0.393,0.394,0.394,0.394,0.395,0,0.396,0,0,0,0,0,0,0,0,0,0,0,0,0.491,0.491,0.491,0.491,0.49,0.49,0.489,0.489,0.489,0.489,0.489,0.489,0.488,0.488,0.488,0.487,0.487,0.486,0.485,0.485,0.484,0.483,0.483,0.482,0.482,0.482,0.482,0.481,0.481,0.48,0.479,0.479,0.478,0.478,0.477,0.477,0.477,0.476,0.476,0.476,0.476,0.475,0.475,0.475,0.473,0.473,0.472,0.471,0.471,0.47,0.47,0.469,0.469,0.469,0.468,0.468,0.467,0.467,0.467,0.466,0.466,0.465,0.465,0.465,0.465,0.465,0.464,0.464,0.464,0.464,0.464,0.463,0.463,0.463,0.463,0.463,0.462,0.461,0.461,0.46,0.46,0.459,0.459,0.458,0.458,0.457,0.457,0.456,0.455,0.455,0.453,0.453,0.453,0.453,0.452,0.452,0.452,0.452,0.452,0.452,0,0,0,0,0,0,0,0,0,0,0,0,0,0,0,0,0,0,0,0,0,0,0,0,0,0,0,0,0,0,0,0,0,0,0,0,0,0,0,0,0,0,0,0,0,0,0,0,0,0,0,0,0,0,0,0,0,0,0,0
