0.0,0.0,0.0,0.0,0.0,0.0,0.0,0.0,0.0,0.0,0.0,0.0,0.0,0.0,0.0,0.0,0.0,0.0,0.0,0.0,0.0,0.0,0.0,0.0,0.0,0.54,0.539,0.539,0.539,0.538,0.538,0.537,0.535,0.534,0.532,0.531,0.529,0.528,0.526,0.525,0.524,0.524,0.523,0.523,0.522,0.521,0.52,0.519,0.519,0.518,0.518,0.517,0.517,0.517,0.517,0.516,0.516,0.516,0.516,0.516,0.516,0.515,0.515,0.514,0.514,0.514,0.513,0.513,0.511,0.51,0.509,0.509,0.509,0.508,0.506,0.505,0.505,0.505,0.504,0.504,0.504,0.503,0.503,0.503,0.502,0.502,0.502,0.502,0.502,0.501,0.501,0.5,0.5,0.499,0.499,0.497,0.497,0.497,0.496,0.496,0.495,0.495,0.495,0.495,0.494,0.494,0.493,0.492,0.491,0.491,0.49,0.49,0.489,0.489,0.489,0.489,0.489,0.489,0.488,0.488,0.488,0.487,0.487,0.486,0.485,0.485,0.484,0.483,0.482,0.482,0.482,0.482,0.481,0.481,0.481,0.481,0.481,0.481,0.48,0.48,0.479,0.478,0.478,0.477,0.476,0.476,0.476,0.476,0.476,0.475,0.475,0.475,0.474,0.474,0.474,0.474,0.473,0.473,0.472,0.471,0.47,0.47,0.47,0.469,0.469,0.469,0.469,0.469,0.469,0.469,0.0,0.0,0.0,0.0,0.0,0.0,0.0,0.0,0.0,0.0,0.0,0.0,0.0,0.0,0.325,0.3245,0.324,0.324,0.323,0.323,0.323,0.323,0.323,0.323,0.322,0.321,0.321,0.32,0.32,0.318,0.318,0.318,0.317,0.317,0.316,0.316,0.316,0.315,0.315,0.315,0.315,0.315,0.315,0.315,0.316,0.316,0.3165,0.317,0.317,0.317,0.318,0.318,0.318,0.318,0.318,0.318,0.318,0.319,0.319,0.319,0.319,0.32,0.32,0.32,0.32,0.32,0.32,0.321,0.321,0.321,0.321,0.3215,0.322,0.322,0.322,0.322,0.323,0.323,0.323,0.324,0.324,0.324,0.324,0.325,0.325,0.325,0.325,0.326,0.326,0.326,0.326,0.326,0.326,0.326,0.326,0.3265,0.327,0.327,0.327,0.327,0.328,0.328,0.329,0.329,0.329,0.329,0.33,0.33,0.33,0.331,0.331,0.3315,0.332,0.332,0.332,0.332,0.332,0.333,0.333,0.333,0.334,0.334,0.334,0.334,0.335,0.335,0.335,0.335,0.336,0.336,0.336,0.336,0.337,0.337,0.337,0.3375,0.338,0.338,0.338,0.338,0.339,0.339,0.339,0.339,0.34,0.34,0.341,0.341,0.341,0.342,0.342,0.342,0.3425,0.343,0.343,0.344,0.344,0.344,0.345,0.345,0.345,0.346,0.347,0.3474999999999999,0.348,0.348,0.349,0.35,0.351,0.352,0.353,0.35324999999999995,0.354,0.355,0.357,0.358,0.359,0.35924999999999996,0.36,0.361,0.362,0.362,0.363,0.363,0.365,0.365,0.3655,0.366,0.0,0.3715,0.373,0.376,0.379,0.382,0.0,0.0,0.3905,0.391,0.394,0.395,0.396,0.397,0.397,0.397,0.397,0.3975000000000001,0.398,0.398,0.398,0.398,0.398,0.398,0.397,0.397,0.397,0.397,0.397,0.397,0.397,0.396,0.396,0.395,0.394,0.394,0.394,0.394,0.394,0.393,0.393,0.393,0.392,0.392,0.392,0.391,0.391,0.39,0.39,0.389,0.389,0.389,0.389,0.389,0.389,0.388,0.388,0.388,0.387,0.386,0.386,0.386,0.386,0.385,0.385,0.385,0.385,0.385,0.385,0.384,0.384,0.384,0.383,0.382,0.382,0.381,0.381,0.381,0.381,0.381,0.381,0.38,0.38,0.38,0.38,0.379,0.379,0.379,0.378,0.378,0.378,0.377,0.377,0.377,0.377,0.377,0.377,0.377,0.377,0.376,0.376,0.376,0.376,0.376,0.376,0.375,0.374,0.374,0.374,0.373,0.373,0.373,0.373,0.373,0.373,0.373,0.373,0.372,0.372,0.372,0.372,0.371,0.37,0.37,0.37,0.369,0.369,0.369,0.369,0.368,0.368,0.368,0.368,0.368,0.368,0.367,0.367,0.366,0.366,0.366,0.366,0.366,0.365,0.365,0.365,0.365,0.365,0.364,0.364,0.364,0.364,0.363,0.363,0.362,0.362,0.362,0.362,0.362,0.362,0.362,0.362,0.362,0.361,0.361,0.36,0.36,0.359,0.359,0.359,0.359,0.359,0.358,0.358,0.358,0.35737499999999994,0.357,0.357,0.356,0.356,0.355,0.355,0.355,0.355,0.355,0.355,0.354,0.354,0.354,0.354,0.353,0.353,0.353,0.352,0.352,0.352,0.35274999999999995,0.353,0.352,0.352,0.353,0.353,0.0,0.0,0.0,0.0,0.0,0.0,0.0,0.0
0.0,0.0,0.0,0.0,0.0,0.0,0.0,0.0,0.0,0.0,0.0,0.0,0.0,0.0,0.0,0.0,0.0,0.0,0.0,0.0,0.0,0.0,0.0,0.0,0.0,0.539,0.539,0.536,0.534,0.533,0.532,0.531,0.529,0.528,0.531,0.524,0.524,0.523,0.523,0.522,0.521,0.519,0.518,0.517,0.517,0.516,0.516,0.516,0.516,0.516,0.515,0.515,0.515,0.514,0.514,0.514,0.513,0.512,0.512,0.511,0.511,0.511,0.51,0.51,0.51,0.511,0.511,0.51,0.51,0.509,0.509,0.508,0.506,0.505,0.504,0.503,0.503,0.503,0.502,0.502,0.502,0.502,0.502,0.502,0.502,0.501,0.501,0.501,0.5,0.499,0.499,0.498,0.497,0.497,0.496,0.496,0.496,0.495,0.495,0.495,0.495,0.494,0.493,0.493,0.492,0.491,0.491,0.49,0.489,0.489,0.489,0.489,0.488,0.488,0.488,0.488,0.488,0.487,0.487,0.487,0.486,0.485,0.485,0.484,0.483,0.483,0.482,0.482,0.482,0.481,0.481,0.48,0.48,0.48,0.479,0.479,0.479,0.479,0.478,0.478,0.477,0.477,0.476,0.476,0.476,0.475,0.475,0.475,0.474,0.474,0.473,0.473,0.472,0.472,0.472,0.471,0.471,0.47,0.47,0.47,0.469,0.469,0.469,0.468,0.467,0.467,0.468,0.468,0.468,0.468,0.0,0.0,0.0,0.0,0.0,0.0,0.0,0.0,0.0,0.0,0.0,0.0,0.0,0.0,0.325,0.324,0.324,0.324,0.324,0.323,0.323,0.323,0.323,0.322,0.322,0.321,0.321,0.32,0.319,0.318,0.318,0.318,0.317,0.317,0.316,0.316,0.316,0.315,0.315,0.315,0.315,0.315,0.315,0.316,0.316,0.316,0.316625,0.317,0.317,0.317,0.318,0.318,0.318,0.318,0.318,0.318,0.319,0.319,0.319,0.319,0.32,0.32,0.32,0.32,0.32,0.32,0.321,0.321,0.321,0.321,0.321,0.3215,0.322,0.322,0.322,0.323,0.323,0.323,0.324,0.324,0.324,0.324,0.325,0.325,0.325,0.326,0.326,0.326,0.326,0.326,0.326,0.326,0.326,0.326,0.3265,0.327,0.327,0.327,0.327,0.328,0.328,0.329,0.329,0.329,0.329,0.33,0.33,0.331,0.331,0.331,0.3315,0.332,0.332,0.332,0.332,0.333,0.333,0.333,0.334,0.334,0.334,0.335,0.335,0.335,0.335,0.335,0.335,0.336,0.336,0.336,0.337,0.337,0.337,0.3375,0.338,0.338,0.338,0.338,0.339,0.339,0.339,0.34,0.34,0.34,0.341,0.341,0.341,0.342,0.342,0.342,0.342,0.3425,0.343,0.343,0.344,0.344,0.345,0.345,0.345,0.345,0.346,0.347,0.3474999999999999,0.348,0.348,0.349,0.35,0.351,0.352,0.353,0.35350000000000004,0.354,0.355,0.357,0.358,0.359,0.35949999999999993,0.36,0.361,0.362,0.363,0.364,0.364,0.0,0.0,0.0,0.0,0.0,0.0,0.373,0.375,0.0,0.3825,0.388,0.389,0.39,0.391,0.3925,0.394,0.395,0.396,0.397,0.397,0.397,0.397,0.397,0.39725000000000005,0.397,0.397,0.397,0.397,0.397,0.397,0.397,0.396,0.396,0.396,0.396,0.395,0.395,0.394,0.394,0.394,0.394,0.393,0.393,0.393,0.392,0.392,0.392,0.391,0.391,0.39,0.39,0.39,0.389,0.389,0.389,0.389,0.389,0.388,0.388,0.387,0.387,0.386,0.386,0.386,0.385,0.385,0.385,0.385,0.385,0.385,0.385,0.384,0.384,0.383,0.383,0.382,0.382,0.381,0.381,0.381,0.381,0.381,0.38,0.38,0.38,0.379,0.379,0.378,0.378,0.378,0.378,0.377,0.377,0.377,0.377,0.377,0.377,0.377,0.377,0.376,0.376,0.376,0.376,0.375,0.375,0.375,0.375,0.374,0.374,0.374,0.373,0.373,0.373,0.373,0.373,0.373,0.372,0.372,0.372,0.372,0.371,0.371,0.371,0.371,0.371,0.37,0.37,0.369,0.369,0.369,0.369,0.368,0.368,0.368,0.367,0.367,0.367,0.367,0.366,0.366,0.366,0.366,0.366,0.365,0.365,0.365,0.365,0.364,0.364,0.364,0.364,0.364,0.363,0.363,0.363,0.362,0.362,0.362,0.362,0.362,0.362,0.361,0.361,0.361,0.361,0.361,0.36,0.359,0.359,0.359,0.359,0.359,0.359,0.358,0.358,0.358,0.358,0.358,0.357,0.356,0.355,0.355,0.355,0.355,0.355,0.355,0.355,0.354,0.354,0.354,0.353,0.353,0.353,0.352,0.352,0.352,0.352,0.352,0.352,0.352,0.352,0.352,0.352,0.352,0.352,0.352,0.0,0.0,0.0,0.0,0.0,0.0,0.0,0.0
0.0,0.0,0.0,0.0,0.0,0.0,0.0,0.0,0.0,0.0,0.0,0.0,0.0,0.0,0.0,0.0,0.0,0.0,0.0,0.0,0.0,0.0,0.0,0.0,0.0,0.0,0.0,0.0,0.532,0.531,0.529,0.5275000000000001,0.5258750000000001,0.524,0.524,0.523,0.522,0.522,0.519,0.518,0.517,0.517,0.516,0.516,0.516,0.515,0.515,0.514,0.514,0.514,0.513,0.513,0.512,0.511,0.511,0.511,0.51,0.51,0.51,0.509,0.509,0.509,0.509,0.509,0.509,0.509,0.508,0.508,0.507,0.504,0.504,0.503,0.502,0.502,0.501,0.501,0.501,0.5,0.5,0.5,0.5,0.499,0.499,0.498,0.497,0.497,0.496,0.496,0.496,0.495,0.495,0.495,0.495,0.494,0.495,0.495,0.495,0.495,0.494,0.494,0.492,0.492,0.491,0.49,0.49,0.49,0.489,0.489,0.489,0.488,0.488,0.488,0.487,0.487,0.487,0.486,0.486,0.486,0.485,0.485,0.484,0.483,0.483,0.483,0.482,0.482,0.481,0.481,0.48,0.479,0.478,0.478,0.478,0.478,0.477,0.477,0.477,0.477,0.477,0.476,0.476,0.476,0.475,0.475,0.475,0.474,0.473,0.473,0.472,0.472,0.471,0.471,0.471,0.47,0.47,0.47,0.47,0.469,0.469,0.469,0.468,0.467,0.467,0.466,0.465,0.466,0.466,0.466,0.466,0.4665,0.0,0.0,0.0,0.0,0.0,0.0,0.0,0.0,0.0,0.0,0.0,0.0,0.0,0.325,0.325,0.324,0.324,0.323,0.323,0.323,0.323,0.323,0.322,0.322,0.321,0.321,0.321,0.319,0.319,0.318,0.318,0.318,0.317,0.317,0.317,0.316,0.316,0.316,0.316,0.316,0.316,0.316,0.316,0.316,0.316,0.3165,0.317,0.317,0.317,0.318,0.318,0.318,0.318,0.318,0.319,0.319,0.319,0.319,0.319,0.32,0.32,0.32,0.32,0.32,0.32,0.32,0.321,0.321,0.321,0.321,0.321,0.321625,0.322,0.322,0.323,0.323,0.323,0.323,0.324,0.324,0.324,0.325,0.325,0.325,0.326,0.326,0.326,0.326,0.326,0.326,0.326,0.326,0.326,0.3265,0.327,0.327,0.327,0.328,0.328,0.328,0.329,0.329,0.329,0.33,0.33,0.33,0.331,0.331,0.3315,0.332,0.332,0.332,0.332,0.333,0.333,0.333,0.334,0.334,0.335,0.335,0.335,0.335,0.335,0.335,0.335,0.336,0.336,0.336,0.337,0.337,0.337,0.3375,0.338,0.338,0.338,0.338,0.339,0.339,0.339,0.339,0.34,0.341,0.341,0.341,0.341,0.342,0.342,0.342,0.342,0.3425,0.343,0.343,0.344,0.344,0.345,0.345,0.345,0.345,0.346,0.346,0.347,0.3474999999999999,0.348,0.348,0.349,0.35,0.351,0.352,0.353,0.35350000000000004,0.354,0.355,0.356,0.358,0.359,0.3595,0.36,0.362,0.362,0.363,0.364,0.3645,0.365,0.0,0.0,0.0,0.0,0.0,0.0,0.0,0.0,0.0,0.386,0.388,0.39,0.0,0.0,0.39325,0.394,0.396,0.397,0.397,0.397,0.397,0.397,0.397,0.397,0.397,0.397,0.396,0.396,0.396,0.395,0.395,0.395,0.395,0.395,0.394,0.394,0.394,0.394,0.393,0.393,0.393,0.392,0.392,0.391,0.391,0.391,0.39,0.39,0.389,0.389,0.389,0.389,0.389,0.389,0.388,0.388,0.388,0.387,0.386,0.386,0.385,0.385,0.385,0.385,0.385,0.385,0.384,0.384,0.384,0.384,0.383,0.383,0.383,0.382,0.381,0.381,0.381,0.381,0.381,0.38,0.38,0.38,0.379,0.379,0.378,0.378,0.377,0.377,0.377,0.377,0.377,0.377,0.377,0.377,0.376,0.376,0.376,0.376,0.376,0.375,0.375,0.375,0.374,0.374,0.374,0.373,0.373,0.373,0.373,0.373,0.373,0.373,0.372,0.372,0.372,0.371,0.371,0.371,0.371,0.37,0.37,0.37,0.37,0.369,0.369,0.369,0.369,0.369,0.368,0.368,0.368,0.367,0.367,0.366,0.366,0.366,0.366,0.366,0.366,0.365,0.365,0.365,0.365,0.364,0.364,0.363,0.363,0.363,0.363,0.362,0.362,0.362,0.362,0.362,0.362,0.362,0.362,0.361,0.361,0.361,0.36,0.36,0.36,0.36,0.359,0.359,0.359,0.359,0.359,0.358,0.358,0.358,0.358,0.358,0.357,0.357,0.357,0.356,0.355,0.355,0.355,0.355,0.355,0.355,0.354,0.354,0.354,0.354,0.353,0.352,0.352,0.352,0.352,0.352,0.352,0.351,0.351,0.351,0.351,0.351,0.351,0.351,0.351,0.351,0.351,0.351,0.0,0.0,0.0,0.0,0.0,0.0,0.0,0.0
0.0,0.0,0.0,0.0,0.0,0.0,0.0,0.0,0.0,0.0,0.0,0.0,0.0,0.0,0.0,0.0,0.0,0.0,0.0,0.0,0.0,0.0,0.0,0.0,0.0,0.0,0.0,0.0,0.528,0.526,0.525,0.524,0.523,0.522,0.522,0.52,0.518,0.517,0.517,0.516,0.516,0.516,0.515,0.515,0.514,0.514,0.513,0.512,0.512,0.511,0.51,0.51,0.51,0.51,0.509,0.509,0.509,0.509,0.509,0.509,0.508,0.508,0.508,0.508,0.507,0.507,0.506,0.506,0.504,0.503,0.502,0.502,0.501,0.501,0.5,0.499,0.499,0.498,0.498,0.497,0.497,0.497,0.496,0.496,0.496,0.495,0.495,0.495,0.495,0.494,0.494,0.493,0.493,0.492,0.491,0.491,0.491,0.49,0.489,0.489,0.489,0.489,0.488,0.488,0.488,0.488,0.487,0.487,0.487,0.485,0.485,0.485,0.484,0.484,0.483,0.485,0.484,0.484,0.484,0.483,0.483,0.482,0.482,0.482,0.481,0.481,0.479,0.479,0.478,0.477,0.477,0.477,0.477,0.476,0.476,0.476,0.476,0.476,0.475,0.475,0.475,0.475,0.474,0.473,0.472,0.472,0.471,0.471,0.471,0.47,0.47,0.47,0.47,0.469,0.469,0.469,0.469,0.469,0.468,0.467,0.466,0.466,0.465,0.464,0.464,0.465,0.464,0.465,0.465,0.465,0.0,0.0,0.0,0.0,0.0,0.0,0.0,0.0,0.0,0.0,0.0,0.0,0.0,0.325,0.324,0.324,0.323,0.323,0.323,0.323,0.323,0.322,0.322,0.322,0.321,0.321,0.32,0.319,0.319,0.318,0.318,0.318,0.317,0.317,0.317,0.316,0.316,0.316,0.316,0.316,0.316,0.316,0.316,0.316,0.3165,0.317,0.317,0.317,0.318,0.318,0.318,0.318,0.318,0.319,0.319,0.319,0.319,0.32,0.32,0.32,0.32,0.32,0.32,0.32,0.32,0.321,0.321,0.321,0.321,0.321,0.3215,0.322,0.322,0.322,0.323,0.323,0.323,0.323,0.324,0.324,0.324,0.325,0.325,0.326,0.326,0.326,0.326,0.326,0.326,0.326,0.326,0.3265,0.327,0.327,0.327,0.328,0.328,0.328,0.329,0.329,0.329,0.329,0.33,0.33,0.33,0.331,0.331,0.3315,0.332,0.332,0.332,0.332,0.333,0.333,0.334,0.334,0.334,0.335,0.335,0.335,0.335,0.335,0.335,0.336,0.336,0.336,0.3365,0.337,0.337,0.3375,0.338,0.338,0.338,0.338,0.339,0.339,0.339,0.339,0.34,0.34,0.341,0.341,0.342,0.342,0.342,0.342,0.3425,0.343,0.343,0.343,0.344,0.344,0.345,0.345,0.345,0.346,0.346,0.346,0.347,0.34724999999999995,0.348,0.348,0.348,0.349,0.35,0.351,0.352,0.352,0.35324999999999995,0.354,0.355,0.355,0.357,0.358,0.359,0.360125,0.361,0.362,0.363,0.364,0.3645,0.365,0.366,0.369,0.0,0.0,0.0,0.374,0.0,0.0,0.0,0.385,0.386,0.389,0.39,0.0,0.0,0.394,0.394,0.396,0.396,0.397,0.397,0.397,0.397,0.396,0.396,0.395,0.395,0.394,0.394,0.394,0.394,0.394,0.394,0.394,0.394,0.394,0.393,0.393,0.393,0.392,0.392,0.392,0.392,0.391,0.391,0.39,0.39,0.389,0.389,0.389,0.389,0.389,0.388,0.388,0.388,0.386,0.386,0.386,0.386,0.385,0.385,0.385,0.385,0.385,0.384,0.384,0.384,0.383,0.383,0.382,0.382,0.382,0.381,0.381,0.381,0.381,0.381,0.38,0.38,0.38,0.379,0.379,0.378,0.378,0.378,0.377,0.377,0.377,0.377,0.377,0.377,0.376,0.376,0.376,0.376,0.376,0.376,0.375,0.375,0.375,0.374,0.374,0.374,0.373,0.373,0.373,0.373,0.373,0.372,0.372,0.372,0.371,0.371,0.371,0.371,0.37,0.37,0.37,0.37,0.37,0.369,0.369,0.369,0.369,0.369,0.368,0.368,0.367,0.367,0.366,0.366,0.366,0.366,0.366,0.366,0.366,0.365,0.365,0.365,0.365,0.364,0.364,0.364,0.363,0.363,0.362,0.362,0.362,0.362,0.362,0.362,0.362,0.362,0.362,0.362,0.361,0.361,0.36,0.36,0.359,0.359,0.359,0.359,0.359,0.359,0.358,0.358,0.358,0.358,0.358,0.358,0.357,0.357,0.357,0.356,0.356,0.356,0.355,0.355,0.355,0.354,0.354,0.354,0.354,0.354,0.353,0.353,0.353,0.352,0.352,0.352,0.351,0.351,0.351,0.351,0.351,0.351,0.351,0.351,0.351,0.35,0.351,0.35,0.35,0.35,0.0,0.0,0.0,0.0,0.0,0.0,0.0,0.0,0.0,0.0
0.0,0.0,0.0,0.0,0.0,0.0,0.0,0.0,0.0,0.0,0.0,0.0,0.0,0.0,0.0,0.0,0.0,0.0,0.0,0.0,0.0,0.0,0.0,0.0,0.0,0.0,0.0,0.0,0.524,0.523,0.523,0.522,0.52,0.518,0.517,0.517,0.516,0.516,0.516,0.515,0.515,0.514,0.513,0.513,0.512,0.511,0.51,0.51,0.51,0.509,0.509,0.509,0.509,0.509,0.509,0.508,0.508,0.508,0.508,0.507,0.507,0.507,0.506,0.505,0.505,0.504,0.504,0.503,0.502,0.502,0.501,0.5,0.499,0.498,0.496,0.496,0.496,0.496,0.496,0.496,0.496,0.495,0.495,0.495,0.495,0.494,0.494,0.494,0.493,0.493,0.492,0.491,0.491,0.49,0.49,0.489,0.489,0.489,0.488,0.488,0.488,0.488,0.487,0.487,0.487,0.486,0.486,0.485,0.484,0.484,0.483,0.483,0.483,0.483,0.483,0.482,0.482,0.482,0.482,0.482,0.482,0.482,0.481,0.48,0.477,0.476,0.476,0.476,0.475,0.475,0.475,0.476,0.476,0.476,0.475,0.475,0.475,0.475,0.474,0.474,0.473,0.472,0.471,0.471,0.471,0.47,0.47,0.47,0.47,0.469,0.469,0.469,0.469,0.469,0.468,0.468,0.468,0.466,0.465,0.465,0.464,0.464,0.464,0.464,0.464,0.464,0.464,0.464,0.464,0.0,0.0,0.0,0.0,0.0,0.0,0.0,0.0,0.0,0.0,0.0,0.0,0.0,0.326,0.325,0.324,0.324,0.323,0.323,0.323,0.323,0.323,0.322,0.322,0.321,0.321,0.321,0.32,0.319,0.319,0.318,0.318,0.318,0.318,0.317,0.317,0.317,0.316,0.316,0.316,0.316,0.316,0.316,0.316,0.3165,0.317,0.317,0.317,0.318,0.318,0.318,0.318,0.318,0.319,0.319,0.319,0.32,0.32,0.32,0.32,0.32,0.32,0.32,0.32,0.32,0.32,0.321,0.321,0.321,0.321,0.321,0.321625,0.322,0.322,0.323,0.323,0.323,0.323,0.324,0.324,0.324,0.325,0.325,0.326,0.326,0.326,0.326,0.326,0.326,0.326,0.3265,0.327,0.327,0.327,0.327,0.328,0.328,0.328,0.329,0.329,0.329,0.329,0.33,0.33,0.33,0.331,0.3315,0.332,0.332,0.332,0.332,0.333,0.333,0.333,0.334,0.334,0.335,0.335,0.335,0.335,0.335,0.336,0.336,0.336,0.336,0.3365,0.337,0.337,0.337,0.338,0.338,0.338,0.338,0.338,0.339,0.339,0.339,0.34,0.34,0.341,0.341,0.341,0.342,0.342,0.342,0.3425,0.343,0.343,0.344,0.344,0.344,0.345,0.345,0.345,0.346,0.346,0.347,0.347,0.34724999999999995,0.348,0.348,0.348,0.349,0.35,0.35,0.351,0.352,0.352,0.353,0.354,0.355,0.355,0.357,0.358,0.359,0.35974999999999996,0.361,0.362,0.363,0.364,0.365,0.365,0.366,0.368,0.371,0.372,0.373,0.375,0.377,0.0,0.0,0.384,0.385,0.387,0.389,0.39,0.391,0.393,0.393,0.394,0.394,0.396,0.396,0.396,0.396,0.395,0.395,0.394,0.394,0.394,0.394,0.393,0.393,0.393,0.393,0.393,0.393,0.393,0.393,0.393,0.393,0.392,0.391,0.391,0.39,0.39,0.39,0.389,0.389,0.389,0.389,0.389,0.388,0.388,0.387,0.386,0.386,0.386,0.385,0.385,0.385,0.385,0.385,0.385,0.384,0.384,0.383,0.383,0.382,0.382,0.382,0.381,0.381,0.381,0.381,0.381,0.381,0.38,0.38,0.38,0.379,0.379,0.378,0.378,0.378,0.377,0.377,0.377,0.377,0.376,0.376,0.376,0.376,0.376,0.376,0.376,0.375,0.375,0.375,0.374,0.374,0.374,0.374,0.373,0.373,0.373,0.373,0.373,0.372,0.372,0.371,0.371,0.371,0.371,0.37,0.37,0.37,0.37,0.37,0.369,0.369,0.369,0.369,0.369,0.369,0.368,0.368,0.367,0.367,0.366,0.366,0.366,0.366,0.366,0.366,0.365,0.365,0.365,0.365,0.364,0.364,0.364,0.363,0.363,0.363,0.362,0.362,0.362,0.362,0.362,0.362,0.361,0.361,0.361,0.361,0.361,0.361,0.36,0.36,0.0,0.0,0.359,0.359,0.358,0.358,0.358,0.358,0.358,0.35725,0.357,0.357,0.357,0.356,0.356,0.356,0.356,0.356,0.355,0.355,0.355,0.355,0.354,0.354,0.354,0.354,0.353,0.353,0.353,0.352,0.352,0.352,0.351,0.351,0.351,0.351,0.351,0.35,0.35,0.35,0.35,0.35,0.349,0.349,0.349,0.349,0.349,0.349,0.349,0.0,0.0,0.0,0.0,0.0,0.0,0.0,0.0,0.0,0.0
0.0,0.0,0.0,0.0,0.0,0.0,0.0,0.0,0.0,0.0,0.0,0.0,0.0,0.0,0.0,0.0,0.0,0.0,0.0,0.0,0.0,0.0,0.0,0.0,0.0,0.0,0.0,0.0,0.521,0.52,0.519,0.517,0.517,0.516,0.516,0.516,0.516,0.515,0.514,0.514,0.513,0.512,0.511,0.511,0.509,0.509,0.509,0.509,0.509,0.509,0.509,0.508,0.508,0.508,0.508,0.507,0.507,0.507,0.506,0.505,0.505,0.504,0.504,0.503,0.503,0.503,0.502,0.502,0.501,0.5,0.499,0.498,0.497,0.496,0.495,0.495,0.495,0.495,0.495,0.495,0.495,0.494,0.494,0.494,0.493,0.493,0.492,0.491,0.491,0.49,0.489,0.489,0.489,0.489,0.489,0.488,0.488,0.488,0.487,0.487,0.487,0.486,0.485,0.485,0.484,0.484,0.483,0.483,0.483,0.483,0.482,0.482,0.482,0.482,0.482,0.482,0.482,0.482,0.481,0.481,0.481,0.48,0.478,0.477,0.476,0.475,0.475,0.475,0.474,0.473,0.473,0.473,0.473,0.472,0.471,0.471,0.471,0.47,0.47,0.47,0.47,0.469,0.469,0.469,0.47,0.469,0.469,0.469,0.469,0.468,0.468,0.468,0.468,0.467,0.467,0.466,0.465,0.465,0.464,0.464,0.463,0.463,0.463,0.463,0.463,0.463,0.463,0.463,0.0,0.0,0.0,0.0,0.0,0.0,0.0,0.0,0.0,0.0,0.0,0.0,0.0,0.326,0.325,0.325,0.324,0.324,0.323,0.323,0.323,0.323,0.322,0.322,0.321,0.321,0.321,0.321,0.32,0.319,0.319,0.318,0.318,0.318,0.318,0.317,0.317,0.317,0.317,0.317,0.317,0.317,0.317,0.317,0.317,0.317,0.317,0.317,0.318,0.318,0.318,0.318,0.318,0.319,0.319,0.32,0.32,0.32,0.32,0.32,0.32,0.32,0.32,0.32,0.32,0.321,0.321,0.321,0.321,0.321,0.321,0.3215,0.322,0.322,0.323,0.323,0.323,0.323,0.323,0.324,0.324,0.324,0.325,0.325,0.326,0.326,0.326,0.326,0.326,0.3265,0.327,0.327,0.327,0.327,0.328,0.328,0.328,0.329,0.329,0.329,0.329,0.329,0.33,0.33,0.331,0.331,0.3315,0.332,0.332,0.332,0.332,0.333,0.333,0.334,0.334,0.335,0.335,0.335,0.335,0.335,0.336,0.336,0.336,0.336,0.3365,0.337,0.337,0.337,0.338,0.338,0.338,0.338,0.339,0.339,0.339,0.339,0.339,0.34,0.34,0.341,0.341,0.342,0.342,0.342,0.342,0.3425,0.343,0.344,0.344,0.344,0.345,0.345,0.34550000000000003,0.346,0.3465,0.347,0.34724999999999995,0.348,0.348,0.348,0.348,0.348,0.349,0.35,0.351,0.351,0.352,0.352,0.353,0.354,0.355,0.355,0.356,0.358,0.3585,0.359,0.36,0.362,0.363,0.364,0.365,0.366,0.366,0.368,0.369,0.371,0.373,0.376,0.3775,0.379875,0.383,0.384,0.385,0.386,0.389,0.39,0.3905,0.391,0.392,0.393,0.394,0.394,0.394,0.394,0.394,0.394,0.394,0.394,0.393,0.393,0.393,0.393,0.393,0.392,0.392,0.392,0.392,0.392,0.392,0.391,0.391,0.391,0.39,0.39,0.389,0.389,0.389,0.389,0.389,0.389,0.388,0.388,0.388,0.386,0.386,0.386,0.385,0.385,0.385,0.385,0.385,0.384,0.384,0.384,0.383,0.383,0.383,0.382,0.382,0.381,0.381,0.381,0.381,0.381,0.381,0.38,0.38,0.38,0.379,0.379,0.379,0.378,0.378,0.377,0.377,0.377,0.377,0.377,0.376,0.376,0.376,0.375,0.375,0.375,0.375,0.374,0.374,0.374,0.374,0.374,0.374,0.373,0.373,0.373,0.373,0.373,0.372,0.372,0.371,0.371,0.371,0.37,0.37,0.37,0.37,0.37,0.369,0.369,0.369,0.369,0.369,0.369,0.368,0.368,0.368,0.367,0.367,0.366,0.366,0.366,0.366,0.366,0.366,0.365,0.365,0.364,0.364,0.364,0.364,0.363,0.363,0.363,0.362,0.362,0.362,0.362,0.362,0.362,0.361,0.361,0.361,0.361,0.361,0.36,0.36,0.36,0.359,0.359,0.359,0.359,0.0,0.0,0.358,0.358,0.358,0.357,0.357,0.357,0.356,0.356,0.356,0.355,0.355,0.355,0.355,0.355,0.355,0.355,0.355,0.35450000000000004,0.354,0.354,0.354,0.353,0.353,0.353,0.352,0.352,0.352,0.352,0.351,0.351,0.351,0.351,0.35,0.35,0.35,0.349,0.349,0.349,0.349,0.349,0.348,0.3485,0.348375,0.348,0.348,0.348,0.348,0.0,0.0,0.0,0.0,0.0,0.0,0.0,0.0,0.0,0.0
0.0,0.0,0.0,0.0,0.0,0.0,0.0,0.0,0.0,0.0,0.0,0.0,0.0,0.0,0.0,0.0,0.0,0.0,0.0,0.0,0.0,0.0,0.0,0.0,0.0,0.0,0.0,0.0,0.517,0.516,0.516,0.516,0.516,0.515,0.514,0.514,0.514,0.513,0.512,0.511,0.511,0.51,0.509,0.509,0.509,0.509,0.508,0.508,0.508,0.507,0.507,0.507,0.507,0.506,0.506,0.505,0.505,0.504,0.504,0.504,0.503,0.502,0.502,0.502,0.502,0.502,0.501,0.501,0.499,0.498,0.497,0.495,0.495,0.495,0.494,0.494,0.494,0.493,0.493,0.493,0.493,0.492,0.492,0.492,0.491,0.491,0.49,0.489,0.489,0.488,0.488,0.488,0.488,0.488,0.487,0.487,0.486,0.486,0.485,0.485,0.485,0.483,0.483,0.482,0.482,0.482,0.482,0.482,0.482,0.482,0.482,0.482,0.482,0.482,0.481,0.481,0.481,0.481,0.48,0.48,0.479,0.477,0.476,0.475,0.475,0.474,0.473,0.472,0.471,0.471,0.471,0.471,0.47,0.47,0.47,0.47,0.469,0.469,0.469,0.469,0.469,0.468,0.468,0.467,0.467,0.467,0.466,0.466,0.465,0.465,0.465,0.465,0.464,0.464,0.464,0.465,0.464,0.464,0.463,0.463,0.463,0.462,0.462,0.462,0.462,0.462,0.462,0.0,0.0,0.0,0.0,0.0,0.0,0.0,0.0,0.0,0.0,0.0,0.0,0.0,0.0,0.326,0.325,0.325,0.324,0.323,0.323,0.323,0.323,0.322,0.322,0.322,0.321,0.321,0.321,0.32,0.32,0.32,0.319,0.319,0.318,0.318,0.318,0.318,0.318,0.317,0.317,0.317,0.317,0.317,0.317,0.317,0.317,0.317,0.318,0.318,0.318,0.318,0.318,0.319,0.319,0.319,0.32,0.32,0.32,0.32,0.32,0.32,0.32,0.32,0.321,0.321,0.321,0.321,0.321,0.321,0.321,0.321,0.3215,0.322,0.322,0.323,0.323,0.323,0.323,0.323,0.324,0.324,0.324,0.325,0.325,0.326,0.326,0.326,0.326,0.326,0.3265,0.327,0.327,0.327,0.327,0.328,0.328,0.329,0.329,0.329,0.329,0.329,0.33,0.33,0.33,0.331,0.3315,0.332,0.332,0.332,0.332,0.333,0.333,0.333,0.334,0.334,0.335,0.335,0.335,0.335,0.336,0.336,0.336,0.336,0.3365,0.337,0.337,0.337,0.338,0.338,0.338,0.338,0.339,0.339,0.339,0.339,0.339,0.34,0.34,0.34,0.341,0.341,0.342,0.342,0.342,0.3425,0.343,0.343,0.344,0.344,0.345,0.345,0.345,0.345,0.346,0.347,0.34724999999999995,0.3475625,0.348,0.348,0.348,0.349,0.349,0.349,0.35,0.351,0.352,0.352,0.353,0.35350000000000004,0.354,0.355,0.355,0.357,0.358,0.3585,0.359,0.36,0.362,0.362,0.364,0.3645,0.365,0.366,0.367,0.369,0.37,0.371,0.0,0.3775,0.38,0.382,0.3835,0.385,0.385,0.389,0.389,0.39,0.390375,0.391,0.392,0.393,0.393,0.393,0.393,0.394,0.394,0.393,0.393,0.393,0.393,0.392,0.391,0.391,0.391,0.391,0.391,0.39,0.39,0.39,0.39,0.39,0.389,0.389,0.389,0.389,0.389,0.388,0.388,0.388,0.388,0.0,0.3865,0.386,0.385,0.385,0.385,0.385,0.385,0.385,0.384,0.384,0.383,0.383,0.383,0.382,0.382,0.382,0.381,0.381,0.381,0.381,0.381,0.38,0.38,0.38,0.38,0.379,0.379,0.378,0.378,0.378,0.378,0.377,0.377,0.377,0.377,0.377,0.376,0.376,0.376,0.375,0.375,0.374,0.374,0.374,0.374,0.373,0.373,0.373,0.373,0.373,0.373,0.373,0.372,0.372,0.372,0.371,0.371,0.37,0.37,0.37,0.37,0.37,0.369,0.369,0.369,0.369,0.369,0.369,0.369,0.368,0.368,0.367,0.367,0.367,0.366,0.366,0.366,0.366,0.366,0.365,0.365,0.365,0.364,0.364,0.364,0.364,0.363,0.363,0.363,0.362,0.362,0.362,0.362,0.362,0.361,0.361,0.36,0.36,0.36,0.359,0.36,0.359,0.359,0.359,0.359,0.359,0.359,0.359,0.358,0.358,0.357,0.357,0.356,0.356,0.356,0.356,0.356,0.355,0.355,0.355,0.355,0.355,0.355,0.355,0.355,0.355,0.354,0.354,0.354,0.354,0.353,0.353,0.352,0.352,0.352,0.352,0.352,0.352,0.351,0.351,0.351,0.35,0.35,0.349,0.349,0.349,0.349,0.348,0.348,0.348,0.348,0.348,0.348,0.348,0.348,0.347,0.347,0.347,0.347,0.347,0.0,0.0,0.0,0.0,0.0,0.0,0.0,0.0,0.0
0.0,0.0,0.0,0.0,0.0,0.0,0.0,0.0,0.0,0.0,0.0,0.0,0.0,0.0,0.0,0.0,0.0,0.0,0.0,0.0,0.0,0.0,0.0,0.0,0.0,0.0,0.0,0.0,0.0,0.515,0.515,0.515,0.514,0.513,0.513,0.512,0.511,0.511,0.51,0.509,0.509,0.509,0.508,0.508,0.508,0.507,0.507,0.506,0.506,0.505,0.505,0.504,0.504,0.504,0.504,0.503,0.503,0.503,0.502,0.502,0.502,0.502,0.501,0.501,0.501,0.5,0.499,0.498,0.497,0.496,0.495,0.494,0.494,0.493,0.493,0.492,0.492,0.491,0.491,0.491,0.491,0.49,0.49,0.49,0.489,0.489,0.488,0.488,0.487,0.487,0.487,0.486,0.486,0.485,0.485,0.485,0.484,0.484,0.483,0.482,0.482,0.482,0.482,0.482,0.482,0.481,0.481,0.481,0.481,0.481,0.481,0.48,0.48,0.48,0.48,0.48,0.479,0.479,0.477,0.477,0.476,0.475,0.475,0.474,0.473,0.472,0.471,0.47,0.47,0.47,0.47,0.469,0.469,0.469,0.469,0.469,0.468,0.468,0.468,0.467,0.467,0.466,0.466,0.465,0.465,0.465,0.464,0.464,0.464,0.464,0.464,0.464,0.464,0.463,0.463,0.463,0.462,0.462,0.461,0.46,0.459,0.458,0.458,0.46,0.0,0.0,0.0,0.0,0.0,0.0,0.0,0.0,0.0,0.0,0.0,0.0,0.0,0.327,0.326,0.326,0.326,0.326,0.325,0.324,0.324,0.323,0.323,0.323,0.323,0.322,0.322,0.321,0.321,0.321,0.321,0.32,0.32,0.32,0.319,0.319,0.319,0.318,0.318,0.318,0.318,0.318,0.318,0.318,0.318,0.318,0.318,0.318,0.318,0.318,0.318,0.318,0.318,0.318,0.319,0.319,0.319,0.32,0.32,0.32,0.32,0.32,0.32,0.321,0.321,0.321,0.321,0.321,0.321,0.321,0.321,0.321,0.3215,0.322,0.322,0.322,0.323,0.323,0.323,0.323,0.323,0.323,0.324,0.324,0.324,0.325,0.325,0.326,0.326,0.326,0.326,0.326,0.326625,0.327,0.327,0.327,0.328,0.328,0.329,0.329,0.329,0.329,0.33,0.33,0.33,0.331,0.331,0.3315,0.332,0.332,0.332,0.332,0.333,0.333,0.334,0.334,0.335,0.335,0.335,0.335,0.336,0.336,0.336,0.336,0.3365,0.337,0.337,0.337,0.338,0.338,0.338,0.338,0.339,0.339,0.339,0.339,0.339,0.34,0.34,0.34,0.34,0.341,0.341,0.342,0.342,0.342,0.3425,0.343,0.343,0.344,0.345,0.345,0.345,0.345,0.346,0.346,0.347,0.3474999999999999,0.348,0.348,0.348,0.349,0.349,0.35,0.35,0.351,0.351,0.352,0.352,0.353,0.354,0.355,0.355,0.356,0.357,0.358,0.3585,0.359,0.361,0.362,0.362,0.363,0.364,0.365,0.366,0.367,0.369,0.37,0.3715,0.373,0.376,0.379,0.381,0.38275000000000003,0.384,0.385,0.386,0.388,0.389,0.39,0.39,0.391,0.392,0.393,0.393,0.393,0.393,0.393,0.393,0.393,0.392,0.391,0.391,0.391,0.39,0.39,0.39,0.389,0.389,0.389,0.389,0.389,0.389,0.389,0.389,0.389,0.389,0.388,0.388,0.387,0.387,0.386,0.385,0.385,0.385,0.385,0.385,0.385,0.384,0.384,0.384,0.383,0.383,0.382,0.382,0.382,0.381,0.381,0.381,0.381,0.381,0.38,0.38,0.38,0.379,0.379,0.379,0.378,0.378,0.378,0.378,0.377,0.377,0.377,0.377,0.377,0.377,0.376,0.376,0.376,0.375,0.375,0.374,0.374,0.374,0.373,0.373,0.373,0.373,0.373,0.373,0.373,0.373,0.373,0.372,0.372,0.371,0.371,0.37,0.37,0.37,0.37,0.369,0.369,0.369,0.369,0.369,0.369,0.369,0.369,0.368,0.368,0.367,0.367,0.367,0.366,0.366,0.366,0.366,0.365,0.365,0.365,0.364,0.364,0.364,0.364,0.363,0.363,0.363,0.362,0.362,0.362,0.362,0.362,0.362,0.361,0.361,0.36,0.36,0.359,0.359,0.359,0.359,0.359,0.359,0.359,0.358,0.358,0.358,0.358,0.358,0.358,0.357,0.357,0.356,0.356,0.355,0.355,0.355,0.355,0.355,0.355,0.355,0.354,0.354,0.354,0.354,0.354,0.354,0.353,0.353,0.353,0.352,0.352,0.352,0.352,0.352,0.352,0.351,0.351,0.351,0.351,0.35,0.35,0.35,0.349,0.349,0.349,0.348,0.348,0.348,0.348,0.348,0.348,0.347,0.347,0.347,0.346,0.346,0.346,0.346,0.346,0.346,0.345,0.0,0.0,0.0,0.0,0.0,0.0,0.0,0.0,0.0
0.0,0.0,0.0,0.0,0.0,0.0,0.0,0.0,0.0,0.0,0.0,0.0,0.0,0.0,0.0,0.0,0.0,0.0,0.0,0.0,0.0,0.0,0.0,0.0,0.0,0.0,0.0,0.0,0.0,0.0,0.513,0.512,0.511,0.511,0.51,0.51,0.509,0.509,0.509,0.508,0.508,0.507,0.507,0.506,0.506,0.505,0.505,0.504,0.504,0.503,0.503,0.503,0.502,0.502,0.502,0.502,0.502,0.501,0.501,0.501,0.501,0.5,0.499,0.499,0.498,0.497,0.496,0.496,0.495,0.494,0.493,0.493,0.492,0.491,0.491,0.49,0.49,0.49,0.489,0.489,0.489,0.489,0.489,0.488,0.488,0.488,0.487,0.486,0.485,0.485,0.484,0.484,0.483,0.483,0.483,0.482,0.482,0.482,0.482,0.482,0.481,0.481,0.481,0.481,0.48,0.48,0.48,0.48,0.479,0.479,0.479,0.479,0.478,0.478,0.478,0.477,0.476,0.476,0.476,0.475,0.475,0.474,0.473,0.471,0.471,0.47,0.469,0.469,0.469,0.469,0.469,0.468,0.468,0.468,0.467,0.467,0.466,0.466,0.465,0.465,0.464,0.464,0.464,0.464,0.464,0.464,0.463,0.463,0.463,0.463,0.463,0.463,0.463,0.463,0.462,0.461,0.46,0.459,0.459,0.458,0.458,0.458,0.458,0.458,0.0,0.0,0.0,0.0,0.0,0.0,0.0,0.0,0.0,0.0,0.0,0.0,0.0,0.327,0.326,0.326,0.326,0.325,0.325,0.324,0.324,0.323,0.323,0.323,0.322,0.322,0.322,0.321,0.321,0.321,0.321,0.321,0.32,0.32,0.32,0.319,0.319,0.319,0.318,0.318,0.318,0.318,0.318,0.318,0.318,0.318,0.318,0.318,0.318,0.318,0.318,0.318,0.319,0.319,0.319,0.32,0.32,0.32,0.32,0.32,0.321,0.321,0.321,0.321,0.321,0.321,0.321,0.321,0.321,0.321,0.321,0.3215,0.322,0.322,0.322,0.323,0.323,0.323,0.323,0.323,0.324,0.324,0.324,0.324,0.325,0.325,0.326,0.326,0.326,0.326,0.326,0.3265,0.327,0.327,0.327,0.328,0.328,0.329,0.329,0.329,0.329,0.33,0.33,0.33,0.331,0.3315,0.332,0.332,0.332,0.332,0.333,0.333,0.334,0.334,0.335,0.335,0.335,0.335,0.335,0.336,0.336,0.336,0.336,0.3365,0.337,0.337,0.338,0.338,0.338,0.338,0.339,0.339,0.339,0.339,0.339,0.339,0.34,0.34,0.34,0.341,0.341,0.341,0.342,0.342,0.342,0.3425,0.343,0.343,0.344,0.344,0.345,0.345,0.345,0.346,0.347,0.347,0.3474999999999999,0.348,0.348,0.349,0.349,0.35,0.35,0.351,0.351,0.351,0.352,0.353,0.35350000000000004,0.354,0.355,0.356,0.357,0.358,0.358,0.3585,0.359,0.361,0.362,0.362,0.363,0.364,0.36475,0.366,0.366,0.369,0.37,0.3715,0.373,0.3755,0.378375,0.381,0.38275000000000003,0.384,0.385,0.385,0.386,0.388,0.389,0.389,0.39,0.3905,0.391,0.392,0.392,0.392,0.392,0.392,0.392,0.391,0.39,0.39,0.38975,0.389,0.389,0.389,0.389,0.389,0.389,0.389,0.389,0.388,0.388,0.388,0.388,0.3875,0.387,0.386,0.385,0.385,0.385,0.385,0.385,0.385,0.384,0.384,0.384,0.383,0.383,0.383,0.382,0.382,0.382,0.382,0.381,0.381,0.381,0.381,0.38,0.38,0.38,0.379,0.379,0.378,0.378,0.378,0.377,0.377,0.377,0.377,0.377,0.377,0.377,0.377,0.376,0.376,0.376,0.376,0.375,0.375,0.374,0.374,0.373,0.373,0.373,0.373,0.373,0.373,0.372,0.372,0.372,0.371,0.371,0.371,0.371,0.37,0.37,0.37,0.37,0.369,0.369,0.369,0.369,0.369,0.369,0.368,0.368,0.367,0.367,0.367,0.367,0.366,0.366,0.366,0.366,0.366,0.365,0.365,0.365,0.365,0.364,0.364,0.363,0.363,0.362,0.362,0.362,0.362,0.362,0.362,0.362,0.362,0.361,0.361,0.361,0.36,0.359,0.359,0.359,0.359,0.359,0.358,0.358,0.358,0.358,0.358,0.358,0.358,0.358,0.358,0.357,0.356,0.356,0.356,0.355,0.355,0.355,0.355,0.355,0.354,0.354,0.354,0.354,0.353,0.353,0.353,0.353,0.352,0.352,0.352,0.352,0.352,0.352,0.351,0.351,0.351,0.351,0.351,0.351,0.35,0.35,0.35,0.349,0.349,0.349,0.348,0.348,0.348,0.348,0.348,0.347,0.347,0.347,0.346,0.346,0.346,0.345,0.345,0.345,0.345,0.345,0.345,0.345,0.345,0.0,0.0,0.0,0.0,0.0,0.0,0.0,0.0,0.0
0.0,0.0,0.0,0.0,0.0,0.0,0.0,0.0,0.0,0.0,0.0,0.0,0.0,0.0,0.0,0.0,0.0,0.0,0.0,0.0,0.0,0.0,0.0,0.0,0.0,0.0,0.0,0.0,0.0,0.0,0.51,0.51,0.509,0.509,0.509,0.509,0.509,0.507,0.507,0.507,0.506,0.505,0.505,0.504,0.504,0.503,0.503,0.502,0.502,0.502,0.502,0.502,0.502,0.501,0.501,0.5,0.5,0.499,0.499,0.498,0.498,0.497,0.497,0.496,0.496,0.495,0.495,0.494,0.493,0.492,0.491,0.49,0.49,0.489,0.489,0.489,0.489,0.489,0.488,0.488,0.488,0.488,0.487,0.487,0.486,0.485,0.485,0.484,0.483,0.482,0.482,0.482,0.482,0.482,0.482,0.481,0.481,0.481,0.481,0.48,0.48,0.479,0.479,0.478,0.478,0.478,0.478,0.477,0.477,0.477,0.477,0.477,0.476,0.476,0.476,0.476,0.475,0.475,0.474,0.473,0.472,0.471,0.47,0.47,0.469,0.468,0.468,0.467,0.467,0.467,0.467,0.467,0.466,0.465,0.465,0.465,0.464,0.464,0.464,0.463,0.463,0.463,0.463,0.463,0.463,0.463,0.463,0.462,0.462,0.462,0.462,0.462,0.461,0.461,0.46,0.459,0.458,0.458,0.457,0.457,0.457,0.457,0.456,0.4555,0.0,0.0,0.0,0.0,0.0,0.0,0.0,0.0,0.0,0.0,0.0,0.0,0.0,0.327,0.326,0.326,0.326,0.325,0.325,0.324,0.323,0.323,0.323,0.323,0.322,0.322,0.321,0.321,0.321,0.321,0.321,0.321,0.32,0.32,0.32,0.32,0.32,0.319,0.319,0.319,0.319,0.318,0.318,0.318,0.318,0.318,0.318,0.318,0.318,0.319,0.319,0.319,0.319,0.32,0.32,0.32,0.32,0.32,0.32,0.321,0.321,0.321,0.321,0.321,0.321,0.321,0.321,0.321,0.321,0.3215,0.322,0.322,0.322,0.323,0.323,0.323,0.323,0.323,0.324,0.324,0.324,0.324,0.324,0.324,0.325,0.325,0.326,0.326,0.326,0.326,0.3265,0.327,0.327,0.327,0.328,0.328,0.329,0.329,0.329,0.329,0.33,0.33,0.331,0.331,0.3315,0.332,0.332,0.332,0.332,0.333,0.333,0.334,0.334,0.335,0.335,0.335,0.335,0.336,0.336,0.336,0.336,0.3365,0.337,0.337,0.338,0.338,0.338,0.338,0.338,0.339,0.339,0.339,0.339,0.34,0.34,0.34,0.34,0.341,0.341,0.341,0.341,0.341,0.342,0.342,0.342,0.3425,0.343,0.343,0.344,0.345,0.345,0.345,0.346,0.346,0.347,0.3474999999999999,0.348,0.348,0.349,0.35,0.351,0.351,0.351,0.352,0.352,0.353,0.35350000000000004,0.354,0.355,0.0,0.0,0.358,0.358,0.3585,0.359,0.359,0.361,0.362,0.363,0.36324999999999996,0.364,0.3645,0.365,0.366,0.368,0.369,0.0,0.0,0.0,0.378,0.381,0.38325000000000004,0.385,0.385,0.386,0.387,0.388,0.388,0.389,0.389,0.39,0.39,0.3905,0.391,0.391,0.391,0.391,0.39,0.39,0.39,0.389,0.389,0.389,0.389,0.388,0.388,0.388,0.388,0.388,0.387,0.387,0.386,0.386,0.386,0.386,0.386,0.385,0.385,0.385,0.385,0.384,0.384,0.384,0.383,0.383,0.383,0.382,0.382,0.382,0.382,0.381,0.381,0.381,0.381,0.381,0.38,0.38,0.38,0.379,0.379,0.378,0.378,0.378,0.377,0.377,0.377,0.377,0.377,0.377,0.376,0.376,0.376,0.376,0.376,0.375,0.375,0.374,0.374,0.374,0.373,0.373,0.373,0.373,0.373,0.372,0.372,0.371,0.371,0.371,0.37,0.37,0.37,0.37,0.37,0.37,0.369,0.369,0.369,0.369,0.369,0.369,0.368,0.368,0.368,0.367,0.367,0.367,0.366,0.366,0.366,0.366,0.366,0.366,0.365,0.365,0.365,0.364,0.364,0.364,0.363,0.363,0.362,0.362,0.362,0.362,0.362,0.362,0.361,0.361,0.36074999999999996,0.361,0.36,0.36,0.359,0.359,0.359,0.359,0.359,0.358,0.358,0.358,0.358,0.358,0.358,0.358,0.357,0.357,0.356,0.356,0.356,0.356,0.355,0.355,0.355,0.355,0.354,0.354,0.354,0.354,0.354,0.353,0.353,0.353,0.352,0.352,0.352,0.352,0.352,0.352,0.351,0.351,0.351,0.351,0.351,0.351,0.35,0.35,0.35,0.35,0.349,0.349,0.349,0.348,0.348,0.348,0.348,0.348,0.348,0.347,0.346,0.346,0.346,0.345,0.345,0.345,0.345,0.345,0.345,0.345,0.345,0.345,0.345,0.345,0.345,0.0,0.0,0.0,0.0,0.0,0.0,0.0,0.0,0.0
0.0,0.0,0.0,0.0,0.0,0.0,0.0,0.0,0.0,0.0,0.0,0.0,0.0,0.0,0.0,0.0,0.0,0.0,0.0,0.0,0.0,0.0,0.0,0.0,0.0,0.0,0.0,0.0,0.0,0.509,0.509,0.509,0.509,0.508,0.508,0.507,0.506,0.506,0.505,0.504,0.504,0.504,0.503,0.503,0.502,0.502,0.502,0.502,0.501,0.501,0.5,0.5,0.499,0.499,0.499,0.498,0.497,0.497,0.496,0.496,0.496,0.496,0.495,0.495,0.495,0.494,0.493,0.492,0.491,0.49,0.489,0.489,0.489,0.488,0.488,0.488,0.488,0.488,0.487,0.487,0.486,0.486,0.485,0.485,0.484,0.483,0.483,0.482,0.482,0.482,0.482,0.481,0.481,0.48,0.48,0.48,0.48,0.479,0.479,0.478,0.478,0.477,0.477,0.477,0.476,0.476,0.476,0.476,0.476,0.476,0.476,0.475,0.475,0.475,0.474,0.474,0.47275,0.472,0.471,0.47,0.47,0.469,0.469,0.468,0.467,0.466,0.466,0.465,0.465,0.465,0.465,0.464,0.464,0.464,0.464,0.463,0.463,0.463,0.462,0.462,0.462,0.461,0.461,0.461,0.461,0.461,0.461,0.46,0.46,0.46,0.46,0.46,0.459,0.459,0.458,0.458,0.457,0.456,0.456,0.455,0.455,0.454,0.454,0.453,0.0,0.0,0.0,0.0,0.0,0.0,0.0,0.0,0.0,0.0,0.0,0.0,0.327,0.326,0.326,0.326,0.326,0.325,0.325,0.324,0.323,0.323,0.323,0.322,0.322,0.322,0.321,0.321,0.321,0.321,0.321,0.321,0.32,0.32,0.32,0.32,0.32,0.32,0.319,0.319,0.319,0.319,0.319,0.319,0.319,0.319,0.319,0.319,0.319,0.319,0.32,0.32,0.32,0.32,0.32,0.32,0.32,0.3205,0.321,0.321,0.321,0.321,0.321,0.321,0.321,0.321,0.321,0.321,0.3215,0.322,0.322,0.322,0.323,0.323,0.323,0.323,0.323,0.324,0.324,0.324,0.324,0.324,0.325,0.325,0.325,0.326,0.326,0.326,0.326,0.3265,0.327,0.327,0.327,0.328,0.328,0.329,0.329,0.329,0.329,0.33,0.33,0.331,0.331,0.3315,0.332,0.332,0.332,0.333,0.333,0.333,0.334,0.335,0.335,0.335,0.335,0.335,0.336,0.336,0.336,0.3365,0.337,0.337,0.337,0.338,0.338,0.338,0.338,0.338,0.339,0.339,0.339,0.339,0.34,0.34,0.34,0.34,0.341,0.341,0.341,0.341,0.341,0.342,0.342,0.342,0.342,0.342625,0.343,0.344,0.344,0.345,0.345,0.345,0.346,0.347,0.3475,0.348,0.348,0.349,0.35,0.351,0.351,0.352,0.352,0.353,0.35350000000000004,0.354,0.355,0.355,0.356,0.0,0.0,0.0,0.359,0.359,0.36,0.361,0.362,0.362,0.364,0.364,0.36474999999999996,0.365,0.366,0.367,0.369,0.0,0.0,0.0,0.0,0.383,0.38425,0.386,0.386,0.386,0.387,0.388,0.388,0.388,0.389,0.389,0.389,0.389,0.39,0.39,0.39,0.389,0.389,0.389,0.389,0.389,0.388,0.388,0.388,0.387,0.387,0.386,0.386,0.386,0.386,0.386,0.386,0.385,0.385,0.385,0.385,0.385,0.385,0.384,0.384,0.383,0.383,0.382,0.382,0.382,0.382,0.381,0.381,0.381,0.381,0.381,0.381,0.381,0.38,0.38,0.379,0.379,0.378,0.378,0.378,0.377,0.377,0.377,0.377,0.377,0.377,0.376,0.376,0.376,0.375,0.375,0.375,0.374,0.374,0.374,0.374,0.374,0.373,0.373,0.373,0.373,0.373,0.372,0.372,0.371,0.37,0.37,0.37,0.37,0.37,0.369,0.369,0.369,0.369,0.369,0.369,0.369,0.369,0.369,0.368,0.368,0.368,0.367,0.367,0.367,0.366,0.366,0.366,0.366,0.366,0.366,0.365,0.365,0.365,0.364,0.364,0.364,0.363,0.363,0.363,0.362,0.362,0.362,0.362,0.362,0.361,0.361,0.361,0.36,0.36,0.359,0.359,0.359,0.359,0.359,0.359,0.359,0.359,0.358,0.358,0.358,0.358,0.358,0.357,0.357,0.357,0.356,0.355,0.3555,0.355375,0.355,0.355,0.355,0.355,0.354,0.354,0.354,0.354,0.353,0.352,0.352,0.352,0.352,0.352,0.352,0.352,0.352,0.351,0.351,0.351,0.351,0.351,0.351,0.35,0.35,0.349,0.349,0.349,0.349,0.349,0.348,0.348,0.348,0.348,0.348,0.348,0.347,0.347,0.347,0.346,0.345,0.345,0.345,0.345,0.345,0.345,0.345,0.345,0.344,0.344,0.344,0.344,0.344,0.344,0.344,0.0,0.0,0.0,0.0,0.0,0.0,0.0,0.0,0.0
0.0,0.0,0.0,0.0,0.0,0.0,0.0,0.0,0.0,0.0,0.0,0.0,0.0,0.0,0.0,0.0,0.0,0.0,0.0,0.0,0.0,0.0,0.0,0.0,0.0,0.0,0.0,0.0,0.0,0.507,0.507,0.507,0.507,0.506,0.505,0.505,0.504,0.503,0.503,0.502,0.502,0.502,0.502,0.502,0.502,0.501,0.501,0.5,0.499,0.499,0.498,0.497,0.497,0.496,0.496,0.496,0.496,0.495,0.495,0.495,0.495,0.495,0.494,0.494,0.492,0.491,0.49,0.489,0.489,0.489,0.488,0.488,0.488,0.487,0.487,0.487,0.486,0.486,0.485,0.485,0.484,0.484,0.483,0.483,0.482,0.482,0.482,0.481,0.481,0.48,0.48,0.479,0.478,0.478,0.478,0.478,0.477,0.477,0.477,0.476,0.476,0.476,0.476,0.476,0.475,0.475,0.475,0.475,0.475,0.474,0.474,0.474,0.473,0.472,0.472,0.471,0.47,0.47,0.469,0.469,0.468,0.467,0.466,0.465,0.465,0.465,0.464,0.464,0.464,0.464,0.464,0.463,0.463,0.463,0.463,0.462,0.461,0.461,0.46,0.46,0.46,0.459,0.459,0.459,0.459,0.459,0.459,0.459,0.458,0.458,0.458,0.458,0.458,0.458,0.457,0.456,0.455,0.454,0.453,0.453,0.453,0.452,0.452,0.0,0.0,0.0,0.0,0.0,0.0,0.0,0.0,0.0,0.0,0.0,0.0,0.0,0.327,0.326,0.326,0.326,0.325,0.324,0.324,0.323,0.323,0.323,0.323,0.322,0.322,0.322,0.321,0.321,0.321,0.321,0.321,0.321,0.321,0.321,0.32,0.32,0.32,0.32,0.32,0.32,0.32,0.319,0.319,0.319,0.319,0.319,0.319,0.319,0.32,0.32,0.32,0.32,0.32,0.32,0.32,0.32,0.3205,0.321,0.321,0.321,0.321,0.321,0.321,0.321,0.321,0.321,0.321,0.3215,0.322,0.322,0.322,0.323,0.323,0.323,0.323,0.324,0.324,0.324,0.324,0.324,0.325,0.325,0.325,0.326,0.326,0.326,0.326,0.326,0.3265,0.327,0.327,0.327,0.328,0.328,0.329,0.329,0.329,0.329,0.33,0.33,0.331,0.331,0.3315,0.332,0.332,0.332,0.333,0.333,0.333,0.334,0.335,0.335,0.335,0.335,0.336,0.336,0.336,0.336,0.3365,0.337,0.337,0.337,0.338,0.338,0.338,0.338,0.338,0.339,0.339,0.339,0.339,0.34,0.34,0.34,0.341,0.341,0.341,0.341,0.341,0.341,0.341,0.342,0.342,0.342,0.3425,0.343,0.343,0.344,0.344,0.345,0.345,0.345,0.346,0.347,0.34762499999999996,0.348,0.348,0.35,0.351,0.351,0.352,0.353,0.35324999999999995,0.354,0.355,0.355,0.355,0.356,0.357,0.0,0.0,0.0,0.359,0.361,0.361,0.362,0.362,0.364,0.3645,0.365,0.366,0.366,0.367,0.369,0.0,0.0,0.0,0.0,0.0,0.387,0.387,0.387,0.387,0.387,0.387,0.388,0.388,0.388,0.388,0.389,0.389,0.389,0.389,0.389,0.389,0.389,0.389,0.388,0.388,0.388,0.386,0.386,0.386,0.386,0.385,0.385,0.385,0.385,0.385,0.385,0.385,0.384,0.384,0.384,0.384,0.384,0.384,0.383,0.382,0.382,0.382,0.381,0.381,0.381,0.381,0.381,0.381,0.381,0.38,0.38,0.379,0.379,0.378,0.378,0.378,0.377,0.377,0.377,0.377,0.377,0.377,0.376,0.376,0.376,0.376,0.375,0.374,0.374,0.374,0.374,0.374,0.373,0.373,0.373,0.373,0.373,0.373,0.373,0.372,0.372,0.371,0.37,0.37,0.37,0.37,0.369,0.369,0.369,0.369,0.369,0.369,0.369,0.368,0.368,0.368,0.368,0.368,0.367,0.366,0.366,0.366,0.366,0.366,0.366,0.366,0.366,0.366,0.365,0.365,0.364,0.364,0.364,0.363,0.363,0.362,0.362,0.362,0.362,0.362,0.362,0.362,0.361,0.361,0.361,0.36,0.36,0.359,0.359,0.359,0.359,0.359,0.358,0.358,0.358,0.358,0.358,0.358,0.358,0.358,0.357,0.357,0.357,0.356,0.355,0.355,0.355,0.355,0.355,0.355,0.354,0.354,0.354,0.354,0.353,0.353,0.352,0.352,0.352,0.352,0.352,0.351,0.351,0.351,0.351,0.351,0.351,0.351,0.351,0.35,0.35,0.35,0.35,0.349,0.349,0.349,0.348,0.348,0.348,0.348,0.348,0.348,0.348,0.347,0.347,0.347,0.347,0.346,0.345,0.345,0.345,0.345,0.345,0.344,0.344,0.344,0.344,0.344,0.344,0.344,0.344,0.343,0.343,0.344,0.344,0.0,0.0,0.0,0.0,0.0,0.0,0.0,0.0,0.0
0.0,0.0,0.0,0.0,0.0,0.0,0.0,0.0,0.0,0.0,0.0,0.0,0.0,0.0,0.0,0.0,0.0,0.0,0.0,0.0,0.0,0.0,0.0,0.0,0.0,0.0,0.0,0.505,0.505,0.505,0.505,0.504,0.504,0.504,0.503,0.503,0.502,0.502,0.502,0.502,0.502,0.501,0.501,0.5,0.5,0.5,0.499,0.498,0.497,0.497,0.496,0.496,0.496,0.495,0.495,0.495,0.495,0.494,0.494,0.493,0.493,0.492,0.491,0.49,0.49,0.489,0.489,0.488,0.488,0.488,0.487,0.487,0.486,0.485,0.485,0.485,0.484,0.484,0.484,0.483,0.483,0.482,0.482,0.482,0.482,0.481,0.48,0.478,0.478,0.477,0.477,0.477,0.476,0.476,0.476,0.476,0.476,0.476,0.476,0.475,0.475,0.475,0.475,0.475,0.474,0.473,0.473,0.473,0.472,0.472,0.471,0.471,0.47,0.47,0.47,0.469,0.469,0.468,0.467,0.466,0.465,0.465,0.464,0.464,0.464,0.464,0.463,0.463,0.463,0.463,0.463,0.463,0.461,0.461,0.46,0.46,0.459,0.459,0.458,0.458,0.458,0.458,0.458,0.458,0.458,0.458,0.458,0.458,0.458,0.458,0.457,0.457,0.457,0.456,0.455,0.454,0.453,0.452,0.452,0.452,0.452,0.451,0.0,0.0,0.0,0.0,0.0,0.0,0.0,0.0,0.0,0.0,0.0,0.0,0.0,0.0,0.326,0.326,0.326,0.325,0.325,0.324,0.323,0.323,0.323,0.323,0.322,0.322,0.322,0.322,0.321,0.321,0.321,0.321,0.321,0.321,0.321,0.321,0.321,0.32,0.32,0.32,0.32,0.32,0.32,0.32,0.32,0.32,0.32,0.32,0.32,0.32,0.32,0.32,0.32,0.32,0.32,0.3205,0.321,0.321,0.321,0.321,0.321,0.321,0.321,0.321,0.321,0.321,0.321,0.3215,0.322,0.322,0.322,0.322,0.323,0.323,0.323,0.323,0.324,0.324,0.324,0.324,0.325,0.325,0.325,0.326,0.326,0.326,0.326,0.326,0.326,0.3265,0.327,0.327,0.327,0.328,0.328,0.329,0.329,0.329,0.33,0.33,0.33,0.331,0.331,0.3315,0.332,0.332,0.332,0.333,0.333,0.334,0.334,0.335,0.335,0.335,0.335,0.336,0.336,0.336,0.336,0.3365,0.337,0.337,0.338,0.338,0.338,0.338,0.338,0.339,0.339,0.339,0.339,0.339,0.34,0.34,0.34,0.341,0.341,0.341,0.341,0.341,0.341,0.341,0.342,0.342,0.342,0.342,0.3425,0.343,0.343,0.344,0.344,0.345,0.345,0.345,0.346,0.347,0.348,0.348,0.349,0.351,0.351,0.352,0.353,0.35375,0.354,0.355,0.355,0.356,0.357,0.358,0.358,0.3585,0.359,0.359,0.361,0.361,0.362,0.362,0.364,0.3645,0.365,0.366,0.367,0.368,0.369,0.0,0.0,0.0,0.0,0.0,0.0,0.0,0.387,0.387,0.387,0.387,0.387,0.388,0.388,0.388,0.388,0.388,0.388,0.388,0.389,0.388,0.388,0.388,0.388,0.387,0.386,0.386,0.385,0.385,0.385,0.385,0.385,0.385,0.385,0.385,0.384,0.384,0.384,0.383,0.383,0.382,0.382,0.382,0.382,0.382,0.381,0.381,0.381,0.381,0.381,0.381,0.38,0.38,0.379,0.379,0.378,0.378,0.378,0.377,0.377,0.377,0.377,0.377,0.377,0.376,0.376,0.376,0.376,0.375,0.374,0.374,0.374,0.374,0.373,0.373,0.373,0.373,0.373,0.373,0.373,0.373,0.372,0.372,0.372,0.371,0.371,0.37,0.37,0.37,0.369,0.369,0.369,0.369,0.369,0.368,0.368,0.368,0.368,0.367,0.367,0.367,0.367,0.366,0.366,0.366,0.366,0.366,0.366,0.366,0.366,0.366,0.365,0.365,0.365,0.364,0.364,0.362,0.362,0.362,0.362,0.362,0.362,0.362,0.361,0.361,0.361,0.361,0.36,0.36,0.36,0.359,0.359,0.359,0.358,0.358,0.358,0.358,0.358,0.358,0.358,0.357,0.357,0.357,0.357,0.356,0.356,0.356,0.355,0.355,0.355,0.355,0.355,0.354,0.354,0.354,0.354,0.353,0.353,0.352,0.352,0.352,0.352,0.352,0.351,0.351,0.351,0.351,0.351,0.351,0.351,0.35,0.35,0.35,0.35,0.35,0.349,0.349,0.349,0.348,0.348,0.348,0.348,0.348,0.348,0.348,0.348,0.348,0.347,0.347,0.346,0.346,0.346,0.345,0.345,0.345,0.345,0.344,0.344,0.344,0.343,0.343,0.343,0.343,0.342,0.342,0.342,0.342,0.342,0.0,0.0,0.0,0.0,0.0,0.0,0.0,0.0,0.0,0.0,0.0,0.0
0.0,0.0,0.0,0.0,0.0,0.0,0.0,0.0,0.0,0.0,0.0,0.0,0.0,0.0,0.0,0.0,0.0,0.0,0.0,0.0,0.0,0.0,0.0,0.0,0.0,0.0,0.504,0.504,0.503,0.503,0.503,0.503,0.502,0.502,0.502,0.502,0.501,0.501,0.501,0.5,0.5,0.5,0.499,0.499,0.498,0.497,0.496,0.496,0.496,0.495,0.495,0.495,0.495,0.494,0.494,0.494,0.493,0.493,0.491,0.491,0.49,0.49,0.489,0.489,0.488,0.488,0.488,0.487,0.487,0.486,0.484,0.484,0.484,0.483,0.483,0.483,0.483,0.482,0.482,0.482,0.482,0.482,0.481,0.481,0.48,0.48,0.478,0.477,0.476,0.476,0.476,0.476,0.476,0.475,0.475,0.475,0.475,0.475,0.475,0.475,0.474,0.474,0.473,0.472,0.471,0.471,0.47,0.47,0.47,0.47,0.469,0.469,0.469,0.469,0.468,0.468,0.466,0.465,0.464,0.464,0.464,0.463,0.463,0.463,0.463,0.463,0.462,0.462,0.462,0.461,0.461,0.46,0.459,0.459,0.458,0.458,0.458,0.458,0.458,0.457,0.457,0.457,0.457,0.457,0.457,0.457,0.457,0.457,0.457,0.457,0.456,0.455,0.455,0.454,0.453,0.452,0.452,0.452,0.451,0.451,0.451,0.45,0.0,0.0,0.0,0.0,0.0,0.0,0.0,0.0,0.0,0.0,0.0,0.0,0.0,0.0,0.326,0.326,0.326,0.325,0.324,0.324,0.323,0.323,0.323,0.323,0.322,0.322,0.322,0.321,0.321,0.321,0.321,0.321,0.321,0.321,0.321,0.321,0.321,0.321,0.321,0.321,0.32,0.32,0.32,0.32,0.32,0.32,0.32,0.32,0.32,0.32,0.32,0.3205,0.321,0.321,0.321,0.321,0.321,0.321,0.321,0.321,0.321,0.321,0.321,0.321,0.321,0.3215,0.322,0.322,0.322,0.322,0.322,0.323,0.323,0.323,0.323,0.324,0.324,0.324,0.324,0.325,0.325,0.326,0.326,0.326,0.326,0.326,0.326,0.326,0.3265,0.327,0.327,0.327,0.328,0.328,0.329,0.329,0.329,0.33,0.33,0.33,0.331,0.331,0.3315,0.332,0.332,0.332,0.333,0.333,0.334,0.334,0.335,0.335,0.335,0.335,0.336,0.336,0.3365,0.337,0.337,0.337,0.338,0.338,0.338,0.338,0.338,0.338,0.339,0.339,0.339,0.339,0.339,0.34,0.34,0.34,0.34,0.341,0.341,0.341,0.341,0.341,0.341,0.342,0.342,0.342,0.342,0.342,0.3425,0.343,0.343,0.344,0.344,0.345,0.345,0.345,0.347,0.3475,0.348,0.348,0.35,0.351,0.352,0.353,0.35375,0.355,0.355,0.355,0.356,0.358,0.358,0.358,0.3585,0.359,0.359,0.361,0.361,0.362,0.362,0.363,0.364,0.36487500000000006,0.366,0.367,0.368,0.0,0.0,0.0,0.0,0.0,0.0,0.0,0.0,0.0,0.387,0.387,0.387,0.387,0.387,0.387,0.387,0.387,0.387,0.387,0.387,0.387,0.387,0.387,0.387,0.38675000000000004,0.386,0.386,0.385,0.385,0.385,0.385,0.384,0.384,0.384,0.384,0.384,0.384,0.383,0.383,0.382,0.382,0.382,0.382,0.381,0.381,0.381,0.381,0.381,0.381,0.38,0.38,0.38,0.379,0.378,0.378,0.378,0.377,0.377,0.377,0.377,0.377,0.377,0.376,0.376,0.376,0.375,0.375,0.374,0.374,0.374,0.373,0.37325,0.373,0.373,0.373,0.373,0.373,0.373,0.373,0.372,0.372,0.372,0.371,0.371,0.371,0.37,0.37,0.37,0.369,0.369,0.369,0.369,0.369,0.368,0.368,0.367,0.367,0.367,0.366,0.366,0.366,0.366,0.366,0.366,0.366,0.366,0.365,0.365,0.365,0.365,0.365,0.365,0.365,0.364,0.364,0.363,0.363,0.362,0.362,0.362,0.362,0.361,0.361,0.361,0.361,0.36,0.36,0.36,0.359,0.359,0.359,0.35875,0.358,0.358,0.358,0.358,0.358,0.357,0.357,0.357,0.357,0.356,0.356,0.356,0.356,0.356,0.355,0.355,0.355,0.355,0.355,0.354,0.354,0.354,0.353,0.353,0.353,0.352,0.352,0.352,0.352,0.352,0.351,0.351,0.351,0.351,0.351,0.351,0.351,0.35,0.35,0.35,0.35,0.349,0.349,0.349,0.348,0.348,0.348,0.348,0.348,0.348,0.348,0.347,0.347,0.347,0.347,0.347,0.346,0.346,0.346,0.345,0.345,0.345,0.345,0.345,0.344,0.344,0.343,0.343,0.343,0.342,0.342,0.342,0.342,0.342,0.342,0.342,0.342,0.342,0.0,0.0,0.0,0.0,0.0,0.0,0.0,0.0,0.0,0.0,0.0,0.0
0.0,0.0,0.0,0.0,0.0,0.0,0.0,0.0,0.0,0.0,0.0,0.0,0.0,0.0,0.0,0.0,0.0,0.0,0.0,0.0,0.0,0.0,0.0,0.0,0.0,0.0,0.0,0.502,0.502,0.502,0.502,0.502,0.502,0.501,0.501,0.5,0.5,0.499,0.499,0.498,0.497,0.497,0.497,0.496,0.496,0.495,0.495,0.495,0.495,0.494,0.494,0.493,0.493,0.492,0.491,0.491,0.49,0.49,0.489,0.489,0.489,0.488,0.488,0.488,0.487,0.486,0.486,0.485,0.483,0.483,0.483,0.482,0.482,0.482,0.482,0.482,0.482,0.482,0.481,0.481,0.481,0.48,0.48,0.479,0.477,0.477,0.476,0.476,0.475,0.475,0.475,0.475,0.475,0.474,0.474,0.474,0.473,0.473,0.472,0.472,0.471,0.471,0.471,0.47,0.47,0.47,0.469,0.469,0.469,0.468,0.468,0.468,0.467,0.466,0.465,0.465,0.464,0.464,0.463,0.463,0.463,0.462,0.462,0.462,0.461,0.461,0.46,0.46,0.459,0.459,0.459,0.458,0.458,0.458,0.457,0.457,0.457,0.457,0.457,0.456,0.456,0.456,0.456,0.456,0.456,0.455,0.455,0.455,0.455,0.454,0.453,0.453,0.452,0.452,0.452,0.451,0.451,0.45,0.449,0.448,0.448,0.448,0.0,0.0,0.0,0.0,0.0,0.0,0.0,0.0,0.0,0.0,0.0,0.0,0.0,0.0,0.0,0.326,0.325,0.3245,0.324,0.323,0.323,0.323,0.323,0.322,0.322,0.322,0.322,0.321,0.321,0.321,0.321,0.321,0.321,0.321,0.321,0.321,0.321,0.321,0.321,0.321,0.321,0.321,0.32,0.32,0.32,0.32,0.32,0.32,0.32,0.3205,0.321,0.321,0.321,0.321,0.321,0.321,0.321,0.321,0.321,0.321,0.321,0.321,0.321,0.3215,0.322,0.322,0.322,0.322,0.322,0.322,0.323,0.323,0.323,0.323,0.323,0.324,0.324,0.325,0.325,0.325,0.326,0.326,0.326,0.326,0.326,0.326,0.3265,0.327,0.327,0.327,0.327,0.328,0.328,0.329,0.329,0.329,0.33,0.33,0.33,0.331,0.3315,0.332,0.332,0.332,0.332,0.333,0.333,0.334,0.334,0.335,0.335,0.335,0.336,0.336,0.336,0.3365,0.337,0.337,0.338,0.338,0.338,0.338,0.338,0.338,0.339,0.339,0.339,0.339,0.339,0.339,0.34,0.34,0.34,0.34,0.341,0.341,0.341,0.341,0.341,0.341,0.342,0.342,0.342,0.342,0.342,0.342,0.342625,0.343,0.343,0.344,0.344,0.345,0.345,0.345,0.346,0.3471249999999999,0.348,0.348,0.35,0.351,0.3525,0.35324999999999995,0.354,0.355,0.356,0.357,0.358,0.358,0.3585,0.359,0.359,0.359,0.36,0.361,0.362,0.362,0.362,0.364,0.3645,0.365,0.366,0.368,0.0,0.0,0.0,0.377,0.0,0.0,0.0,0.386,0.0,0.0,0.3865,0.387,0.387,0.387,0.387,0.387,0.387,0.387,0.386,0.386,0.386,0.386,0.386,0.386,0.386,0.386,0.385,0.385,0.385,0.384,0.384,0.384,0.383,0.383,0.383,0.382,0.382,0.382,0.382,0.382,0.382,0.381,0.381,0.381,0.381,0.381,0.381,0.38,0.38,0.379,0.379,0.378,0.378,0.378,0.377,0.377,0.377,0.377,0.377,0.376,0.376,0.376,0.375,0.375,0.375,0.374,0.374,0.374,0.373,0.373,0.373,0.37274999999999997,0.373,0.373,0.372,0.372,0.372,0.372,0.371,0.371,0.371,0.37,0.37,0.37,0.37,0.369,0.369,0.369,0.369,0.369,0.368,0.368,0.367,0.367,0.367,0.366,0.366,0.366,0.366,0.366,0.366,0.365,0.365,0.365,0.365,0.365,0.365,0.365,0.364,0.364,0.364,0.364,0.364,0.363,0.363,0.363,0.362,0.362,0.361,0.361,0.361,0.36,0.36,0.36,0.36,0.359,0.359,0.359,0.359,0.358,0.358,0.358,0.358,0.358,0.357,0.357,0.357,0.357,0.356,0.356,0.356,0.356,0.355,0.355,0.355,0.355,0.355,0.355,0.354,0.354,0.354,0.354,0.353,0.353,0.352,0.352,0.352,0.352,0.352,0.352,0.351,0.351,0.351,0.351,0.351,0.35,0.35,0.35,0.35,0.349,0.349,0.349,0.349,0.349,0.348,0.348,0.348,0.348,0.348,0.347,0.347,0.347,0.347,0.347,0.346,0.346,0.346,0.346,0.346,0.346,0.345,0.345,0.345,0.345,0.344,0.344,0.344,0.343,0.343,0.342,0.342,0.342,0.342,0.342,0.342,0.341,0.341,0.341,0.341,0.341,0.341,0.0,0.0,0.0,0.0,0.0,0.0,0.0,0.0,0.0,0.0,0.0,0.0
0.0,0.0,0.0,0.0,0.0,0.0,0.0,0.0,0.0,0.0,0.0,0.0,0.0,0.0,0.0,0.0,0.0,0.0,0.0,0.0,0.0,0.0,0.0,0.0,0.0,0.0,0.0,0.502,0.502,0.501,0.501,0.501,0.5,0.5,0.499,0.498,0.496,0.496,0.496,0.496,0.496,0.496,0.495,0.495,0.495,0.494,0.494,0.493,0.493,0.492,0.491,0.491,0.49,0.489,0.489,0.489,0.489,0.488,0.488,0.488,0.488,0.487,0.487,0.486,0.485,0.483,0.483,0.482,0.482,0.482,0.482,0.482,0.481,0.481,0.481,0.481,0.481,0.48,0.48,0.48,0.479,0.478,0.477,0.477,0.476,0.476,0.475,0.4745,0.474,0.474,0.473,0.473,0.473,0.472,0.471,0.471,0.471,0.47,0.47,0.47,0.47,0.47,0.469,0.469,0.469,0.468,0.467,0.467,0.466,0.465,0.465,0.465,0.464,0.464,0.464,0.463,0.463,0.463,0.463,0.462,0.461,0.461,0.46,0.459,0.459,0.459,0.458,0.458,0.458,0.458,0.458,0.457,0.457,0.457,0.457,0.456,0.456,0.455,0.455,0.454,0.454,0.454,0.453,0.453,0.453,0.453,0.453,0.453,0.453,0.452,0.452,0.452,0.452,0.451,0.45,0.449,0.448,0.447,0.447,0.447,0.446,0.446,0.0,0.0,0.0,0.0,0.0,0.0,0.0,0.0,0.0,0.0,0.0,0.0,0.0,0.327,0.3265,0.326,0.325,0.324,0.323,0.323,0.323,0.323,0.323,0.322,0.322,0.322,0.322,0.321,0.321,0.321,0.321,0.321,0.321,0.321,0.321,0.321,0.321,0.321,0.321,0.321,0.321,0.321,0.321,0.321,0.321,0.321,0.321,0.321,0.321,0.321,0.321,0.321,0.321,0.321,0.321,0.321,0.321,0.321,0.321,0.321,0.321,0.321,0.322,0.322,0.322,0.322,0.322,0.322,0.323,0.323,0.323,0.323,0.323,0.324,0.324,0.324,0.325,0.325,0.326,0.326,0.326,0.326,0.326,0.326,0.326,0.3265,0.327,0.327,0.327,0.328,0.328,0.328,0.329,0.329,0.329,0.33,0.33,0.33,0.331,0.3315,0.332,0.332,0.332,0.332,0.333,0.333,0.334,0.335,0.335,0.335,0.335,0.336,0.336,0.3365,0.337,0.337,0.338,0.338,0.338,0.338,0.338,0.338,0.339,0.339,0.339,0.339,0.339,0.339,0.339,0.339,0.34,0.34,0.34,0.34,0.34,0.341,0.341,0.341,0.341,0.341,0.342,0.342,0.342,0.342,0.342,0.3425,0.343,0.343,0.344,0.344,0.344,0.345,0.345,0.345,0.346,0.347,0.3475,0.348,0.3495,0.351,0.353,0.3538125,0.355,0.356,0.358,0.358,0.3585,0.359,0.359,0.359,0.36,0.36,0.361,0.362,0.362,0.362,0.363,0.0,0.0,0.0,0.367,0.0,0.0,0.377,0.378,0.38,0.3825,0.385,0.385,0.385,0.386,0.386,0.386,0.387,0.386,0.386,0.386,0.386,0.386,0.386,0.386,0.386,0.386,0.386,0.386,0.385,0.385,0.385,0.385,0.384,0.384,0.383,0.383,0.382,0.382,0.382,0.381,0.381,0.381,0.381,0.381,0.381,0.381,0.381,0.381,0.381,0.38,0.38,0.38,0.379,0.378,0.378,0.378,0.377,0.377,0.377,0.377,0.376,0.376,0.376,0.376,0.375,0.375,0.374,0.374,0.374,0.373,0.373,0.373,0.373,0.373,0.373,0.372,0.372,0.372,0.371,0.371,0.371,0.371,0.37,0.37,0.37,0.37,0.369,0.369,0.369,0.369,0.369,0.369,0.368,0.368,0.367,0.367,0.366,0.366,0.366,0.366,0.366,0.365,0.365,0.365,0.365,0.365,0.365,0.365,0.364,0.364,0.364,0.364,0.364,0.363,0.363,0.363,0.363,0.362,0.362,0.362,0.3615,0.361125,0.361,0.36,0.36,0.359,0.359,0.359,0.359,0.359,0.359,0.358,0.358,0.358,0.358,0.357,0.357,0.356,0.356,0.356,0.356,0.356,0.355,0.355,0.355,0.355,0.355,0.355,0.355,0.354,0.354,0.354,0.354,0.353,0.353,0.353,0.352,0.352,0.352,0.352,0.352,0.352,0.352,0.351,0.351,0.351,0.351,0.351,0.35,0.35,0.35,0.349,0.349,0.349,0.348,0.348,0.348,0.348,0.348,0.348,0.347,0.347,0.347,0.346,0.346,0.346,0.346,0.346,0.345,0.345,0.345,0.345,0.345,0.345,0.345,0.345,0.345,0.344,0.344,0.343,0.343,0.342,0.342,0.342,0.342,0.341,0.341,0.341,0.341,0.341,0.341,0.341,0.341,0.34,0.34,0.34,0.0,0.0,0.0,0.0,0.0,0.0,0.0,0.0,0.0,0.0,0.0,0.0
0.0,0.0,0.0,0.0,0.0,0.0,0.0,0.0,0.0,0.0,0.0,0.0,0.0,0.0,0.0,0.0,0.0,0.0,0.0,0.0,0.0,0.0,0.0,0.0,0.0,0.0,0.501,0.501,0.501,0.5,0.5,0.499,0.498,0.497,0.497,0.496,0.495,0.495,0.495,0.495,0.495,0.495,0.494,0.493,0.493,0.492,0.491,0.491,0.49,0.489,0.489,0.489,0.488,0.488,0.488,0.488,0.488,0.488,0.487,0.487,0.486,0.486,0.485,0.484,0.483,0.482,0.482,0.481,0.481,0.481,0.48,0.48,0.48,0.479,0.479,0.479,0.478,0.478,0.478,0.478,0.477,0.476,0.476,0.476,0.475,0.475,0.474,0.473,0.472,0.472,0.471,0.471,0.47,0.47,0.47,0.47,0.47,0.469,0.469,0.469,0.469,0.468,0.468,0.467,0.467,0.466,0.465,0.464,0.464,0.464,0.463,0.463,0.463,0.463,0.463,0.462,0.462,0.461,0.461,0.46,0.459,0.458,0.458,0.458,0.458,0.458,0.457,0.457,0.457,0.457,0.457,0.456,0.456,0.455,0.455,0.454,0.453,0.453,0.453,0.453,0.452,0.452,0.452,0.452,0.452,0.452,0.452,0.452,0.452,0.451,0.451,0.45,0.449,0.448,0.447,0.447,0.447,0.446,0.446,0.446,0.445,0.444,0.442,0.0,0.0,0.0,0.0,0.0,0.0,0.0,0.0,0.0,0.0,0.0,0.0,0.0,0.0,0.3255,0.324375,0.323,0.323,0.323,0.323,0.323,0.322,0.322,0.322,0.322,0.322,0.321,0.321,0.321,0.321,0.321,0.321,0.321,0.321,0.321,0.321,0.321,0.321,0.321,0.321,0.321,0.321,0.321,0.321,0.321,0.321,0.321,0.321,0.321,0.321,0.321,0.321,0.321,0.321,0.321,0.321,0.321,0.321,0.322,0.322,0.322,0.322,0.322,0.322,0.322,0.323,0.323,0.323,0.323,0.323,0.323,0.324,0.324,0.324,0.325,0.325,0.326,0.326,0.326,0.326,0.326,0.326,0.3265,0.327,0.327,0.327,0.328,0.328,0.328,0.329,0.329,0.329,0.329,0.33,0.33,0.331,0.331,0.3315,0.332,0.332,0.332,0.333,0.333,0.333,0.334,0.335,0.335,0.335,0.335,0.336,0.336,0.3365,0.337,0.337,0.338,0.338,0.338,0.338,0.339,0.339,0.339,0.339,0.339,0.339,0.339,0.339,0.339,0.34,0.34,0.34,0.34,0.34,0.341,0.341,0.341,0.341,0.341,0.341,0.342,0.342,0.342,0.342,0.342,0.3425,0.343,0.343,0.343,0.344,0.344,0.344,0.345,0.345,0.345,0.346,0.347,0.3475,0.348,0.35,0.352,0.353,0.354,0.355,0.358,0.358,0.3585,0.359,0.359,0.36,0.36,0.36074999999999996,0.361,0.362,0.362,0.362,0.362,0.0,0.0,0.0,0.0,0.0,0.0,0.381,0.381,0.38225000000000003,0.385,0.385,0.385,0.385,0.385,0.385,0.386,0.386,0.386,0.386,0.386,0.386,0.386,0.386,0.385,0.385,0.385,0.385,0.385,0.385,0.385,0.384,0.384,0.384,0.383,0.382,0.382,0.381,0.381,0.381,0.381,0.381,0.381,0.381,0.381,0.381,0.381,0.381,0.38,0.38,0.38,0.379,0.379,0.378,0.378,0.377,0.377,0.377,0.377,0.377,0.376,0.376,0.375,0.375,0.374,0.374,0.373,0.373,0.373,0.373,0.373,0.373,0.373,0.372,0.372,0.371,0.371,0.371,0.371,0.37,0.37,0.37,0.37,0.37,0.369,0.369,0.369,0.369,0.369,0.369,0.368,0.368,0.368,0.367,0.367,0.366,0.366,0.366,0.366,0.366,0.366,0.365,0.365,0.365,0.364,0.364,0.364,0.364,0.364,0.363,0.363,0.363,0.363,0.363,0.362,0.362,0.362,0.362,0.362,0.362,0.361,0.361,0.36,0.36,0.359,0.359,0.359,0.359,0.359,0.358,0.358,0.358,0.358,0.357,0.357,0.356,0.356,0.356,0.355,0.355,0.355,0.355,0.355,0.355,0.355,0.355,0.355,0.354,0.354,0.354,0.353,0.353,0.353,0.352,0.352,0.352,0.352,0.352,0.352,0.351,0.351,0.351,0.351,0.351,0.351,0.351,0.35,0.35,0.35,0.349,0.349,0.349,0.349,0.348,0.348,0.348,0.348,0.348,0.348,0.347,0.347,0.347,0.346,0.346,0.345,0.345,0.345,0.344,0.344,0.344,0.344,0.344,0.344,0.344,0.344,0.343,0.343,0.343,0.342,0.342,0.342,0.342,0.342,0.341,0.341,0.34,0.34,0.34,0.34,0.339,0.339,0.339,0.339,0.339,0.339,0.339,0.339,0.339,0.338,0.0,0.0,0.0,0.0,0.0,0.0,0.0,0.0,0.0,0.0,0.0
0.0,0.0,0.0,0.0,0.0,0.0,0.0,0.0,0.0,0.0,0.0,0.0,0.0,0.0,0.0,0.0,0.0,0.0,0.0,0.0,0.0,0.0,0.0,0.0,0.0,0.0,0.0,0.0,0.499,0.498,0.497,0.497,0.496,0.495,0.495,0.495,0.494,0.494,0.493,0.493,0.493,0.493,0.492,0.491,0.491,0.49,0.489,0.489,0.488,0.488,0.488,0.488,0.487,0.487,0.487,0.487,0.486,0.486,0.485,0.485,0.484,0.483,0.482,0.482,0.482,0.481,0.48,0.48,0.479,0.479,0.478,0.478,0.477,0.477,0.477,0.477,0.477,0.476,0.476,0.476,0.476,0.475,0.475,0.474,0.474,0.473,0.472,0.471,0.47,0.47,0.47,0.47,0.469,0.469,0.469,0.469,0.469,0.468,0.468,0.467,0.467,0.466,0.465,0.465,0.464,0.464,0.464,0.463,0.463,0.463,0.463,0.462,0.462,0.461,0.461,0.46,0.459,0.459,0.458,0.458,0.458,0.457,0.457,0.457,0.457,0.457,0.456,0.456,0.456,0.455,0.455,0.455,0.454,0.453,0.453,0.453,0.452,0.452,0.452,0.452,0.452,0.452,0.451,0.451,0.451,0.451,0.451,0.451,0.45,0.449,0.448,0.447,0.447,0.447,0.446,0.446,0.446,0.445,0.444,0.443,0.443,0.442,0.4415,0.0,0.0,0.0,0.0,0.0,0.0,0.0,0.0,0.0,0.0,0.0,0.0,0.0,0.0,0.325,0.324,0.323,0.323,0.323,0.323,0.323,0.322,0.322,0.322,0.322,0.322,0.321,0.321,0.321,0.321,0.321,0.321,0.321,0.321,0.321,0.321,0.321,0.321,0.321,0.321,0.321,0.321,0.321,0.321,0.321,0.321,0.321,0.321,0.321,0.321,0.322,0.322,0.322,0.322,0.322,0.322,0.322,0.322,0.322,0.322,0.322,0.323,0.323,0.323,0.323,0.323,0.323,0.323,0.323,0.323,0.324,0.324,0.324,0.325,0.325,0.326,0.326,0.326,0.326,0.3265,0.327,0.327,0.327,0.327,0.327,0.328,0.328,0.328,0.329,0.329,0.329,0.329,0.33,0.33,0.331,0.331,0.3315,0.332,0.332,0.332,0.333,0.333,0.333,0.334,0.335,0.335,0.335,0.335,0.336,0.336,0.336,0.336625,0.337,0.338,0.338,0.338,0.338,0.339,0.339,0.339,0.339,0.339,0.339,0.34,0.34,0.34,0.34,0.34,0.34,0.34,0.34,0.341,0.341,0.341,0.341,0.341,0.341,0.342,0.342,0.342,0.342,0.342,0.342,0.342625,0.343,0.343,0.344,0.344,0.344,0.344,0.345,0.345,0.345,0.346,0.347,0.3475,0.348,0.3495,0.351,0.3525,0.354,0.355,0.358,0.3585,0.359,0.36,0.36,0.361,0.361,0.362,0.362,0.362,0.362,0.362,0.0,0.0,0.0,0.0,0.0,0.0,0.0,0.385,0.385,0.385,0.385,0.385,0.385,0.385,0.385,0.385,0.385,0.385,0.385,0.385,0.385,0.385,0.385,0.385,0.385,0.385,0.385,0.385,0.385,0.384,0.384,0.383,0.383,0.382,0.381,0.381,0.381,0.381,0.381,0.381,0.38,0.38,0.38,0.38,0.38,0.38,0.38,0.38,0.378,0.378,0.378,0.378,0.377,0.377,0.377,0.377,0.377,0.376,0.376,0.376,0.375,0.374,0.374,0.373,0.373,0.373,0.373,0.373,0.373,0.373,0.372,0.372,0.371,0.371,0.371,0.37,0.37,0.37,0.37,0.369,0.369,0.369,0.369,0.369,0.369,0.369,0.369,0.368,0.368,0.367,0.367,0.367,0.366,0.366,0.366,0.366,0.366,0.366,0.365,0.365,0.365,0.364,0.364,0.364,0.363,0.363,0.363,0.363,0.363,0.362,0.362,0.362,0.362,0.362,0.362,0.362,0.362,0.362,0.361,0.36,0.36,0.359,0.359,0.359,0.358,0.358,0.358,0.358,0.358,0.358,0.358,0.357,0.356,0.356,0.356,0.355,0.355,0.355,0.355,0.355,0.355,0.355,0.354,0.354,0.354,0.354,0.353,0.353,0.353,0.352,0.352,0.352,0.352,0.352,0.351,0.351,0.351,0.351,0.351,0.351,0.351,0.35,0.349,0.349,0.349,0.348,0.348,0.348,0.348,0.348,0.348,0.347,0.347,0.347,0.346,0.346,0.346,0.345,0.345,0.345,0.345,0.345,0.345,0.345,0.344,0.344,0.343,0.343,0.343,0.343,0.343,0.343,0.343,0.342,0.3425,0.342,0.342,0.342,0.342,0.342,0.342,0.341,0.341,0.34,0.34,0.34,0.339,0.339,0.339,0.339,0.339,0.339,0.338,0.338,0.338,0.338,0.338,0.338,0.337,0.0,0.0,0.0,0.0,0.0,0.0,0.0,0.0,0.0,0.0,0.0
0.0,0.0,0.0,0.0,0.0,0.0,0.0,0.0,0.0,0.0,0.0,0.0,0.0,0.0,0.0,0.0,0.0,0.0,0.0,0.0,0.0,0.0,0.0,0.0,0.0,0.0,0.0,0.0,0.497,0.496,0.495,0.495,0.495,0.494,0.493,0.4925,0.492,0.492,0.491,0.491,0.491,0.49,0.49,0.489,0.489,0.488,0.488,0.488,0.487,0.487,0.486,0.486,0.485,0.485,0.485,0.485,0.484,0.483,0.483,0.483,0.482,0.482,0.481,0.481,0.48,0.479,0.478,0.477,0.477,0.477,0.476,0.476,0.476,0.476,0.476,0.476,0.475,0.475,0.475,0.475,0.475,0.474,0.474,0.473,0.472,0.471,0.47,0.469,0.469,0.469,0.469,0.469,0.468,0.468,0.468,0.467,0.467,0.466,0.465,0.465,0.465,0.464,0.464,0.463,0.463,0.463,0.463,0.462,0.462,0.462,0.461,0.46,0.46,0.4595,0.458875,0.458,0.458,0.458,0.457,0.457,0.457,0.456,0.456,0.456,0.456,0.455,0.454,0.454,0.453,0.453,0.453,0.452,0.452,0.452,0.452,0.452,0.452,0.452,0.451,0.451,0.451,0.45,0.45,0.449,0.449,0.449,0.449,0.448,0.448,0.447,0.447,0.446,0.446,0.446,0.445,0.445,0.444,0.444,0.443,0.442,0.441,0.441,0.441,0.439,0.437,0.436,0.0,0.0,0.0,0.0,0.0,0.0,0.0,0.0,0.0,0.0,0.0,0.0,0.324,0.323,0.323,0.323,0.323,0.322,0.322,0.322,0.322,0.322,0.321,0.321,0.321,0.321,0.321,0.321,0.321,0.321,0.321,0.321,0.321,0.321,0.321,0.321,0.321,0.321,0.321,0.321,0.321,0.321,0.321,0.321,0.321,0.321,0.322,0.322,0.322,0.322,0.322,0.322,0.323,0.323,0.322,0.322,0.323,0.323,0.323,0.323,0.323,0.323,0.323,0.323,0.323,0.324,0.324,0.324,0.324,0.325,0.326,0.326,0.326,0.326,0.326,0.3265,0.327,0.327,0.327,0.327,0.327,0.328,0.328,0.329,0.329,0.329,0.329,0.33,0.33,0.33,0.331,0.331,0.3315,0.332,0.332,0.332,0.332,0.333,0.334,0.334,0.335,0.335,0.335,0.336,0.336,0.336,0.336,0.3365,0.337,0.338,0.338,0.338,0.339,0.339,0.339,0.339,0.34,0.34,0.34,0.34,0.34,0.34,0.34,0.34,0.34,0.34,0.341,0.341,0.341,0.341,0.341,0.341,0.341,0.341,0.342,0.342,0.342,0.342,0.342,0.3425,0.343,0.343,0.344,0.344,0.344,0.344,0.345,0.345,0.345,0.345,0.346,0.346,0.347,0.348,0.0,0.0,0.0,0.0,0.356,0.3575,0.359,0.36,0.361,0.361,0.362,0.362,0.362,0.362,0.0,0.0,0.0,0.0,0.0,0.0,0.385,0.385,0.385,0.385,0.385,0.385,0.385,0.385,0.385,0.385,0.385,0.385,0.385,0.385,0.385,0.385,0.385,0.385,0.385,0.385,0.384,0.384,0.384,0.384,0.384,0.383,0.383,0.382,0.382,0.381,0.381,0.381,0.381,0.38,0.38,0.38,0.379,0.379,0.379,0.379,0.379,0.378,0.378,0.378,0.378,0.377,0.377,0.377,0.377,0.377,0.377,0.376,0.376,0.376,0.375,0.375,0.374,0.374,0.373,0.373,0.373,0.373,0.373,0.372,0.372,0.372,0.372,0.371,0.371,0.37,0.37,0.37,0.37,0.369,0.369,0.369,0.369,0.369,0.369,0.369,0.368,0.368,0.368,0.367,0.367,0.366,0.366,0.366,0.366,0.366,0.366,0.365,0.365,0.365,0.364,0.364,0.364,0.363,0.363,0.363,0.363,0.362,0.362,0.362,0.362,0.362,0.362,0.362,0.362,0.361,0.361,0.361,0.36,0.36,0.36,0.359,0.359,0.359,0.359,0.358,0.358,0.358,0.358,0.357,0.357,0.356,0.356,0.356,0.355,0.355,0.355,0.355,0.355,0.355,0.355,0.355,0.354,0.354,0.354,0.354,0.353,0.353,0.352,0.352,0.351,0.351,0.351,0.351,0.351,0.35,0.35,0.35,0.35,0.349,0.349,0.349,0.349,0.349,0.348,0.348,0.348,0.348,0.348,0.348,0.348,0.347,0.347,0.346,0.346,0.346,0.345,0.345,0.345,0.345,0.345,0.345,0.345,0.345,0.344,0.344,0.344,0.343,0.343,0.342,0.342,0.342,0.342,0.342,0.342,0.342,0.34175000000000005,0.342,0.342,0.341,0.341,0.341,0.341,0.341,0.34,0.34,0.339,0.339,0.339,0.339,0.339,0.338,0.338,0.338,0.338,0.338,0.338,0.338,0.337,0.337,0.337,0.0,0.0,0.0,0.0,0.0,0.0,0.0,0.0,0.0,0.0,0.0,0.0
0.0,0.0,0.0,0.0,0.0,0.0,0.0,0.0,0.0,0.0,0.0,0.0,0.0,0.0,0.0,0.0,0.0,0.0,0.0,0.0,0.0,0.0,0.0,0.0,0.0,0.0,0.0,0.495,0.495,0.494,0.494,0.493,0.492,0.492,0.491,0.49,0.49,0.49,0.489,0.489,0.489,0.489,0.489,0.488,0.487,0.487,0.487,0.486,0.485,0.485,0.484,0.484,0.483,0.483,0.483,0.483,0.482,0.482,0.482,0.482,0.481,0.481,0.48,0.479,0.478,0.477,0.476,0.476,0.476,0.476,0.476,0.475,0.475,0.475,0.475,0.475,0.474,0.474,0.474,0.473,0.473,0.472,0.471,0.47,0.47,0.469,0.469,0.468,0.468,0.467,0.467,0.467,0.467,0.466,0.465,0.465,0.465,0.464,0.464,0.464,0.463,0.463,0.463,0.462,0.462,0.461,0.461,0.46,0.46,0.46,0.459,0.458,0.458,0.458,0.457,0.457,0.457,0.457,0.456,0.456,0.455,0.455,0.455,0.454,0.453,0.453,0.452,0.452,0.452,0.452,0.452,0.452,0.451,0.451,0.451,0.451,0.45,0.45,0.449,0.449,0.449,0.448,0.448,0.448,0.447,0.447,0.447,0.447,0.446,0.446,0.446,0.446,0.445,0.444,0.444,0.443,0.442,0.442,0.441,0.441,0.44,0.44,0.439,0.438,0.437,0.436,0.0,0.0,0.0,0.0,0.0,0.0,0.0,0.0,0.0,0.0,0.0,0.0,0.324,0.323,0.323,0.323,0.322,0.322,0.322,0.322,0.322,0.321,0.321,0.321,0.321,0.321,0.321,0.321,0.321,0.321,0.321,0.321,0.321,0.321,0.321,0.321,0.321,0.321,0.321,0.321,0.321,0.321,0.321,0.321,0.321,0.322,0.322,0.322,0.322,0.323,0.323,0.323,0.323,0.323,0.323,0.323,0.323,0.323,0.323,0.323,0.323,0.323,0.324,0.324,0.324,0.324,0.324,0.324,0.325,0.326,0.326,0.326,0.326,0.326,0.3265,0.327,0.327,0.327,0.327,0.328,0.328,0.328,0.329,0.329,0.329,0.329,0.33,0.33,0.331,0.331,0.331,0.3315,0.332,0.332,0.332,0.332,0.333,0.333,0.334,0.335,0.335,0.335,0.335,0.336,0.336,0.3365,0.337,0.337,0.338,0.338,0.338,0.339,0.339,0.339,0.34,0.34,0.34,0.341,0.341,0.341,0.341,0.341,0.341,0.341,0.341,0.341,0.341,0.341,0.341,0.341,0.341,0.341,0.341,0.341,0.342,0.342,0.342,0.342,0.3425,0.343,0.343,0.344,0.344,0.344,0.345,0.345,0.345,0.345,0.345,0.345,0.346,0.346,0.347,0.348,0.0,0.0,0.0,0.0,0.0,0.0,0.361,0.362,0.362,0.362,0.362,0.362,0.363,0.0,0.0,0.0,0.0,0.0,0.0,0.0,0.385,0.385,0.385,0.385,0.385,0.385,0.385,0.385,0.38475,0.385,0.384,0.385,0.385,0.385,0.385,0.384,0.384,0.384,0.384,0.383,0.383,0.383,0.383,0.382,0.382,0.382,0.382,0.381,0.381,0.381,0.38,0.38,0.379,0.379,0.378,0.378,0.378,0.378,0.377,0.377,0.378,0.3775,0.377,0.377,0.377,0.377,0.377,0.377,0.376,0.376,0.376,0.375,0.375,0.374,0.374,0.373,0.373,0.373,0.373,0.373,0.372,0.372,0.372,0.371,0.371,0.37,0.37,0.37,0.37,0.37,0.369,0.369,0.369,0.369,0.369,0.369,0.368,0.368,0.368,0.367,0.367,0.367,0.366,0.366,0.366,0.366,0.366,0.366,0.365,0.365,0.364,0.364,0.364,0.364,0.363,0.363,0.363,0.362,0.362,0.362,0.362,0.362,0.362,0.362,0.362,0.361,0.361,0.361,0.36,0.36,0.36,0.359,0.359,0.359,0.359,0.359,0.358,0.358,0.358,0.358,0.358,0.357,0.356,0.356,0.356,0.356,0.355,0.355,0.355,0.355,0.354,0.353,0.353,0.353,0.353,0.352,0.352,0.352,0.352,0.352,0.352,0.351,0.351,0.351,0.351,0.351,0.35,0.35,0.35,0.349,0.349,0.349,0.349,0.348,0.348,0.348,0.348,0.348,0.348,0.348,0.348,0.347,0.347,0.347,0.347,0.346,0.346,0.345,0.345,0.345,0.345,0.345,0.345,0.344,0.344,0.344,0.344,0.343,0.343,0.342,0.342,0.342,0.342,0.342,0.342,0.342,0.341,0.341,0.341,0.341,0.341,0.341,0.341,0.34,0.34,0.34,0.34,0.34,0.339,0.339,0.339,0.339,0.338,0.338,0.338,0.338,0.338,0.338,0.337,0.337,0.337,0.337,0.336,0.336,0.336,0.0,0.0,0.0,0.0,0.0,0.0,0.0,0.0,0.0,0.0,0.0,0.0
0.0,0.0,0.0,0.0,0.0,0.0,0.0,0.0,0.0,0.0,0.0,0.0,0.0,0.0,0.0,0.0,0.0,0.0,0.0,0.0,0.0,0.0,0.0,0.0,0.0,0.0,0.0,0.0,0.4925,0.4915,0.491375,0.491,0.49,0.49,0.489,0.489,0.489,0.488,0.488,0.488,0.488,0.487,0.487,0.486,0.485,0.485,0.484,0.484,0.483,0.483,0.482,0.482,0.482,0.482,0.482,0.482,0.481,0.481,0.481,0.48,0.479,0.478,0.477,0.477,0.476,0.476,0.475,0.475,0.475,0.474,0.474,0.474,0.473,0.473,0.473,0.472,0.472,0.471,0.471,0.471,0.47,0.47,0.47,0.469,0.469,0.468,0.468,0.467,0.466,0.466,0.465,0.465,0.465,0.464,0.464,0.464,0.463,0.463,0.463,0.462,0.462,0.461,0.46,0.46,0.459,0.459,0.459,0.458,0.458,0.458,0.458,0.457,0.457,0.457,0.456,0.455,0.455,0.455,0.454,0.454,0.453,0.453,0.453,0.452,0.452,0.452,0.452,0.452,0.451,0.451,0.451,0.45,0.45,0.449,0.449,0.449,0.448,0.448,0.448,0.447,0.447,0.447,0.447,0.447,0.446,0.446,0.446,0.446,0.445,0.445,0.444,0.444,0.443,0.442,0.442,0.442,0.441,0.441,0.441,0.439,0.439,0.438,0.437,0.436,0.436,0.436,0.0,0.0,0.0,0.0,0.0,0.0,0.0,0.0,0.0,0.0,0.0,0.0,0.0,0.323,0.323,0.322,0.322,0.322,0.322,0.322,0.321,0.321,0.321,0.321,0.321,0.321,0.321,0.321,0.321,0.321,0.321,0.321,0.321,0.321,0.321,0.321,0.321,0.321,0.321,0.321,0.321,0.321,0.321,0.321,0.321,0.322,0.322,0.323,0.323,0.323,0.323,0.323,0.323,0.323,0.323,0.323,0.323,0.324,0.324,0.324,0.324,0.324,0.324,0.324,0.324,0.324,0.325,0.325,0.326,0.326,0.326,0.326,0.326,0.3265,0.327,0.327,0.327,0.328,0.328,0.328,0.328,0.329,0.329,0.329,0.329,0.33,0.33,0.331,0.331,0.3315,0.332,0.332,0.332,0.332,0.332,0.333,0.333,0.334,0.335,0.335,0.335,0.335,0.336,0.336,0.336,0.336625,0.337,0.338,0.338,0.338,0.339,0.339,0.34,0.34,0.341,0.341,0.341,0.341,0.341,0.341,0.341,0.341,0.341,0.341,0.341,0.341,0.341,0.341,0.341,0.341,0.341,0.341,0.342,0.342,0.342,0.342,0.342,0.3425,0.343,0.344,0.344,0.344,0.345,0.345,0.345,0.345,0.345,0.345,0.345,0.345,0.346,0.346,0.347,0.3474999999999999,0.348,0.0,0.0,0.0,0.0,0.0,0.0,0.363,0.364,0.364,0.364,0.364,0.0,0.0,0.0,0.0,0.0,0.0,0.385,0.385,0.385,0.385,0.385,0.385,0.385,0.385,0.385,0.384,0.384,0.384,0.384,0.384,0.384,0.384,0.384,0.383,0.383,0.383,0.382,0.382,0.382,0.382,0.382,0.381,0.381,0.381,0.381,0.381,0.38,0.38,0.379,0.378,0.377,0.377,0.377,0.377,0.377,0.377,0.377,0.377,0.377,0.376875,0.377,0.376,0.376,0.376,0.376,0.376,0.375,0.375,0.374,0.374,0.373,0.373,0.373,0.373,0.373,0.372,0.372,0.371,0.371,0.371,0.37,0.37,0.37,0.37,0.37,0.369,0.369,0.369,0.369,0.368,0.368,0.368,0.367,0.367,0.367,0.367,0.366,0.366,0.366,0.366,0.366,0.366,0.366,0.365,0.365,0.365,0.365,0.364,0.364,0.363,0.363,0.363,0.362,0.362,0.362,0.362,0.362,0.362,0.362,0.361,0.361,0.361,0.361,0.36,0.36,0.359,0.359,0.359,0.359,0.359,0.359,0.358,0.358,0.358,0.358,0.358,0.357,0.355,0.355,0.355,0.355,0.355,0.355,0.354,0.354,0.354,0.353,0.353,0.352,0.352,0.352,0.352,0.352,0.352,0.352,0.352,0.351,0.351,0.351,0.351,0.351,0.35,0.35,0.35,0.349,0.349,0.348,0.348,0.348,0.348,0.348,0.0,0.0,0.348,0.348,0.347,0.347,0.347,0.347,0.346,0.346,0.345,0.345,0.345,0.345,0.345,0.345,0.345,0.344,0.344,0.344,0.343,0.343,0.342,0.342,0.342,0.342,0.342,0.342,0.341,0.341,0.341,0.341,0.341,0.341,0.341,0.341,0.34,0.34,0.34,0.339,0.339,0.339,0.339,0.339,0.339,0.339,0.338,0.338,0.338,0.338,0.338,0.338,0.337,0.337,0.337,0.336,0.336,0.336,0.336,0.336,0.335,0.335,0.335,0.0,0.0,0.0,0.0,0.0,0.0,0.0,0.0,0.0,0.0,0.0
0.0,0.0,0.0,0.0,0.0,0.0,0.0,0.0,0.0,0.0,0.0,0.0,0.0,0.0,0.0,0.0,0.0,0.0,0.0,0.0,0.0,0.0,0.0,0.0,0.0,0.0,0.0,0.0,0.49,0.489,0.489,0.489,0.489,0.488,0.488,0.488,0.488,0.487,0.487,0.486,0.485,0.485,0.484,0.483,0.483,0.483,0.482,0.482,0.482,0.482,0.482,0.482,0.481,0.481,0.481,0.48,0.48,0.479,0.478,0.478,0.477,0.476,0.476,0.476,0.475,0.475,0.473,0.473,0.473,0.472,0.472,0.471,0.471,0.471,0.47,0.47,0.47,0.47,0.469,0.469,0.469,0.469,0.468,0.467,0.467,0.466,0.465,0.465,0.464,0.464,0.464,0.464,0.464,0.463,0.463,0.463,0.462,0.461,0.461,0.46,0.459,0.459,0.458,0.458,0.458,0.458,0.458,0.457,0.457,0.457,0.456,0.456,0.455,0.454,0.454,0.453,0.453,0.453,0.452,0.452,0.452,0.452,0.452,0.452,0.452,0.451,0.451,0.45,0.449,0.449,0.448,0.448,0.448,0.448,0.447,0.447,0.447,0.447,0.447,0.446,0.446,0.446,0.446,0.445,0.445,0.445,0.444,0.443,0.443,0.442,0.442,0.442,0.441,0.441,0.441,0.441,0.441,0.44,0.439,0.438,0.437,0.436,0.436,0.436,0.436,0.435,0.435,0.434,0.433,0.0,0.0,0.0,0.0,0.0,0.0,0.0,0.0,0.0,0.0,0.0,0.0,0.0,0.0,0.0,0.0,0.0,0.0,0.0,0.321,0.321,0.321,0.321,0.321,0.321,0.321,0.321,0.321,0.321,0.0,0.0,0.321,0.321,0.322,0.321,0.321,0.321,0.321,0.321,0.321,0.321,0.321,0.322,0.3225,0.323,0.323,0.323,0.323,0.323,0.324,0.323,0.324,0.324,0.324,0.324,0.324,0.324,0.324,0.324,0.325,0.325,0.325,0.325,0.325,0.326,0.326,0.326,0.326,0.326,0.3265,0.327,0.327,0.327,0.328,0.328,0.328,0.329,0.329,0.329,0.329,0.33,0.33,0.33,0.331,0.331,0.3315,0.332,0.332,0.332,0.332,0.333,0.333,0.333,0.334,0.335,0.335,0.335,0.336,0.336,0.336,0.3365,0.337,0.337,0.338,0.338,0.338,0.339,0.339,0.34,0.341,0.341,0.341,0.341,0.3415,0.342,0.342,0.342,0.342,0.341,0.341,0.341,0.341,0.341,0.341,0.341,0.341,0.342,0.342,0.342,0.342,0.342,0.342,0.342,0.3425,0.343,0.343,0.344,0.344,0.345,0.345,0.345,0.345,0.345,0.345,0.345,0.345,0.346,0.346,0.346,0.346,0.347,0.0,0.0,0.0,0.0,0.0,0.0,0.0,0.0,0.0,0.0,0.3675,0.0,0.0,0.373,0.0,0.0,0.383,0.3835,0.384,0.385,0.385,0.385,0.385,0.385,0.384,0.384,0.384,0.384,0.384,0.383,0.383,0.383,0.383,0.383,0.382,0.382,0.382,0.382,0.381,0.381,0.381,0.381,0.381,0.381,0.381,0.38,0.38,0.379,0.379,0.377,0.377,0.377,0.377,0.377,0.377,0.376,0.376,0.376,0.376,0.376,0.376,0.376,0.375,0.375,0.375,0.374,0.374,0.374,0.374,0.373,0.373,0.373,0.373,0.372,0.372,0.372,0.371,0.371,0.371,0.37,0.37,0.37,0.37,0.37,0.369,0.369,0.369,0.369,0.368,0.367,0.367,0.367,0.366,0.366,0.366,0.366,0.366,0.366,0.366,0.366,0.365,0.365,0.365,0.365,0.365,0.364,0.364,0.364,0.363,0.363,0.363,0.362,0.362,0.362,0.362,0.362,0.362,0.361,0.361,0.361,0.361,0.36,0.36,0.359,0.359,0.359,0.359,0.359,0.359,0.358,0.358,0.357,0.357,0.356,0.356,0.355,0.355,0.355,0.355,0.355,0.355,0.355,0.354,0.354,0.354,0.353,0.353,0.352,0.352,0.352,0.352,0.352,0.352,0.351,0.351,0.351,0.351,0.351,0.351,0.351,0.35,0.35,0.349,0.349,0.349,0.348,0.348,0.348,0.348,0.348,0.348,0.348,0.347,0.0,0.0,0.3465,0.346,0.346,0.346,0.345,0.345,0.345,0.345,0.345,0.345,0.345,0.344,0.344,0.344,0.344,0.343,0.343,0.342,0.342,0.342,0.342,0.342,0.341,0.341,0.341,0.341,0.341,0.341,0.341,0.34,0.34,0.34,0.34,0.339,0.339,0.339,0.339,0.339,0.339,0.339,0.339,0.338,0.338,0.338,0.338,0.338,0.337,0.337,0.337,0.337,0.336,0.336,0.336,0.336,0.336,0.335,0.335,0.335,0.335,0.335,0.335,0.0,0.0,0.0,0.0,0.0,0.0,0.0,0.0,0.0,0.0,0.0
0.0,0.0,0.0,0.0,0.0,0.0,0.0,0.0,0.0,0.0,0.0,0.0,0.0,0.0,0.0,0.0,0.0,0.0,0.0,0.0,0.0,0.0,0.0,0.0,0.0,0.0,0.0,0.489,0.488,0.488,0.488,0.487,0.487,0.487,0.487,0.486,0.485,0.485,0.484,0.484,0.483,0.483,0.482,0.482,0.482,0.482,0.481,0.481,0.481,0.481,0.481,0.48,0.48,0.479,0.478,0.478,0.477,0.477,0.476,0.476,0.476,0.475,0.475,0.474,0.473,0.472,0.471,0.471,0.471,0.47,0.47,0.47,0.47,0.47,0.469,0.469,0.469,0.469,0.468,0.468,0.467,0.466,0.465,0.465,0.464,0.464,0.464,0.464,0.463,0.463,0.463,0.463,0.463,0.462,0.461,0.46,0.46,0.459,0.459,0.458,0.458,0.458,0.457,0.457,0.457,0.457,0.457,0.456,0.456,0.455,0.454,0.453,0.453,0.453,0.452,0.452,0.452,0.452,0.452,0.452,0.452,0.451,0.45,0.45,0.449,0.449,0.449,0.448,0.448,0.448,0.447,0.447,0.447,0.447,0.447,0.446,0.446,0.446,0.446,0.446,0.445,0.444,0.444,0.443,0.443,0.442,0.442,0.441,0.441,0.441,0.441,0.441,0.441,0.44,0.44,0.439,0.439,0.438,0.437,0.436,0.436,0.436,0.436,0.435,0.435,0.435,0.434,0.432,0.432,0.431,0.0,0.0,0.0,0.0,0.0,0.0,0.0,0.0,0.0,0.0,0.0,0.0,0.0,0.0,0.0,0.0,0.0,0.0,0.321,0.321,0.321,0.321,0.321,0.321,0.321,0.321,0.321,0.321,0.0,0.0,0.321,0.322,0.322,0.322,0.321,0.321,0.0,0.0,0.0,0.0,0.322,0.0,0.0,0.0,0.0,0.324,0.324,0.324,0.324,0.324,0.324,0.324,0.324,0.324,0.324,0.325,0.325,0.325,0.325,0.3255,0.326,0.326,0.326,0.326,0.326,0.326,0.3265,0.327,0.327,0.327,0.327,0.328,0.328,0.328,0.329,0.329,0.329,0.329,0.33,0.33,0.33,0.331,0.331,0.3315,0.332,0.332,0.332,0.332,0.333,0.333,0.333,0.334,0.335,0.335,0.335,0.335,0.336,0.336,0.336,0.336625,0.337,0.338,0.338,0.338,0.339,0.339,0.34,0.341,0.341,0.3415,0.342,0.342,0.342,0.342,0.342,0.342,0.342,0.342,0.342,0.342,0.342,0.342,0.342,0.342,0.342,0.342,0.342,0.342,0.342,0.342,0.3425,0.343,0.343,0.344,0.344,0.345,0.345,0.345,0.345,0.345,0.346,0.346,0.346,0.346,0.346,0.346,0.346,0.346,0.346,0.346,0.0,0.0,0.0,0.0,0.0,0.0,0.0,0.0,0.0,0.0,0.371,0.0,0.0,0.376,0.3785,0.381,0.383,0.383375,0.384,0.384,0.384,0.384,0.384,0.384,0.384,0.384,0.384,0.383,0.383,0.383,0.382,0.382,0.382,0.382,0.382,0.381,0.381,0.381,0.381,0.381,0.381,0.381,0.38,0.38,0.379,0.379,0.378,0.377,0.377,0.377,0.377,0.376,0.376,0.376,0.376,0.375,0.375,0.375,0.374,0.374,0.374,0.374,0.373,0.373,0.373,0.373,0.373,0.373,0.373,0.373,0.372,0.372,0.371,0.371,0.371,0.37,0.37,0.37,0.37,0.37,0.369,0.369,0.369,0.369,0.369,0.368,0.368,0.367,0.367,0.366,0.366,0.366,0.366,0.366,0.366,0.366,0.365,0.365,0.365,0.365,0.364,0.364,0.364,0.364,0.363,0.363,0.363,0.362,0.362,0.362,0.362,0.362,0.362,0.362,0.361,0.361,0.361,0.36,0.36,0.359,0.359,0.359,0.359,0.358,0.358,0.358,0.358,0.357,0.357,0.356,0.356,0.356,0.355,0.355,0.355,0.355,0.355,0.355,0.354,0.354,0.354,0.354,0.353,0.353,0.352,0.352,0.352,0.351,0.351,0.351,0.351,0.351,0.351,0.351,0.351,0.35,0.35,0.35,0.35,0.349,0.349,0.349,0.349,0.348,0.348,0.348,0.348,0.348,0.347,0.347,0.347,0.346,0.346,0.346,0.346,0.345,0.345,0.345,0.345,0.345,0.345,0.345,0.344,0.344,0.344,0.343,0.343,0.343,0.342,0.342,0.342,0.342,0.342,0.342,0.341,0.341,0.341,0.341,0.341,0.34,0.34,0.34,0.34,0.34,0.339,0.339,0.339,0.339,0.339,0.339,0.338,0.338,0.338,0.338,0.338,0.338,0.338,0.337,0.337,0.337,0.337,0.337,0.336,0.336,0.336,0.336,0.335,0.335,0.335,0.335,0.335,0.335,0.335,0.334,0.334,0.334,0.0,0.0,0.0,0.0,0.0,0.0,0.0,0.0,0.0,0.0,0.0
0.0,0.0,0.0,0.0,0.0,0.0,0.0,0.0,0.0,0.0,0.0,0.0,0.0,0.0,0.0,0.0,0.0,0.0,0.0,0.0,0.0,0.0,0.0,0.0,0.0,0.0,0.0,0.0,0.487,0.487,0.487,0.486,0.485,0.484,0.484,0.484,0.483,0.483,0.483,0.482,0.482,0.482,0.482,0.481,0.481,0.48,0.48,0.48,0.479,0.478,0.478,0.478,0.477,0.477,0.477,0.476,0.476,0.476,0.475,0.475,0.474,0.473,0.472,0.471,0.471,0.47,0.47,0.47,0.469,0.469,0.469,0.469,0.469,0.469,0.468,0.468,0.467,0.466,0.465,0.465,0.465,0.464,0.464,0.463,0.463,0.463,0.463,0.463,0.462,0.462,0.461,0.461,0.46,0.459,0.459,0.458,0.458,0.458,0.458,0.457,0.457,0.457,0.456,0.456,0.456,0.455,0.454,0.454,0.453,0.453,0.453,0.452,0.452,0.452,0.452,0.452,0.452,0.451,0.451,0.451,0.45,0.449,0.448,0.448,0.448,0.448,0.447,0.447,0.447,0.447,0.446,0.446,0.446,0.446,0.446,0.446,0.445,0.445,0.444,0.443,0.443,0.442,0.442,0.442,0.441,0.441,0.441,0.441,0.441,0.44,0.44,0.44,0.439,0.438,0.438,0.437,0.437,0.436,0.436,0.436,0.436,0.435,0.435,0.435,0.434,0.434,0.432,0.432,0.431,0.431,0.43,0.43,0.43,0.429,0.429,0.428,0.427,0.0,0.0,0.0,0.0,0.0,0.0,0.0,0.0,0.0,0.424,0.423,0.422,0.421,0.421,0.321,0.321,0.321,0.321,0.321,0.0,0.0,0.0,0.0,0.0,0.0,0.0,0.0,0.0,0.0,0.0,0.0,0.0,0.0,0.0,0.0,0.0,0.0,0.0,0.324,0.325,0.325,0.325,0.325,0.325,0.325,0.325,0.325,0.325,0.325,0.325,0.325,0.3255,0.326,0.326,0.326,0.326,0.326,0.326,0.327,0.327,0.327,0.327,0.327,0.328,0.328,0.328,0.329,0.329,0.329,0.329,0.33,0.33,0.33,0.331,0.331,0.3315,0.332,0.332,0.332,0.332,0.333,0.333,0.333,0.334,0.335,0.335,0.335,0.335,0.336,0.336,0.3365,0.337,0.337,0.338,0.338,0.339,0.339,0.34,0.34,0.341,0.341,0.3415,0.342,0.342,0.342,0.343,0.343,0.343,0.342,0.343,0.342,0.342,0.342,0.342,0.342,0.342,0.342,0.342,0.342,0.342,0.3425,0.343,0.343,0.343,0.343,0.344,0.344,0.345,0.345,0.345,0.345,0.346,0.346,0.346,0.346,0.346,0.346,0.346,0.346,0.0,0.0,0.0,0.0,0.0,0.0,0.0,0.0,0.0,0.0,0.0,0.0,0.0,0.373,0.374,0.0,0.0,0.379,0.38,0.381,0.382,0.383,0.383,0.38349999999999995,0.384,0.384,0.383,0.383,0.383,0.383,0.383,0.383,0.382,0.382,0.382,0.381,0.381,0.381,0.381,0.381,0.381,0.381,0.38,0.38,0.38,0.379,0.379,0.378,0.377,0.377,0.377,0.377,0.376,0.376,0.375,0.375,0.375,0.374,0.374,0.374,0.374,0.373,0.373,0.373,0.373,0.373,0.373,0.373,0.372,0.372,0.372,0.372,0.372,0.371,0.371,0.37,0.37,0.37,0.37,0.37,0.369,0.369,0.369,0.369,0.369,0.369,0.369,0.368,0.367,0.367,0.366,0.366,0.366,0.366,0.365,0.365,0.365,0.365,0.365,0.365,0.364,0.364,0.364,0.364,0.363,0.363,0.363,0.362,0.362,0.362,0.362,0.362,0.362,0.362,0.361,0.361,0.361,0.361,0.36,0.36,0.359,0.358,0.358,0.358,0.358,0.358,0.358,0.357,0.357,0.356,0.356,0.356,0.356,0.355,0.355,0.355,0.355,0.354,0.354,0.354,0.354,0.354,0.353,0.353,0.353,0.353,0.352,0.352,0.351,0.351,0.351,0.351,0.351,0.35,0.35,0.35,0.35,0.0,0.0,0.0,0.349,0.349,0.349,0.349,0.348,0.348,0.348,0.348,0.348,0.348,0.347,0.347,0.346,0.346,0.346,0.345,0.345,0.345,0.345,0.345,0.345,0.344,0.344,0.344,0.344,0.344,0.343,0.343,0.343,0.342,0.342,0.342,0.342,0.341,0.341,0.341,0.341,0.341,0.341,0.341,0.341,0.34,0.34,0.34,0.339,0.339,0.339,0.339,0.339,0.338,0.338,0.338,0.338,0.338,0.338,0.338,0.338,0.337,0.337,0.337,0.337,0.337,0.336,0.336,0.336,0.336,0.336,0.335,0.335,0.335,0.335,0.335,0.335,0.335,0.334,0.334,0.334,0.333,0.333,0.333,0.0,0.0,0.0,0.0,0.0,0.0,0.0,0.0,0.0,0.0,0.0
0.0,0.0,0.0,0.0,0.0,0.0,0.0,0.0,0.0,0.0,0.0,0.0,0.0,0.0,0.0,0.0,0.0,0.0,0.0,0.0,0.0,0.0,0.0,0.0,0.0,0.0,0.0,0.0,0.484,0.484,0.483,0.483,0.483,0.482,0.482,0.482,0.482,0.482,0.482,0.481,0.481,0.481,0.48,0.48,0.479,0.478,0.478,0.477,0.477,0.477,0.476,0.476,0.476,0.476,0.475,0.475,0.475,0.474,0.474,0.473,0.471,0.47,0.47,0.47,0.469,0.469,0.469,0.469,0.468,0.468,0.468,0.468,0.467,0.467,0.466,0.465,0.465,0.464,0.464,0.464,0.463,0.463,0.463,0.463,0.462,0.462,0.462,0.461,0.461,0.46,0.459,0.459,0.458,0.458,0.458,0.457,0.457,0.457,0.456,0.456,0.455,0.454,0.454,0.453,0.453,0.453,0.453,0.452,0.452,0.452,0.452,0.452,0.451,0.451,0.451,0.451,0.45,0.449,0.448,0.448,0.448,0.447,0.447,0.447,0.447,0.446,0.446,0.446,0.446,0.446,0.445,0.445,0.444,0.444,0.444,0.444,0.444,0.443,0.442,0.442,0.442,0.441,0.441,0.441,0.441,0.441,0.44,0.44,0.439,0.438,0.438,0.437,0.437,0.437,0.436,0.436,0.436,0.436,0.435,0.435,0.435,0.435,0.434,0.434,0.433,0.432,0.432,0.431,0.431,0.43,0.43,0.429,0.429,0.428,0.427,0.427,0.426,0.426,0.425,0.425,0.425,0.425,0.425,0.425,0.424,0.424,0.423,0.422,0.421,0.421,0.421,0.42,0.42,0.42,0.42,0.42,0.0,0.0,0.0,0.0,0.0,0.0,0.0,0.0,0.0,0.0,0.0,0.0,0.0,0.0,0.0,0.0,0.0,0.0,0.325,0.325,0.325,0.325,0.325,0.325,0.325,0.325,0.325,0.325,0.3255,0.326,0.326,0.326,0.326,0.326,0.326,0.326,0.326,0.3265,0.327,0.327,0.327,0.328,0.328,0.328,0.328,0.329,0.329,0.329,0.329,0.329,0.329,0.33,0.33,0.331,0.331,0.3315,0.332,0.332,0.332,0.332,0.333,0.333,0.334,0.334,0.335,0.335,0.335,0.335,0.336,0.336,0.3365,0.337,0.337,0.338,0.338,0.339,0.339,0.34,0.341,0.341,0.3415,0.342,0.342,0.342,0.343,0.344,0.344,0.344,0.344,0.344,0.344,0.343,0.343,0.343,0.342,0.342,0.342,0.34275,0.343,0.343,0.343,0.343,0.344,0.344,0.344,0.344,0.345,0.345,0.345,0.345,0.346,0.346,0.347,0.347,0.347,0.347,0.347,0.347,0.347,0.347,0.0,0.0,0.0,0.0,0.0,0.0,0.0,0.0,0.0,0.0,0.0,0.374,0.375,0.376,0.376,0.3765,0.377,0.379,0.38,0.381,0.382,0.382,0.382,0.383,0.383,0.383,0.383,0.382,0.382,0.382,0.382,0.382,0.382,0.381,0.381,0.381,0.381,0.381,0.381,0.38,0.38,0.379,0.379,0.378,0.378,0.377,0.377,0.377,0.377,0.376,0.376,0.376,0.375,0.374,0.374,0.374,0.374,0.373,0.373,0.373,0.373,0.373,0.373,0.373,0.372,0.372,0.372,0.371,0.371,0.371,0.371,0.37,0.37,0.37,0.37,0.37,0.369,0.369,0.369,0.369,0.369,0.369,0.369,0.368,0.368,0.367,0.367,0.366,0.366,0.366,0.366,0.365,0.365,0.365,0.365,0.364,0.364,0.364,0.364,0.364,0.363,0.363,0.362,0.362,0.362,0.362,0.362,0.362,0.362,0.362,0.362,0.361,0.361,0.36,0.359,0.359,0.359,0.358,0.358,0.358,0.358,0.358,0.357,0.357,0.357,0.356,0.356,0.356,0.355,0.355,0.355,0.355,0.355,0.355,0.354,0.354,0.354,0.353,0.353,0.353,0.353,0.352,0.352,0.352,0.352,0.352,0.351,0.351,0.351,0.35,0.35,0.35,0.35,0.349,0.349,0.349,0.349,0.0,0.0,0.0,0.3485,0.348,0.348,0.348,0.348,0.348,0.348,0.347,0.347,0.346,0.346,0.346,0.345,0.345,0.345,0.345,0.345,0.344,0.344,0.344,0.344,0.344,0.343,0.343,0.343,0.342,0.342,0.342,0.342,0.342,0.341,0.341,0.341,0.341,0.341,0.34,0.34,0.34,0.34,0.34,0.34,0.339,0.339,0.339,0.339,0.339,0.339,0.338,0.338,0.338,0.338,0.33725,0.337,0.337,0.337,0.337,0.336,0.336,0.336,0.336,0.336,0.336,0.335,0.335,0.335,0.335,0.335,0.335,0.335,0.335,0.334,0.334,0.334,0.334,0.333,0.333,0.333,0.332,0.332,0.0,0.0,0.0,0.0,0.0,0.0,0.0,0.0,0.0,0.0,0.0,0.0
0.0,0.0,0.0,0.0,0.0,0.0,0.0,0.0,0.0,0.0,0.0,0.0,0.0,0.0,0.0,0.0,0.0,0.0,0.0,0.0,0.0,0.0,0.0,0.0,0.0,0.0,0.0,0.483,0.483,0.482,0.482,0.482,0.482,0.481,0.481,0.481,0.481,0.481,0.48,0.48,0.479,0.478,0.478,0.477,0.477,0.476,0.476,0.476,0.476,0.476,0.476,0.475,0.475,0.475,0.474,0.473,0.473,0.471,0.471,0.47,0.47,0.469,0.469,0.469,0.469,0.468,0.468,0.467,0.467,0.467,0.466,0.466,0.465,0.465,0.464,0.464,0.463,0.463,0.463,0.463,0.462,0.462,0.461,0.461,0.46,0.46,0.459,0.459,0.458,0.458,0.458,0.458,0.457,0.457,0.457,0.456,0.456,0.455,0.455,0.453,0.453,0.453,0.453,0.452,0.452,0.452,0.452,0.452,0.452,0.452,0.451,0.451,0.45,0.45,0.449,0.448,0.448,0.447,0.447,0.447,0.447,0.446,0.446,0.446,0.446,0.445,0.445,0.444,0.444,0.443,0.443,0.442,0.442,0.442,0.442,0.442,0.442,0.442,0.441,0.441,0.441,0.441,0.441,0.44,0.44,0.44,0.439,0.438,0.437,0.437,0.436,0.436,0.436,0.436,0.436,0.435,0.435,0.435,0.434,0.434,0.433,0.433,0.432,0.432,0.431,0.431,0.431,0.43,0.43,0.43,0.429,0.429,0.428,0.427,0.426,0.426,0.4255,0.425,0.425,0.425,0.425,0.424,0.424,0.424,0.423,0.422,0.422,0.421,0.421,0.421,0.421,0.42,0.42,0.419,0.419,0.419,0.419,0.0,0.0,0.0,0.0,0.0,0.0,0.0,0.0,0.0,0.0,0.0,0.0,0.0,0.0,0.0,0.0,0.0,0.0,0.0,0.0,0.0,0.326,0.326,0.326,0.3255,0.3255,0.325625,0.326,0.326,0.326,0.326,0.326,0.326,0.326,0.326,0.326,0.327,0.327,0.327,0.328,0.328,0.328,0.328,0.329,0.329,0.329,0.329,0.329,0.329,0.33,0.33,0.331,0.331,0.331,0.331625,0.332,0.332,0.332,0.333,0.333,0.334,0.334,0.335,0.335,0.335,0.335,0.336,0.336,0.3365,0.337,0.338,0.338,0.338,0.339,0.339,0.34,0.341,0.341,0.3415,0.342,0.342,0.343,0.344,0.344,0.345,0.345,0.345,0.345,0.345,0.345,0.345,0.344,0.344,0.344,0.344,0.344,0.344,0.344,0.344,0.344,0.344,0.344,0.344,0.345,0.345,0.345,0.345,0.346,0.346,0.346,0.347,0.347,0.3474999999999999,0.348,0.348,0.348,0.348,0.348,0.348,0.0,0.0,0.0,0.0,0.0,0.0,0.0,0.0,0.375,0.375,0.375,0.376,0.376,0.3765,0.377,0.377,0.377,0.378,0.0,0.0,0.0,0.0,0.381,0.382,0.382,0.381,0.381,0.381,0.381,0.381,0.381,0.381,0.381,0.381,0.38,0.38,0.38,0.38,0.379,0.379,0.379,0.378,0.377,0.377,0.377,0.377,0.376,0.376,0.375,0.375,0.374,0.374,0.374,0.373,0.373,0.373,0.373,0.373,0.373,0.373,0.373,0.372,0.372,0.372,0.371,0.371,0.37,0.37,0.37,0.37,0.37,0.369,0.369,0.369,0.369,0.369,0.369,0.369,0.369,0.369,0.368,0.368,0.367,0.367,0.366,0.366,0.366,0.366,0.365,0.365,0.365,0.364,0.364,0.363,0.363,0.363,0.363,0.363,0.362,0.362,0.362,0.362,0.362,0.362,0.362,0.362,0.362,0.361,0.36,0.36,0.359,0.359,0.359,0.359,0.358,0.358,0.358,0.358,0.357,0.357,0.357,0.356,0.356,0.356,0.355,0.355,0.355,0.355,0.355,0.355,0.354,0.354,0.354,0.353,0.353,0.353,0.352,0.352,0.352,0.352,0.352,0.352,0.352,0.351,0.351,0.351,0.351,0.35,0.35,0.349,0.349,0.349,0.349,0.348,0.348,0.348,0.348,0.348,0.348,0.348,0.348,0.348,0.348,0.347,0.347,0.347,0.347,0.346,0.346,0.345,0.345,0.345,0.345,0.345,0.344,0.344,0.344,0.343,0.343,0.343,0.343,0.342,0.342,0.342,0.342,0.342,0.342,0.341,0.341,0.341,0.34,0.34,0.34,0.34,0.34,0.34,0.339,0.339,0.339,0.339,0.339,0.339,0.339,0.339,0.338,0.338,0.338,0.338,0.337,0.337,0.336,0.336,0.336,0.336,0.336,0.336,0.336,0.335,0.335,0.335,0.335,0.335,0.335,0.335,0.335,0.335,0.335,0.335,0.334,0.334,0.334,0.333,0.333,0.333,0.333,0.332,0.332,0.332,0.332,0.0,0.0,0.0,0.0,0.0,0.0,0.0,0.0,0.0,0.0,0.0,0.0
0.0,0.0,0.0,0.0,0.0,0.0,0.0,0.0,0.0,0.0,0.0,0.0,0.0,0.0,0.0,0.0,0.0,0.0,0.0,0.0,0.0,0.0,0.0,0.0,0.0,0.0,0.0,0.482,0.482,0.481,0.481,0.481,0.48,0.48,0.48,0.479,0.479,0.478,0.478,0.477,0.477,0.476,0.476,0.476,0.476,0.476,0.475,0.475,0.475,0.475,0.475,0.474,0.474,0.473,0.472,0.471,0.47,0.47,0.469,0.469,0.469,0.468,0.468,0.468,0.467,0.467,0.466,0.466,0.465,0.465,0.464,0.464,0.464,0.463,0.463,0.463,0.463,0.462,0.461,0.461,0.46,0.459,0.458,0.458,0.458,0.458,0.458,0.458,0.458,0.457,0.457,0.457,0.457,0.456,0.455,0.455,0.454,0.453,0.453,0.452,0.452,0.452,0.452,0.452,0.452,0.451,0.451,0.451,0.451,0.45,0.449,0.449,0.448,0.447,0.447,0.447,0.447,0.446,0.446,0.446,0.446,0.446,0.445,0.444,0.444,0.443,0.442,0.442,0.441,0.441,0.441,0.441,0.441,0.441,0.441,0.441,0.441,0.441,0.441,0.44,0.44,0.44,0.439,0.439,0.438,0.437,0.437,0.436,0.436,0.436,0.436,0.435,0.435,0.435,0.434,0.434,0.433,0.433,0.432,0.432,0.432,0.431,0.431,0.431,0.431,0.43,0.43,0.43,0.43,0.429,0.428,0.427,0.427,0.426,0.426,0.0,0.42525,0.425,0.424,0.424,0.424,0.424,0.423,0.423,0.422,0.422,0.421,0.421,0.421,0.42,0.42,0.419,0.419,0.419,0.419,0.418,0.418,0.418,0.0,0.0,0.0,0.0,0.0,0.0,0.0,0.0,0.0,0.0,0.0,0.0,0.0,0.0,0.0,0.0,0.0,0.0,0.0,0.0,0.326,0.326,0.326,0.326,0.326,0.326,0.326,0.326,0.326,0.326,0.326,0.326,0.326,0.326,0.327,0.327,0.327,0.327,0.328,0.328,0.329,0.329,0.329,0.329,0.329,0.329,0.33,0.33,0.33,0.33,0.331,0.331,0.3315,0.332,0.332,0.332,0.333,0.333,0.334,0.334,0.335,0.335,0.335,0.336,0.336,0.336,0.3365,0.337,0.338,0.338,0.339,0.339,0.339,0.34,0.341,0.3415,0.342,0.342,0.343,0.344,0.344,0.345,0.345,0.345,0.345,0.345,0.345,0.345,0.345,0.345,0.345,0.345,0.345,0.345,0.345,0.345,0.345,0.345,0.345,0.345,0.345,0.345,0.345,0.345,0.346,0.346,0.346,0.347,0.347,0.3474999999999999,0.348,0.348,0.348,0.348,0.348,0.348,0.348,0.0,0.0,0.0,0.0,0.0,0.0,0.0,0.373,0.375,0.375,0.375,0.376,0.376,0.3765,0.377,0.377,0.377,0.378,0.378,0.0,0.0,0.0,0.0,0.381,0.381,0.381,0.381,0.381,0.381,0.381,0.38,0.38,0.38,0.38,0.38,0.379,0.379,0.378,0.378,0.378,0.377,0.377,0.377,0.377,0.377,0.376,0.376,0.375,0.374,0.374,0.374,0.373,0.373,0.373,0.373,0.373,0.373,0.372,0.372,0.372,0.372,0.371,0.371,0.371,0.37,0.37,0.37,0.369,0.369,0.369,0.369,0.369,0.369,0.369,0.369,0.368,0.368,0.368,0.368,0.367,0.367,0.367,0.366,0.366,0.366,0.366,0.366,0.365,0.365,0.364,0.364,0.363,0.363,0.362,0.362,0.362,0.362,0.362,0.362,0.362,0.362,0.362,0.361,0.36,0.36,0.36,0.36,0.36,0.359,0.359,0.359,0.359,0.358,0.358,0.358,0.358,0.357,0.357,0.356,0.356,0.355,0.355,0.355,0.355,0.355,0.355,0.355,0.355,0.354,0.354,0.354,0.354,0.353,0.353,0.352,0.352,0.352,0.352,0.352,0.351,0.351,0.351,0.351,0.351,0.351,0.35,0.35,0.35,0.349,0.349,0.348,0.348,0.348,0.348,0.348,0.348,0.348,0.347,0.347,0.346,0.346,0.346,0.346,0.346,0.346,0.0,0.0,0.0,0.3455,0.345,0.345,0.345,0.345,0.344,0.344,0.343,0.343,0.343,0.342,0.342,0.342,0.342,0.342,0.342,0.342,0.341,0.341,0.341,0.34,0.34,0.34,0.339,0.339,0.339,0.339,0.339,0.339,0.339,0.339,0.339,0.339,0.338,0.338,0.338,0.338,0.338,0.337,0.337,0.336,0.336,0.336,0.336,0.335,0.335,0.335,0.335,0.335,0.335,0.335,0.335,0.334,0.334,0.334,0.334,0.0,0.0,0.0,0.0,0.333,0.333,0.333,0.333,0.333,0.333,0.332,0.332,0.332,0.332,0.331,0.331,0.0,0.0,0.0,0.0,0.0,0.0,0.0,0.0,0.0,0.0,0.0,0.0
0.0,0.0,0.0,0.0,0.0,0.0,0.0,0.0,0.0,0.0,0.0,0.0,0.0,0.0,0.0,0.0,0.0,0.0,0.0,0.0,0.0,0.0,0.0,0.0,0.0,0.0,0.0,0.0,0.0,0.4785,0.479,0.478,0.478,0.478,0.477,0.477,0.477,0.476,0.476,0.476,0.476,0.475,0.475,0.475,0.475,0.475,0.474,0.474,0.474,0.473,0.473,0.472,0.471,0.47,0.47,0.47,0.469,0.469,0.469,0.468,0.467,0.467,0.466,0.466,0.465,0.465,0.465,0.464,0.464,0.463,0.463,0.463,0.463,0.462,0.462,0.461,0.461,0.46,0.459,0.459,0.458,0.458,0.458,0.458,0.458,0.457,0.457,0.457,0.457,0.456,0.455,0.455,0.454,0.453,0.453,0.452,0.452,0.452,0.452,0.452,0.452,0.451,0.451,0.451,0.451,0.45,0.449,0.449,0.449,0.448,0.447,0.447,0.447,0.447,0.446,0.446,0.446,0.446,0.445,0.445,0.444,0.443,0.442,0.442,0.441,0.441,0.441,0.441,0.441,0.441,0.441,0.441,0.441,0.441,0.441,0.44,0.44,0.44,0.44,0.439,0.438,0.438,0.437,0.436,0.436,0.436,0.436,0.436,0.435,0.435,0.435,0.434,0.434,0.433,0.432,0.432,0.431,0.431,0.431,0.431,0.431,0.431,0.43,0.43,0.43,0.43,0.429,0.429,0.428,0.428,0.427,0.426,0.426,0.426,0.425,0.425,0.425,0.424,0.424,0.423,0.423,0.422,0.422,0.422,0.421,0.421,0.421,0.421,0.42,0.42,0.419,0.419,0.418,0.418,0.418,0.418,0.418,0.418,0.0,0.0,0.0,0.0,0.0,0.0,0.0,0.0,0.0,0.0,0.0,0.0,0.0,0.0,0.0,0.0,0.0,0.0,0.0,0.0,0.327,0.327,0.326,0.326,0.326,0.326,0.326,0.326,0.326,0.326,0.326,0.326,0.326,0.327,0.327,0.327,0.327,0.328,0.328,0.328,0.329,0.329,0.329,0.329,0.329,0.33,0.33,0.33,0.331,0.331,0.331,0.3315,0.332,0.332,0.332,0.333,0.333,0.334,0.334,0.335,0.335,0.335,0.336,0.336,0.3365,0.337,0.337,0.338,0.338,0.339,0.339,0.34,0.341,0.341,0.3415,0.342,0.342,0.343,0.344,0.345,0.345,0.345,0.345,0.346,0.346,0.346,0.346,0.346,0.346,0.346,0.346,0.346,0.346,0.345,0.345,0.345,0.345,0.345,0.345,0.345,0.345,0.346,0.346,0.346,0.347,0.347,0.347,0.3474999999999999,0.348,0.348,0.348,0.348,0.348,0.348,0.348,0.348,0.348,0.0,0.0,0.0,0.0,0.0,0.0,0.0,0.375,0.375,0.376,0.376,0.376,0.376,0.3765,0.377,0.377,0.377,0.377,0.378,0.378,0.379,0.38,0.38,0.38,0.38,0.38,0.38,0.38,0.38,0.379,0.379,0.379,0.379,0.378,0.378,0.378,0.0,0.377,0.377,0.377,0.377,0.377,0.376,0.376,0.375,0.375,0.374,0.374,0.373,0.373,0.373,0.373,0.373,0.373,0.372,0.372,0.371,0.371,0.371,0.371,0.37,0.37,0.37,0.37,0.369,0.369,0.369,0.369,0.369,0.368,0.368,0.368,0.368,0.367,0.367,0.367,0.367,0.366,0.366,0.366,0.366,0.366,0.366,0.366,0.365,0.365,0.365,0.364,0.363,0.363,0.363,0.362,0.362,0.362,0.362,0.362,0.362,0.361,0.36,0.36,0.36,0.36,0.359,0.359,0.359,0.359,0.359,0.359,0.359,0.358,0.358,0.358,0.358,0.357,0.356,0.356,0.356,0.355,0.355,0.355,0.355,0.355,0.355,0.354,0.354,0.354,0.353,0.353,0.353,0.353,0.353,0.352,0.352,0.352,0.352,0.351,0.351,0.351,0.351,0.351,0.351,0.351,0.35,0.35,0.349,0.349,0.349,0.348,0.348,0.348,0.348,0.348,0.348,0.348,0.347,0.347,0.346,0.346,0.346,0.345,0.345,0.345,0.345,0.345,0.345,0.0,0.0,0.0,0.345,0.344,0.344,0.344,0.343,0.343,0.342,0.342,0.342,0.342,0.342,0.342,0.342,0.342,0.341,0.341,0.341,0.34,0.34,0.34,0.339,0.339,0.339,0.339,0.339,0.339,0.339,0.339,0.338,0.338,0.338,0.338,0.338,0.338,0.337,0.337,0.337,0.336,0.336,0.336,0.335,0.335,0.335,0.335,0.335,0.335,0.335,0.334,0.334,0.334,0.33375,0.333,0.333,0.333,0.333,0.333,0.0,0.0,0.0,0.0,0.332,0.332,0.332,0.332,0.332,0.332,0.332,0.331,0.331,0.331,0.331,0.331,0.0,0.0,0.0,0.0,0.0,0.0,0.0,0.0,0.0,0.0,0.0,0.0
0.0,0.0,0.0,0.0,0.0,0.0,0.0,0.0,0.0,0.0,0.0,0.0,0.0,0.0,0.0,0.0,0.0,0.0,0.0,0.0,0.0,0.0,0.0,0.0,0.0,0.0,0.0,0.0,0.0,0.476,0.477,0.476,0.476,0.476,0.476,0.476,0.475,0.475,0.475,0.475,0.474,0.474,0.474,0.473,0.473,0.473,0.472,0.472,0.471,0.471,0.471,0.47,0.47,0.469,0.469,0.469,0.468,0.468,0.467,0.467,0.466,0.465,0.465,0.464,0.464,0.464,0.463,0.463,0.463,0.463,0.463,0.462,0.461,0.461,0.46,0.459,0.458,0.458,0.458,0.457,0.457,0.457,0.457,0.457,0.457,0.456,0.456,0.455,0.455,0.454,0.453,0.453,0.452,0.452,0.452,0.452,0.452,0.451,0.451,0.451,0.45,0.449,0.449,0.449,0.448,0.448,0.448,0.447,0.447,0.447,0.446,0.446,0.446,0.446,0.446,0.445,0.444,0.444,0.443,0.442,0.442,0.441,0.441,0.441,0.441,0.44,0.44,0.44,0.44,0.44,0.44,0.439,0.439,0.439,0.439,0.439,0.439,0.438,0.438,0.437,0.436,0.436,0.436,0.436,0.436,0.435,0.435,0.435,0.434,0.434,0.433,0.432,0.432,0.431,0.431,0.431,0.431,0.43,0.43,0.43,0.43,0.43,0.429,0.429,0.429,0.428,0.427,0.427,0.426,0.426,0.426,0.425,0.425,0.425,0.425,0.424,0.424,0.423,0.422,0.422,0.422,0.421,0.421,0.421,0.421,0.42,0.42,0.42,0.419,0.419,0.418,0.418,0.418,0.418,0.417,0.417,0.417,0.417,0.417,0.0,0.0,0.0,0.0,0.0,0.0,0.0,0.0,0.0,0.0,0.0,0.0,0.0,0.0,0.0,0.0,0.0,0.0,0.0,0.327,0.327,0.327,0.327,0.327,0.326,0.326,0.326,0.326,0.326,0.326,0.326,0.327,0.327,0.327,0.327,0.328,0.328,0.329,0.329,0.329,0.329,0.329,0.329,0.33,0.33,0.33,0.331,0.331,0.331,0.3315,0.332,0.332,0.332,0.332,0.333,0.334,0.334,0.335,0.335,0.335,0.336,0.336,0.3365,0.337,0.337,0.338,0.338,0.339,0.339,0.34,0.341,0.341,0.3415,0.342,0.343,0.344,0.344,0.345,0.345,0.345,0.346,0.346,0.347,0.347,0.34724999999999995,0.348,0.348,0.348,0.348,0.348,0.348,0.347,0.347,0.347,0.347,0.347,0.347,0.347,0.347,0.347,0.347,0.347,0.347,0.347,0.3474999999999999,0.348,0.348,0.348,0.348,0.348,0.348,0.348,0.349,0.349,0.349,0.349,0.349,0.0,0.0,0.0,0.0,0.0,0.375,0.376,0.376,0.376,0.376,0.376,0.376,0.37662500000000004,0.377,0.377,0.377,0.377,0.377,0.378,0.378,0.378,0.379,0.379,0.378,0.379,0.378,0.378,0.378,0.378,0.377,0.377,0.377,0.377,0.377,0.377,0.3765,0.376,0.376,0.376,0.376,0.376,0.375,0.374,0.374,0.373,0.373,0.373,0.373,0.373,0.372,0.372,0.371,0.371,0.371,0.37,0.37,0.37,0.37,0.37,0.37,0.369,0.369,0.369,0.369,0.369,0.368,0.368,0.368,0.367,0.367,0.367,0.366,0.366,0.366,0.366,0.366,0.366,0.366,0.366,0.366,0.365,0.365,0.365,0.364,0.364,0.363,0.363,0.362,0.362,0.362,0.362,0.361,0.361,0.36,0.36,0.36,0.36,0.359,0.359,0.359,0.359,0.359,0.358,0.358,0.358,0.358,0.358,0.358,0.357,0.357,0.356,0.356,0.355,0.355,0.355,0.355,0.355,0.355,0.354,0.354,0.354,0.353,0.353,0.353,0.353,0.352,0.352,0.352,0.352,0.352,0.351,0.351,0.351,0.351,0.351,0.351,0.35,0.35,0.35,0.35,0.349,0.349,0.349,0.348,0.348,0.348,0.348,0.348,0.348,0.347,0.347,0.347,0.346,0.346,0.346,0.345,0.345,0.345,0.345,0.345,0.345,0.345,0.344,0.344,0.344,0.0,0.0,0.343,0.342,0.342,0.342,0.342,0.342,0.342,0.342,0.342,0.341,0.341,0.341,0.341,0.341,0.341,0.341,0.34,0.339,0.339,0.339,0.339,0.339,0.338,0.338,0.338,0.338,0.338,0.338,0.338,0.338,0.337,0.337,0.337,0.336,0.336,0.336,0.336,0.336,0.335,0.335,0.335,0.335,0.335,0.335,0.334,0.334,0.333,0.333,0.333,0.333,0.333,0.332,0.332,0.332,0.332,0.332,0.332,0.332,0.332,0.332,0.332,0.331,0.331,0.331,0.331,0.331,0.331,0.33,0.33,0.33,0.33,0.33,0.0,0.0,0.0,0.0,0.0,0.0,0.0,0.0,0.0,0.0,0.0,0.0
