0,0,0,0,0,0,0,0,0,0,0,0,0,0,0,0,0,0,0,0,0,0,0,0,0,0,0,0,0,0,0,0,0,0.444,0.444,0.443,0.443,0.442,0.442,0.441,0.441,0.441,0.441,0.441,0.441,0.44,0.44,0.439,0.438,0.438,0.437,0.437,0.437,0.437,0.436,0.436,0.436,0.436,0.436,0.436,0.436,0.435,0.434,0.433,0.432,0.432,0.431,0.431,0.431,0.43,0.43,0.43,0.43,0.428,0.427,0.427,0.426,0.426,0.426,0.426,0.425,0.425,0.425,0.425,0.425,0.424,0.424,0.423,0.423,0.422,0.421,0.421,0.421,0.421,0.42,0.42,0.42,0.42,0.42,0.42,0.42,0.419,0.419,0.418,0.417,0.417,0.416,0.416,0,0.416,0.415,0.415,0.415,0.415,0.415,0.414,0.414,0.413,0.413,0.412,0.412,0.412,0.411,0.411,0.411,0.411,0.41,0.41,0.409,0.409,0.408,0.408,0.407,0.407,0.407,0.407,0.407,0.406,0.406,0.406,0.406,0.406,0.406,0.405,0.404,0.404,0.404,0.403,0.403,0.403,0.402,0.402,0.402,0.402,0.402,0.402,0.402,0.402,0.401,0.401,0.4,0.399,0.399,0.398,0.398,0.398,0.397,0.397,0.397,0.397,0.396,0.396,0.395,0.394,0.394,0.394,0.393,0.393,0.393,0.393,0.393,0.393,0.392,0.391,0.391,0.39,0.389,0.389,0.389,0.389,0.389,0.388,0.388,0.388,0.388,0.387,0.387,0.386,0.386,0.386,0.386,0.386,0.386,0.385,0.385,0.385,0.385,0.385,0,0.384,0.383,0.383,0.382,0.382,0.382,0.382,0.381,0.381,0.381,0.381,0.381,0.381,0.381,0.381,0.381,0.381,0.38,0.38,0.379,0.378,0.378,0.377,0.377,0.377,0.377,0.376,0.376,0.376,0.375,0.374,0.374,0.373,0.373,0.373,0.373,0.373,0.373,0.373,0.373,0.373,0.372,0.372,0.372,0.371,0.371,0.371,0.37,0,0.37,0.37,0.369,0.369,0.369,0.369,0.369,0.369,0.369,0.369,0.369,0.368,0.368,0.368,0.368,0.368,0.367,0.367,0.366,0.366,0.366,0.366,0.365,0.365,0.364,0.364,0.364,0.363,0.363,0.363,0.363,0.363,0.362,0.362,0.362,0.362,0.362,0.362,0.362,0,0.361,0.36,0.36,0,0.359,0.358,0.358,0.358,0.358,0.358,0.358,0.357,0.357,0.357,0.356,0.356,0.356,0.355,0.355,0.355,0.355,0.355,0.355,0.355,0.354,0.354,0.353,0.353,0.353,0.352,0.352,0.352,0.352,0.352,0.352,0.352,0.351,0.351,0.351,0.351,0.351,0.35,0.35,0.349,0.349,0.348,0.348,0.348,0.348,0.348,0.348,0.348,0.348,0.347,0.347,0.346,0.346,0.346,0.345,0.345,0.345,0.345,0.345,0.345,0.345,0.345,0.345,0.345,0.344,0.344,0.343,0.343,0.342,0.342,0.342,0.342,0.342,0.341,0.341,0.341,0.341,0.341,0.341,0.341,0.34,0.34,0.34,0.34,0.339,0.339,0.339,0.339,0.338,0.338,0.338,0.338,0.338,0.337,0.337,0.336,0.336,0.336,0.336,0.336,0.336,0.335,0.335,0.335,0.335,0.334,0.334,0.334,0.333,0.333,0.333,0,0,0.332,0.332,0.332,0.332,0.332,0.331,0.331,0.331,0.331,0.331,0.33,0.33,0.33,0.33,0.33,0.329,0.329,0.329,0.329,0.329,0.329,0.329,0.328,0.328,0.327,0.327,0.327,0.326,0.326,0.326,0.326,0.326,0.325,0.325,0.325,0.324,0.324,0.324,0.324,0.324,0.323,0.323,0.323,0.323,0.323,0.323,0.323,0.323,0.323,0.322,0.322,0.322,0.321,0.321,0.321,0.321,0.32,0.32,0.32,0.319,0.319,0.319,0.319,0.319,0.318,0.318,0.318,0.318,0.318,0.318,0.317,0,0,0,0,0.316,0.316,0.315,0.315,0.315,0.315,0.315,0.315,0.314,0.314,0.314,0.314,0.314,0.313,0.313,0.313,0.313,0.312,0.312,0.312,0.312,0.312,0.312,0.312,0.312,0.311,0.311,0.311,0.311,0.311,0.31,0.311,0.31,0.31,0.31,0.31,0.31,0.31,0.309,0.309,0.309,0.308,0.308,0.308,0.308,0.308,0.307,0.307,0.307,0.307,0.307,0.307,0.307,0.306,0.306,0.306,0.305,0.305,0.305,0.304,0.304,0.304,0.304,0.304,0.304,0.303,0,0,0,0,0,0,0,0,0,0,0,0,0,0,0,0,0,0,0,0,0,0,0,0,0,0,0,0,0,0,0,0,0,0,0,0,0,0,0,0,0,0,0,0,0,0,0,0,0,0,0,0,0,0,0,0,0,0,0,0,0,0,0,0,0,0,0,0,0,0,0,0,0,0,0,0,0,0,0,0,0,0,0,0
0,0,0,0,0,0,0,0,0,0,0,0,0,0,0,0,0,0,0,0,0,0,0,0,0,0,0,0,0,0,0,0,0,0,0,0,0.442,0.441,0.441,0.441,0.441,0.44,0.44,0.439,0.439,0.438,0.438,0.437,0.437,0.436,0.436,0.436,0.436,0.436,0.436,0.436,0.436,0.435,0.435,0.434,0.433,0.433,0.432,0.431,0.431,0.431,0.431,0.43,0.43,0.43,0.428,0.428,0.427,0.427,0.426,0.426,0.425,0.425,0.425,0.425,0.425,0.425,0.424,0.424,0.423,0.422,0.422,0.421,0.421,0.421,0.421,0.42,0.42,0.42,0.42,0.42,0.419,0.419,0.418,0.418,0.417,0.417,0.417,0.417,0.416,0.416,0.416,0.415,0.415,0.415,0.414,0.414,0.413,0.413,0.412,0.412,0.412,0.412,0.411,0.411,0.411,0.411,0.411,0.41,0.41,0.409,0.408,0.408,0.407,0.407,0.407,0.407,0.406,0.406,0.406,0.406,0.406,0.406,0.405,0.405,0.404,0.404,0.404,0.403,0.403,0.403,0.402,0.402,0.402,0.402,0.402,0.402,0.401,0.401,0.401,0.401,0.401,0.4,0.399,0.399,0.398,0.398,0.398,0.397,0.397,0.397,0.397,0.396,0.396,0.395,0.394,0.394,0.394,0.393,0.393,0.393,0.393,0.393,0.392,0.392,0.392,0.391,0.391,0.389,0.389,0.389,0.389,0.389,0.388,0.388,0.388,0.387,0.387,0.386,0.386,0.386,0.386,0.385,0.385,0.385,0.385,0.385,0.385,0.385,0.385,0.384,0.384,0.383,0.382,0.382,0.381,0.381,0.381,0.381,0.381,0.381,0.381,0.381,0.381,0.381,0.38,0.38,0.38,0.379,0.379,0.379,0.379,0.379,0.378,0.378,0.377,0.377,0.377,0.377,0.376,0.376,0.375,0.374,0.374,0.374,0.373,0.373,0.373,0.373,0.373,0.372,0.372,0.372,0.372,0,0,0,0,0.37,0.37,0.37,0.37,0,0.369,0,0.369,0.369,0.369,0.369,0.368,0.368,0.368,0.368,0.367,0.367,0.367,0.367,0.367,0.367,0.366,0.366,0.366,0.366,0.365,0.365,0.364,0.363,0.363,0.363,0.362,0.362,0.362,0.362,0.362,0.362,0.362,0.362,0.362,0.361,0.361,0.361,0.361,0.36,0.359,0.359,0,0.358,0.358,0.358,0.358,0.357,0.357,0.356,0.356,0.356,0.356,0.355,0.355,0.355,0.355,0.355,0.355,0.355,0.354,0.354,0.354,0.353,0.353,0.352,0.352,0.352,0.352,0.352,0.351,0.351,0.351,0.351,0.351,0.351,0.351,0.351,0.35,0.35,0.349,0.349,0.348,0.348,0.348,0.348,0.348,0.348,0.348,0.347,0.347,0.347,0.346,0.346,0.345,0.345,0.345,0.345,0.345,0.345,0.345,0.345,0.345,0.344,0.344,0.344,0.343,0.343,0.342,0.342,0.342,0.342,0.342,0.342,0.341,0.341,0.341,0.341,0.341,0.341,0.34,0.34,0.34,0.34,0.339,0.339,0.339,0.339,0.339,0.338,0.338,0.338,0.338,0.337,0.337,0.337,0.336,0.336,0.336,0.336,0.335,0.335,0.335,0.335,0.335,0.335,0.334,0.334,0.334,0.333,0.333,0.333,0.332,0.332,0,0,0,0.331,0.331,0.331,0.331,0.331,0.331,0.33,0.33,0.33,0.33,0.33,0.329,0.329,0.329,0.329,0.329,0.329,0.329,0.329,0.328,0.328,0.327,0.327,0.327,0.327,0.326,0.326,0.326,0.326,0.326,0.325,0.325,0.324,0.324,0.324,0.324,0.324,0.323,0.323,0.323,0.323,0.323,0.323,0.322,0.323,0.322,0.322,0.322,0.322,0.321,0.321,0.321,0.321,0.32,0.32,0,0.319,0.319,0.319,0.318,0.318,0.318,0.318,0.318,0.318,0.318,0.318,0.318,0.317,0.317,0.316,0.316,0.315,0.315,0.315,0.315,0.315,0.315,0.315,0.315,0.314,0.314,0.314,0.314,0.314,0.313,0.313,0.313,0.313,0.313,0.312,0.312,0.312,0.312,0.312,0.311,0.311,0.311,0.311,0.311,0.31,0.31,0.31,0.31,0.31,0.31,0.31,0.31,0.31,0.31,0.309,0.309,0.309,0.308,0.308,0.308,0.308,0.307,0.307,0.307,0.307,0.307,0.307,0.307,0.307,0.306,0.306,0.306,0.305,0.305,0.305,0.305,0.304,0.304,0.304,0.303,0.303,0.303,0.303,0.303,0.302,0,0,0,0,0,0,0,0,0,0,0,0,0,0,0,0,0,0,0,0,0,0,0,0,0,0,0,0,0,0,0,0,0,0,0,0,0,0,0,0,0,0,0,0,0,0,0,0,0,0,0,0,0,0,0,0,0,0,0,0,0,0,0,0,0,0,0,0,0,0,0,0,0,0,0,0,0,0,0,0,0,0,0,0
0,0,0,0,0,0,0,0,0,0,0,0,0,0,0,0,0,0,0,0,0,0,0,0,0,0,0,0,0,0,0,0,0,0,0.441,0.441,0.441,0.441,0.441,0.44,0.439,0.438,0.438,0.437,0.437,0.436,0.436,0.436,0.436,0.436,0.436,0.436,0.435,0.435,0.435,0.435,0.434,0.434,0.434,0.433,0.432,0.431,0.431,0.431,0.43,0.43,0.43,0.429,0.428,0.427,0.427,0.426,0.426,0.426,0.425,0.425,0.425,0.425,0.425,0.424,0.424,0.423,0.422,0.422,0.421,0.421,0.421,0.421,0.42,0.42,0.42,0.419,0.419,0.418,0.418,0.417,0.417,0.417,0.416,0.416,0.416,0.416,0.416,0.416,0.416,0.415,0.415,0.415,0.414,0.413,0.412,0.412,0.412,0.411,0.411,0.411,0.411,0.411,0.411,0.411,0.41,0.41,0.409,0.408,0.407,0.407,0.407,0.407,0.406,0.406,0.406,0.406,0.406,0.406,0.405,0.405,0.405,0.404,0.403,0.403,0.403,0.402,0.402,0.402,0.402,0.402,0.402,0.402,0.402,0.401,0.401,0.4,0.4,0.4,0.399,0.399,0.399,0.398,0.398,0.398,0.397,0.397,0.397,0.396,0.396,0.395,0.395,0.394,0.394,0.393,0.393,0.393,0.393,0.392,0.392,0.391,0.391,0.391,0.391,0.391,0.39,0.389,0.389,0.389,0.389,0.388,0.388,0.387,0.387,0.386,0.386,0.386,0.386,0.385,0.385,0.385,0.385,0.385,0.385,0.385,0.385,0.385,0.384,0.384,0.384,0.383,0.382,0.382,0.381,0.381,0.381,0.381,0.38,0.38,0.38,0.38,0.38,0.38,0.379,0.379,0.379,0.378,0.378,0.378,0.378,0.378,0.378,0.377,0.377,0.377,0.377,0.376,0.376,0.376,0.375,0.374,0.374,0.373,0.373,0.373,0.373,0.373,0.373,0.372,0.372,0.371,0.371,0.37,0.37,0,0,0,0,0.369,0.369,0.369,0.369,0.369,0.369,0.369,0.368,0.368,0.368,0.368,0.367,0.367,0.367,0.366,0.366,0.366,0.366,0.366,0.366,0.366,0.366,0.365,0.365,0.364,0.363,0.363,0.362,0.362,0.362,0.362,0.362,0.362,0.362,0.361,0.361,0.361,0.361,0.36,0.36,0.36,0.359,0.359,0.359,0.358,0.358,0.358,0,0.357,0.357,0.356,0.356,0.356,0.356,0.355,0.355,0.355,0.355,0.355,0.355,0.354,0.354,0.354,0.353,0.353,0.353,0.352,0.352,0.352,0.352,0.352,0.351,0.351,0.351,0.351,0.351,0.351,0.351,0.35,0.35,0.35,0.35,0.35,0.349,0.349,0.348,0.348,0.348,0.348,0.348,0.347,0.347,0.347,0.346,0.346,0.346,0.345,0.345,0.345,0.345,0.345,0.345,0.345,0.344,0.344,0.344,0.343,0.343,0.343,0.342,0.342,0.342,0.342,0.342,0.342,0.341,0.341,0.341,0.341,0.341,0.34,0.34,0.34,0.34,0.34,0.339,0.339,0.339,0.339,0.339,0.338,0.338,0.338,0.338,0.338,0.337,0.337,0.337,0.336,0.336,0.336,0.335,0.335,0.335,0.335,0.335,0.335,0.335,0.334,0.334,0.333,0.333,0.333,0.333,0.332,0.332,0.332,0.332,0.331,0.331,0.33,0.33,0.33,0.33,0.33,0.33,0.33,0,0.33,0.329,0.329,0.329,0.329,0.329,0.329,0.329,0.328,0.328,0.328,0.328,0.327,0.327,0.327,0.327,0.326,0.326,0.326,0.326,0.326,0.326,0.325,0.324,0.324,0.324,0.324,0.323,0.323,0.323,0.323,0.323,0.323,0.322,0.322,0.322,0.322,0.321,0.322,0.321,0.322,0.321,0.321,0.321,0.32,0.32,0.32,0.319,0.319,0.318,0.318,0.318,0.318,0.318,0.318,0.318,0.318,0.317,0.317,0.317,0.317,0.317,0.316,0.316,0.315,0.315,0.315,0.315,0.315,0.314,0.314,0.314,0.314,0.314,0.313,0.313,0.313,0.313,0.313,0.313,0.312,0.312,0.312,0.312,0.312,0.312,0.311,0.311,0.311,0.311,0.31,0.31,0.31,0.31,0.31,0.31,0.31,0.31,0.309,0,0.309,0.309,0.309,0,0,0.308,0.308,0.307,0.307,0.307,0.307,0.307,0.307,0.307,0.307,0.307,0.306,0.306,0.306,0.305,0.305,0,0,0,0.304,0.304,0.304,0.303,0.303,0.303,0.302,0.302,0.302,0,0,0,0,0,0,0,0,0,0,0,0,0,0,0,0,0,0,0,0,0,0,0,0,0,0,0,0,0,0,0,0,0,0,0,0,0,0,0,0,0,0,0,0,0,0,0,0,0,0,0,0,0,0,0,0,0,0,0,0,0,0,0,0,0,0,0,0,0,0,0,0,0,0,0,0,0,0,0,0,0,0,0,0,0,0
0,0,0,0,0,0,0,0,0,0,0,0,0,0,0,0,0,0,0,0,0,0,0,0,0,0,0,0,0,0,0,0,0,0,0.441,0.441,0.441,0.44,0.44,0.438,0.437,0.437,0.436,0.436,0.436,0.436,0.436,0.435,0.435,0.435,0.435,0.434,0.433,0.433,0.432,0.432,0.432,0.432,0.431,0.431,0.431,0.43,0.43,0.429,0.429,0.428,0.427,0.426,0.426,0.426,0.425,0.425,0.425,0.425,0.425,0.424,0.424,0.423,0.423,0.422,0.421,0.421,0.421,0.421,0.421,0.42,0.42,0.42,0.42,0.419,0.418,0.418,0.417,0.417,0.416,0.416,0.416,0,0.416,0,0.415,0.415,0.415,0.415,0.415,0.414,0.414,0.412,0.412,0.411,0.411,0.411,0.411,0.411,0.41,0.41,0.41,0.409,0.409,0.409,0.408,0.408,0.407,0.407,0.407,0.406,0.406,0.406,0.406,0.405,0.405,0.404,0.404,0.404,0.404,0.403,0.403,0.402,0.402,0.402,0.402,0.402,0.402,0.402,0.401,0.401,0.401,0.4,0.4,0.4,0.399,0.399,0.399,0.398,0.398,0.398,0.398,0.398,0.397,0.397,0.396,0.396,0.395,0.394,0.394,0.394,0.394,0.393,0.393,0.393,0.392,0.392,0.391,0.391,0.39,0.39,0.39,0.389,0.389,0.389,0.389,0.389,0.389,0.388,0.388,0.387,0.387,0.386,0.386,0.385,0.385,0.385,0.385,0.385,0.385,0.385,0.384,0.384,0.384,0.384,0.384,0.383,0.383,0.383,0.382,0.381,0.381,0.381,0.381,0.38,0.38,0.38,0.379,0.379,0.379,0.379,0.379,0.378,0.378,0.378,0,0,0.377,0.377,0.377,0.377,0.377,0.377,0.377,0.377,0.376,0.376,0.376,0.374,0.373,0.373,0.373,0.373,0.373,0.372,0.372,0.372,0.371,0.371,0.371,0.37,0.37,0.37,0.369,0,0,0,0,0.369,0.369,0.368,0.368,0.368,0.368,0.367,0.367,0.367,0.367,0.367,0.366,0.366,0.366,0.366,0.366,0.366,0.366,0.366,0.365,0.365,0.365,0.363,0,0.363,0.362,0.362,0.362,0.362,0.362,0.361,0.361,0,0.361,0.36,0.36,0.36,0.359,0.359,0,0,0.359,0.358,0.358,0.358,0.357,0.357,0.356,0.356,0.355,0.355,0.355,0.355,0.355,0.355,0.355,0.355,0.354,0.354,0.354,0.353,0.353,0.352,0.352,0.352,0.352,0.352,0.351,0.351,0.351,0.351,0.351,0.351,0.351,0.35,0.35,0.35,0.35,0.349,0.349,0.349,0.349,0.349,0.348,0.348,0.348,0.348,0.347,0.347,0.346,0.346,0.346,0.345,0.345,0.345,0.345,0.345,0.345,0.345,0.344,0.344,0.343,0.343,0.343,0.343,0.342,0.342,0.342,0.342,0.342,0.342,0.341,0.341,0.341,0.341,0.34,0.34,0.34,0.34,0.34,0.339,0.339,0.339,0.339,0.339,0.339,0.338,0.338,0.338,0.338,0.338,0.337,0.337,0.337,0.336,0.336,0.336,0.336,0.335,0.335,0.335,0.335,0.335,0.334,0.334,0.334,0.334,0.333,0.333,0.333,0.332,0.332,0.332,0.332,0.332,0.331,0.33,0.33,0.33,0.33,0.33,0.329,0.329,0.329,0.329,0.329,0.329,0.329,0.329,0.329,0.329,0.329,0.328,0.328,0.328,0.328,0.327,0.327,0.327,0.327,0.326,0.326,0.326,0.326,0.326,0.326,0.326,0.325,0.325,0.325,0.324,0.324,0.323,0.323,0.323,0.323,0.323,0.322,0.322,0.322,0.322,0.321,0.321,0.321,0.321,0.321,0.321,0.321,0.321,0.321,0.32,0.32,0.32,0.319,0.318,0.318,0.318,0.318,0.318,0.318,0.318,0.317,0.317,0.317,0.317,0.316,0.316,0,0,0.315,0.315,0.315,0.315,0.315,0.314,0.314,0.314,0.314,0.313,0.313,0.313,0.313,0.313,0.313,0.313,0.312,0.312,0.312,0.312,0.312,0.312,0.312,0.311,0.311,0.311,0.31,0.31,0.31,0.31,0.31,0.31,0.31,0.309,0.309,0.309,0.309,0.309,0.309,0.309,0.308,0.308,0,0,0,0.307,0.307,0.307,0.306,0.306,0.306,0.306,0.306,0.306,0.306,0.305,0.305,0.305,0.305,0.304,0,0,0.304,0.303,0.303,0.303,0.302,0.302,0.302,0.302,0.302,0.302,0,0,0,0,0,0,0,0,0,0,0,0,0,0,0,0,0,0,0,0,0,0,0,0,0,0,0,0,0,0,0,0,0,0,0,0,0,0,0,0,0,0,0,0,0,0,0,0,0,0,0,0,0,0,0,0,0,0,0,0,0,0,0,0,0,0,0,0,0,0,0,0,0,0,0,0,0,0,0,0,0,0,0,0,0,0
0,0,0,0,0,0,0,0,0,0,0,0,0,0,0,0,0,0,0,0,0,0,0,0,0,0,0,0,0,0,0,0,0,0,0,0.44,0.44,0.44,0.438,0.437,0.436,0.436,0.435,0.435,0.435,0.435,0.434,0.433,0.433,0.433,0.432,0.432,0.432,0.431,0.431,0.431,0.431,0.43,0.43,0.43,0.43,0.429,0.428,0.427,0.426,0.426,0.426,0.425,0.425,0.425,0.425,0.424,0.424,0.424,0.423,0.423,0.422,0.421,0.421,0.421,0.421,0.421,0.42,0.42,0.42,0.42,0.419,0.418,0.418,0.418,0.417,0.416,0.416,0.416,0.416,0.415,0.415,0.415,0.415,0.414,0.414,0.414,0.414,0.413,0.413,0.412,0.411,0.411,0.411,0.411,0.41,0.41,0.409,0.409,0.409,0.408,0.408,0.407,0.407,0.407,0.407,0.407,0.406,0.406,0.406,0.406,0.405,0.405,0.404,0.404,0.403,0.403,0.403,0.402,0.402,0.402,0.402,0.402,0.402,0.401,0.401,0.401,0.4,0.4,0.4,0.399,0.399,0.399,0.398,0.398,0.398,0.398,0.398,0.398,0.397,0.397,0.397,0.397,0.396,0.395,0.395,0.394,0.394,0.393,0.393,0.393,0.393,0.392,0.392,0.391,0.391,0.39,0.39,0.389,0.389,0.389,0.389,0.389,0.389,0.389,0.388,0.388,0.387,0.386,0.386,0.386,0.385,0.385,0.385,0.385,0.385,0.385,0.384,0.384,0.384,0.384,0.383,0.383,0.383,0.383,0.382,0.382,0.381,0.381,0.381,0.381,0.381,0.38,0.38,0.379,0.378,0.378,0.378,0.378,0.378,0.377,0.377,0.377,0.377,0.377,0.377,0.377,0.377,0.376,0.376,0.377,0.377,0.377,0.376,0.376,0.375,0.375,0.374,0.373,0.373,0.373,0.373,0.372,0.372,0.371,0.371,0.37,0.37,0.37,0.37,0.369,0.369,0.369,0.369,0.368,0.368,0.368,0.368,0.368,0.367,0.367,0.367,0.367,0.366,0.366,0.366,0.366,0.366,0.366,0.366,0.366,0.365,0.365,0.365,0.365,0.365,0.365,0.364,0.363,0.363,0.362,0,0.362,0.362,0.361,0.361,0.361,0.361,0.36,0.36,0.359,0.359,0.359,0.359,0.358,0.358,0.358,0.358,0.358,0.358,0.357,0.357,0.356,0.356,0.356,0.355,0.355,0.355,0.355,0.355,0.355,0.354,0.354,0.354,0.354,0.353,0.352,0.352,0.352,0.352,0.352,0.351,0.351,0.351,0.351,0.351,0.351,0.35,0.35,0.35,0.35,0.349,0.349,0.349,0.349,0.348,0.348,0.348,0.348,0.348,0.348,0.348,0.347,0.347,0.347,0.346,0.346,0.345,0.345,0.345,0.345,0.345,0.345,0.345,0.344,0.344,0.343,0.343,0.343,0.342,0.342,0.342,0.342,0.342,0.342,0.341,0.341,0.341,0.341,0.341,0.34,0.34,0.34,0.34,0.339,0.339,0.339,0.339,0.339,0.339,0.338,0.338,0.338,0.338,0.338,0.337,0.337,0.337,0.336,0.336,0.336,0.336,0.335,0.335,0.335,0.335,0.335,0.335,0.334,0.334,0.334,0.333,0.333,0.333,0.333,0.333,0.332,0.332,0.332,0.332,0.331,0.331,0.33,0.33,0.33,0.33,0.329,0.329,0.329,0.329,0.329,0.329,0.329,0.329,0.328,0.328,0.328,0.328,0.328,0.328,0.328,0.327,0.326,0.326,0.326,0.326,0.326,0.326,0.326,0.326,0.325,0.325,0.325,0.324,0.324,0.324,0.324,0.323,0.323,0.323,0.323,0.323,0.322,0.322,0.322,0.321,0,0,0.321,0.321,0.321,0.32,0.32,0.32,0.32,0.32,0.32,0,0,0.319,0.318,0.318,0.318,0.318,0.318,0.317,0.317,0.317,0.317,0.317,0.316,0.316,0.316,0.315,0,0,0,0.315,0.315,0.315,0.314,0.314,0.314,0.313,0.313,0.313,0.313,0.313,0.313,0.312,0.312,0.312,0.312,0.312,0.312,0.312,0.312,0.311,0.311,0.311,0.31,0.31,0.31,0.31,0.31,0.309,0.309,0.309,0.309,0.309,0.309,0.308,0.308,0.308,0.308,0.308,0.307,0.307,0.307,0,0,0.307,0.306,0.306,0.306,0.306,0.305,0.305,0.305,0.305,0.305,0.305,0.305,0.304,0.304,0.304,0.304,0.303,0.303,0.303,0.302,0.302,0.302,0.302,0.302,0.302,0.302,0.302,0.301,0,0,0,0,0,0,0,0,0,0,0,0,0,0,0,0,0,0,0,0,0,0,0,0,0,0,0,0,0,0,0,0,0,0,0,0,0,0,0,0,0,0,0,0,0,0,0,0,0,0,0,0,0,0,0,0,0,0,0,0,0,0,0,0,0,0,0,0,0,0,0,0,0,0,0,0,0,0,0,0,0,0,0,0,0,0
0,0,0,0,0,0,0,0,0,0,0,0,0,0,0,0,0,0,0,0,0,0,0,0,0,0,0,0,0,0,0,0,0,0,0,0,0.439,0.438,0.436,0.436,0.436,0.435,0.434,0.433,0.433,0.433,0.432,0.431,0.431,0.431,0.431,0.431,0.43,0.43,0.43,0,0,0,0.428,0.427,0.427,0.426,0.426,0.426,0.425,0.425,0.425,0.425,0.425,0.424,0.423,0.423,0.422,0.422,0.421,0.421,0.421,0.421,0.421,0.42,0.42,0.42,0.42,0.419,0.419,0.418,0.418,0.417,0.416,0.416,0.416,0.416,0.415,0.415,0.415,0.414,0.414,0.413,0.413,0.412,0.412,0.412,0.412,0.411,0.411,0.411,0.411,0.41,0.41,0.409,0.409,0.408,0.408,0.407,0.407,0.407,0.406,0.406,0.406,0.406,0.406,0.406,0.406,0.405,0.404,0.404,0.404,0.403,0.403,0.403,0.402,0.402,0.402,0.402,0.402,0.401,0.401,0.401,0.4,0.4,0.4,0.399,0.399,0.399,0.398,0.398,0.398,0.398,0.398,0.398,0.397,0.397,0.397,0.397,0.397,0.396,0.395,0.394,0.394,0.394,0.393,0.393,0.393,0.393,0.392,0.392,0.391,0.391,0.39,0,0.389,0.389,0.389,0.389,0.388,0.388,0.388,0.388,0.387,0.387,0.386,0.386,0.386,0.385,0.385,0.385,0.385,0.385,0.384,0.384,0.384,0.383,0.383,0.383,0.382,0.382,0.382,0.382,0.382,0.381,0.381,0.381,0.381,0.381,0.38,0.38,0.379,0.378,0.378,0.378,0.377,0.377,0.377,0.377,0.377,0.377,0.377,0.376,0.376,0.376,0.376,0.375,0.375,0.375,0.375,0.376,0.375,0.375,0.375,0.374,0.373,0.373,0.373,0.373,0.373,0.372,0.372,0.371,0.371,0.37,0.37,0.37,0.369,0.369,0.369,0.369,0.369,0.368,0.368,0.367,0.367,0.367,0.367,0.367,0.366,0.366,0.366,0.366,0.366,0.366,0.366,0.365,0.365,0.365,0.365,0.364,0.364,0.364,0.364,0.364,0.363,0.363,0.362,0.362,0.362,0.362,0.361,0.361,0.36,0.36,0.359,0.36,0.359,0.359,0.359,0.358,0.358,0.358,0.358,0.358,0.357,0.357,0.357,0.357,0.357,0.356,0.355,0.355,0.355,0.355,0.355,0.355,0.354,0.354,0.353,0.354,0.353,0.353,0.352,0.352,0.352,0.352,0.352,0.351,0.351,0.351,0.351,0.35,0.35,0.35,0.349,0.349,0.349,0.349,0.349,0.349,0.348,0.348,0.348,0.348,0.348,0.348,0.348,0.347,0.347,0.347,0.347,0.346,0.346,0.345,0.345,0.345,0.345,0.345,0.344,0.344,0.344,0.344,0.343,0.343,0.342,0.342,0.342,0.342,0.342,0.342,0.341,0.341,0.341,0.341,0.341,0.34,0.34,0.34,0.34,0.339,0.339,0.339,0.339,0.339,0.339,0.339,0.338,0.338,0.338,0.338,0.338,0.337,0,0,0,0.336,0.336,0.335,0.335,0.335,0.335,0.335,0.335,0.334,0.334,0.334,0.333,0.333,0.333,0.333,0.333,0.332,0.332,0.332,0.332,0.332,0.331,0.331,0.33,0.33,0.33,0.329,0.329,0.329,0.329,0.329,0.329,0.329,0.328,0.328,0.328,0.327,0.328,0.328,0.327,0.327,0.327,0.327,0.327,0.326,0.326,0.326,0.326,0.326,0.326,0.325,0.325,0.324,0.324,0.324,0.324,0.324,0.323,0.323,0.323,0.323,0.323,0.323,0.322,0.322,0.322,0.321,0.321,0.321,0.321,0,0,0.32,0.32,0.32,0.32,0.32,0.32,0.319,0.319,0,0,0,0,0,0.317,0.317,0.317,0.317,0.316,0.316,0.316,0.316,0.315,0.315,0.315,0.315,0.315,0.315,0.315,0.314,0.314,0.314,0.313,0.313,0.313,0.313,0.313,0.313,0.312,0.312,0.312,0.312,0.312,0.312,0.312,0.311,0.311,0.311,0.311,0.311,0.31,0.31,0.31,0.31,0.31,0.31,0.309,0.309,0.309,0.308,0.308,0.308,0.308,0.308,0.307,0.307,0.307,0.307,0.307,0.307,0.307,0.307,0.306,0.305,0.305,0.305,0.305,0.305,0.305,0.305,0.305,0.305,0.304,0.304,0.304,0.304,0.304,0.303,0.303,0.303,0.302,0.302,0.302,0.302,0.302,0.302,0.302,0.301,0.301,0.301,0.301,0.301,0.301,0,0,0,0,0,0,0,0,0,0,0,0,0,0,0,0,0,0,0,0,0,0,0,0,0,0,0,0,0,0,0,0,0,0,0,0,0,0,0,0,0,0,0,0,0,0,0,0,0,0,0,0,0,0,0,0,0,0,0,0,0,0,0,0,0,0,0,0,0,0,0,0,0,0,0,0,0,0,0,0,0,0,0,0,0
0,0,0,0,0,0,0,0,0,0,0,0,0,0,0,0,0,0,0,0,0,0,0,0,0,0,0,0,0,0,0,0,0,0,0,0,0.438,0.437,0.436,0.435,0.435,0.434,0.432,0.431,0.431,0.431,0.431,0.431,0.43,0.43,0.43,0.429,0.429,0.428,0.427,0.427,0,0,0,0.426,0,0,0,0,0,0.424,0.424,0.424,0.423,0.422,0.421,0.421,0.421,0.421,0.42,0.42,0.42,0.42,0.42,0.42,0.419,0.419,0.418,0.418,0.417,0.417,0.417,0.416,0.416,0.415,0.415,0.415,0.414,0.414,0.413,0.412,0.412,0.412,0.411,0.411,0.411,0.411,0.411,0.41,0.41,0.41,0.409,0.409,0.408,0.407,0.407,0.407,0.407,0.406,0.406,0.406,0.406,0.405,0.405,0.405,0.404,0.404,0.404,0.404,0.403,0.403,0.403,0.402,0.402,0.402,0.401,0.401,0.401,0.4,0.4,0.4,0.399,0.399,0.399,0.398,0.398,0.398,0.398,0.398,0.397,0.397,0.397,0.397,0.397,0.397,0.396,0.396,0.396,0.395,0.394,0.394,0.394,0.394,0.393,0.393,0.392,0.392,0.392,0.391,0.391,0.39,0.39,0.389,0.389,0,0.389,0.388,0.388,0.388,0.387,0.387,0.386,0.386,0.386,0.385,0.385,0.385,0,0.385,0.385,0.384,0.384,0.383,0.383,0.382,0.382,0.382,0.382,0.382,0.381,0.381,0.381,0.381,0.381,0.381,0.381,0.38,0.38,0.379,0.378,0.378,0.377,0.377,0.377,0.377,0.377,0.377,0.377,0.376,0.376,0.376,0.376,0.375,0.375,0.374,0.374,0.374,0.374,0.374,0.374,0.374,0.374,0.373,0.373,0.373,0.373,0.373,0.372,0.371,0.371,0.371,0.37,0.37,0.37,0.37,0.369,0.369,0.369,0.369,0.368,0.368,0.367,0.367,0.367,0.366,0.366,0.366,0.366,0.366,0.366,0.366,0.366,0.365,0.365,0.365,0.365,0.364,0.364,0.363,0.363,0,0,0.362,0.362,0.362,0.362,0.362,0.362,0.361,0.361,0.361,0.36,0.359,0.359,0.359,0.359,0.359,0.358,0.358,0.358,0.358,0.358,0.357,0.357,0.356,0.356,0.356,0.356,0.356,0.355,0.355,0.355,0.355,0.355,0.355,0.354,0.354,0.353,0.353,0.352,0.352,0.352,0.352,0.352,0.352,0.351,0.351,0.351,0.351,0.35,0.35,0.349,0.349,0.349,0.349,0.348,0.348,0.348,0.348,0.348,0.348,0.347,0.347,0.347,0.347,0.346,0.346,0.346,0.346,0.345,0.345,0.345,0.345,0.345,0.345,0.345,0.345,0.344,0.344,0.344,0.343,0.343,0.343,0.342,0.342,0.342,0.342,0.342,0.342,0.341,0.341,0.341,0.341,0.34,0.34,0.34,0.339,0.339,0.339,0.339,0.339,0.339,0.338,0.338,0.338,0.338,0.338,0.338,0.338,0.337,0.337,0.336,0.336,0.336,0,0,0.335,0.335,0.335,0.334,0.334,0.334,0.334,0.333,0.333,0.333,0.333,0.333,0.332,0.332,0.332,0.332,0.332,0.332,0.332,0.331,0.331,0.33,0.33,0.329,0.329,0.329,0.329,0.329,0.329,0.328,0.328,0.328,0.328,0.328,0.327,0.327,0.327,0.327,0.327,0.327,0.326,0.326,0.326,0.326,0.326,0.326,0.326,0.326,0.325,0.325,0.324,0.324,0.324,0.323,0.323,0.323,0.323,0.323,0.323,0.322,0.322,0.322,0.321,0.321,0.321,0.321,0.321,0.32,0.32,0.32,0,0,0.319,0.319,0.319,0.319,0.319,0.318,0.318,0.318,0.318,0,0,0,0.316,0.316,0.316,0.316,0.315,0.315,0.315,0.315,0,0,0.315,0.315,0.314,0.314,0.314,0.313,0.313,0.313,0.313,0.313,0.313,0.313,0.312,0.312,0.312,0.312,0.312,0.312,0.311,0.311,0.311,0.311,0.311,0.31,0.31,0.31,0.31,0.31,0.31,0.31,0.309,0.309,0.309,0.308,0.308,0.308,0.307,0.307,0.307,0.307,0.307,0.307,0.307,0.307,0.307,0.307,0.306,0.306,0.305,0.305,0.305,0.305,0.304,0.304,0.304,0.304,0.304,0.304,0.304,0.304,0.304,0.304,0.303,0.303,0.303,0.302,0.302,0.302,0.302,0.302,0.301,0.301,0.301,0.3,0.3,0.3,0.3,0.3,0.3,0.3,0,0,0,0,0,0,0,0,0,0,0,0,0,0,0,0,0,0,0,0,0,0,0,0,0,0,0,0,0,0,0,0,0,0,0,0,0,0,0,0,0,0,0,0,0,0,0,0,0,0,0,0,0,0,0,0,0,0,0,0,0,0,0,0,0,0,0,0,0,0,0,0,0,0,0,0,0,0,0,0,0,0,0,0,0
0,0,0,0,0,0,0,0,0,0,0,0,0,0,0,0,0,0,0,0,0,0,0,0,0,0,0,0,0,0,0,0,0,0,0,0,0,0,0,0,0,0,0.431,0.431,0.43,0.43,0.43,0.429,0.429,0.429,0.428,0.427,0.426,0.426,0.426,0.425,0.425,0.425,0.425,0.425,0.425,0.425,0.424,0.424,0.423,0.423,0.422,0.422,0.421,0.421,0.421,0.42,0.42,0.42,0.419,0.419,0.418,0.418,0.418,0.418,0.417,0.417,0.417,0.416,0.416,0.416,0.416,0.415,0.415,0.414,0.414,0.413,0.412,0.412,0.412,0.411,0.411,0.411,0.411,0.41,0.41,0.41,0.409,0.409,0.408,0.408,0.407,0.407,0.407,0.406,0.406,0.406,0.406,0.405,0.405,0.405,0.404,0.404,0.404,0.403,0.403,0.402,0.402,0.402,0.402,0.402,0.401,0.401,0.401,0.401,0.4,0.399,0.399,0.399,0.399,0.398,0.398,0.398,0.398,0.398,0.398,0.397,0.397,0.397,0.397,0.397,0.396,0.396,0.396,0.395,0.395,0.395,0.394,0.394,0.394,0.393,0.393,0.392,0.392,0.391,0.391,0.39,0.39,0.39,0.389,0.389,0.389,0.388,0.388,0.387,0.386,0.386,0.386,0.386,0.386,0.386,0.385,0.385,0.385,0.385,0.385,0.385,0.384,0.384,0.384,0.383,0.383,0.382,0.382,0.381,0.381,0.381,0.381,0.381,0.381,0.381,0.381,0.381,0.38,0.38,0.379,0.378,0.378,0.377,0.377,0.377,0.377,0.377,0.377,0.376,0.376,0.376,0.376,0.376,0.375,0.375,0.374,0.374,0.373,0.373,0.373,0.373,0.373,0.373,0.373,0.373,0.373,0.373,0.373,0.372,0.371,0.371,0.37,0.37,0.37,0.37,0.369,0.369,0.369,0.369,0.369,0.368,0.368,0.368,0.367,0.367,0.367,0.366,0.366,0.366,0.366,0.366,0.366,0.365,0.365,0.365,0.365,0.364,0.364,0.363,0.363,0.363,0.362,0.362,0,0,0,0.362,0.362,0.362,0.361,0.361,0.36,0.36,0.359,0.359,0.359,0.359,0.358,0.358,0.358,0.358,0.358,0.357,0.357,0.357,0.356,0.356,0.355,0.355,0.355,0.355,0.355,0.355,0.355,0.355,0.354,0.354,0.354,0.353,0.352,0.352,0.352,0.352,0.352,0.352,0.351,0.351,0.351,0.351,0.351,0.35,0.35,0.349,0.349,0.349,0.348,0.348,0.348,0.348,0.348,0.348,0.347,0.347,0.347,0.346,0.346,0.346,0.345,0.345,0.345,0.345,0.345,0.345,0.345,0.345,0.345,0.344,0.344,0.344,0.344,0.343,0.343,0.342,0.342,0.342,0.342,0.342,0.342,0.342,0.342,0.341,0.341,0.341,0.341,0.34,0.34,0.339,0.339,0.339,0.339,0.339,0.338,0.338,0.338,0.338,0.338,0.338,0.338,0.338,0.338,0.338,0.337,0.337,0.336,0.336,0.336,0.335,0.335,0.335,0.335,0.334,0.334,0.333,0.333,0.333,0.333,0.333,0.333,0.332,0.332,0.332,0.332,0.332,0.332,0.332,0.331,0.331,0.331,0.331,0.33,0.33,0.329,0.329,0.329,0.329,0.328,0.328,0.328,0.328,0.327,0.327,0.327,0.327,0.327,0.326,0.326,0.326,0.326,0.326,0.326,0.326,0.326,0.326,0.326,0.325,0.325,0.325,0.325,0.324,0.324,0.324,0.323,0.323,0.322,0.322,0.322,0.321,0.321,0.321,0.321,0.321,0.321,0,0.321,0.321,0.32,0.32,0.32,0.32,0.319,0.319,0.319,0.318,0.318,0.318,0.318,0.318,0.318,0.318,0.317,0.317,0.316,0.316,0.315,0.315,0.315,0.315,0.315,0.315,0.315,0.315,0,0,0,0.313,0.313,0.313,0.313,0.313,0.313,0.313,0.312,0.312,0.312,0.312,0.312,0.312,0.312,0.312,0.311,0.311,0.311,0.31,0.31,0.31,0.31,0.31,0.31,0.31,0.31,0.31,0.309,0.309,0.309,0.309,0.308,0.308,0.307,0.307,0.307,0.307,0.307,0.307,0.307,0.307,0.307,0.307,0.306,0.306,0.305,0.305,0.305,0.305,0.305,0.304,0.304,0.304,0.304,0.304,0.304,0.304,0.304,0.303,0.303,0.303,0.303,0.302,0.302,0.302,0.302,0.302,0.301,0.301,0.301,0.3,0.3,0.3,0.3,0.3,0.3,0.299,0.299,0.299,0.299,0,0,0,0,0,0,0,0,0,0,0,0,0,0,0,0,0,0,0,0,0,0,0,0,0,0,0,0,0,0,0,0,0,0,0,0,0,0,0,0,0,0,0,0,0,0,0,0,0,0,0,0,0,0,0,0,0,0,0,0,0,0,0,0,0,0,0,0,0,0,0,0,0,0,0,0,0,0,0,0,0,0,0,0,0
0,0,0,0,0,0,0,0,0,0,0,0,0,0,0,0,0,0,0,0,0,0,0,0,0,0,0,0,0,0,0,0,0,0,0,0,0,0,0,0,0,0.43,0.43,0.429,0.429,0.429,0.428,0,0,0.427,0.426,0.426,0.425,0.425,0.425,0.424,0.424,0,0,0.423,0.423,0.423,0.422,0.422,0.421,0.421,0.421,0.421,0.421,0.42,0.42,0.419,0.418,0.418,0.417,0.417,0.417,0.417,0.416,0.416,0.416,0,0.416,0.416,0.415,0.415,0.415,0.414,0.414,0.413,0.412,0.412,0.411,0.411,0.411,0.411,0.41,0.41,0.41,0.409,0.409,0.408,0.408,0.407,0.407,0.407,0.407,0.406,0.406,0.405,0.405,0.405,0.404,0.404,0.404,0.403,0.403,0.403,0.402,0.402,0.402,0.402,0.402,0.401,0.401,0.4,0.4,0.4,0.399,0.399,0.398,0.398,0.398,0.398,0.398,0.398,0.397,0.397,0.397,0.397,0.397,0.396,0.396,0.395,0.395,0.395,0.394,0.394,0.394,0.394,0.393,0.393,0.393,0.393,0.392,0.391,0.391,0.391,0.39,0.39,0.389,0.389,0.389,0.389,0.389,0.388,0.387,0.386,0.386,0.386,0.385,0.385,0.385,0.385,0.385,0.385,0.385,0.385,0.384,0.384,0.384,0.383,0.383,0.382,0.382,0.382,0.382,0.381,0.381,0.381,0.381,0.381,0.381,0.38,0.38,0.38,0.38,0.379,0.379,0.378,0.378,0.377,0.377,0.377,0.377,0.376,0.376,0.376,0.375,0.375,0.375,0.374,0.374,0.374,0.374,0.373,0.373,0.373,0.373,0.373,0.373,0.373,0.373,0.373,0.373,0.372,0.372,0.371,0.371,0.371,0,0.37,0.369,0.369,0.369,0.369,0.369,0.369,0.368,0.368,0.368,0.367,0.367,0.367,0.367,0.366,0.366,0.366,0.366,0.366,0.365,0.365,0.365,0.364,0.363,0,0,0,0.362,0.362,0.362,0.362,0.362,0.361,0.361,0.36,0.36,0.36,0.36,0.36,0.36,0.359,0.359,0.359,0.359,0.359,0.358,0.358,0.358,0.358,0.357,0.357,0.356,0.356,0.356,0.356,0.355,0.355,0.355,0.355,0.355,0.355,0.355,0.355,0.354,0.354,0.353,0.352,0.352,0.352,0.352,0.352,0.351,0.351,0.351,0.351,0.351,0.351,0.35,0.35,0.349,0.349,0.349,0.348,0.348,0.348,0.348,0.348,0.347,0.347,0.347,0.346,0.346,0.346,0.345,0.345,0.345,0.345,0.345,0.345,0.345,0.345,0.344,0.344,0.344,0.344,0.343,0.343,0.342,0.342,0.342,0.342,0.342,0.342,0.341,0.341,0.341,0.341,0.341,0.341,0.341,0.341,0.34,0.34,0.34,0.339,0.339,0.339,0.339,0.338,0.338,0.338,0.338,0.338,0.338,0.338,0.337,0.337,0.337,0.337,0.337,0.336,0.336,0.336,0.335,0.335,0.335,0.335,0.334,0.334,0.333,0.333,0.333,0.332,0.333,0.332,0.332,0.332,0.332,0.332,0.332,0.332,0.331,0.331,0.331,0.331,0.33,0.33,0.33,0.329,0.329,0.329,0.329,0.329,0.328,0.328,0.327,0.327,0.327,0.327,0.327,0.327,0.326,0.326,0.326,0.326,0.326,0.326,0.326,0.325,0.325,0.325,0,0,0,0.324,0.324,0.324,0.324,0.323,0.323,0.323,0.322,0.322,0.321,0.321,0.321,0.321,0.321,0.321,0.32,0.32,0.32,0.32,0.32,0.32,0.319,0.319,0.319,0.319,0.318,0.318,0.318,0.318,0.318,0.318,0.318,0.317,0.317,0.317,0.316,0.315,0.315,0.315,0.315,0.315,0.315,0.315,0.315,0.315,0.314,0.314,0.313,0.313,0.313,0.313,0.312,0.312,0.312,0.312,0.312,0.312,0.312,0.312,0.312,0.312,0.311,0.311,0.311,0.311,0.31,0.31,0.31,0.31,0.31,0.31,0.31,0.309,0.309,0.309,0.309,0.309,0.309,0.309,0.308,0.308,0.307,0.307,0.307,0.307,0.307,0.307,0.307,0.306,0.306,0.306,0.306,0.305,0.305,0.305,0.305,0.304,0.304,0.304,0.304,0.304,0.304,0.303,0.303,0.303,0.303,0.303,0.302,0.302,0.302,0.302,0.302,0.302,0.302,0.302,0.302,0.301,0.301,0.301,0.3,0.3,0.3,0.299,0.299,0.299,0.299,0.299,0.299,0.299,0.299,0,0,0,0,0,0,0,0,0,0,0,0,0,0,0,0,0,0,0,0,0,0,0,0,0,0,0,0,0,0,0,0,0,0,0,0,0,0,0,0,0,0,0,0,0,0,0,0,0,0,0,0,0,0,0,0,0,0,0,0,0,0,0,0,0,0,0,0,0,0,0,0,0,0,0,0,0,0,0,0,0,0,0,0,0
0,0,0,0,0,0,0,0,0,0,0,0,0,0,0,0,0,0,0,0,0,0,0,0,0,0,0,0,0,0,0,0,0,0,0,0,0,0,0,0,0.429,0.429,0.428,0.428,0.427,0.427,0.426,0,0,0.426,0.425,0.425,0.424,0.424,0.423,0.422,0.422,0.422,0.421,0.421,0.421,0.421,0.421,0.421,0.42,0.42,0.42,0.42,0.419,0.418,0.418,0.417,0.417,0.416,0.416,0.416,0.416,0.416,0.416,0.415,0.415,0.415,0.414,0.414,0.414,0.414,0.413,0.412,0.412,0.411,0.411,0.411,0.411,0.41,0.41,0.409,0.409,0.409,0.408,0.407,0.407,0.407,0.407,0.406,0.406,0.406,0.406,0.405,0.404,0.404,0.403,0.403,0.403,0.402,0.402,0.402,0.402,0.402,0.401,0.401,0.4,0.4,0.399,0.399,0,0.398,0.398,0.398,0.398,0.398,0.398,0.398,0.397,0.397,0.397,0.397,0.396,0.396,0.396,0.395,0.395,0.394,0.394,0.394,0.394,0.394,0.393,0.393,0.393,0.393,0.393,0.392,0.392,0.391,0.391,0.39,0.39,0.389,0.389,0.389,0.389,0.389,0.388,0.388,0.388,0.386,0.386,0.385,0.385,0.385,0.385,0.384,0.384,0.384,0.384,0.384,0.384,0.384,0.383,0.382,0.382,0.382,0.382,0.381,0.381,0.381,0.381,0.381,0.381,0.38,0.38,0.38,0.38,0.379,0.379,0.378,0.378,0.377,0.377,0.377,0.377,0.377,0.376,0.376,0.376,0.375,0.375,0.374,0.374,0.374,0.374,0.374,0.373,0.373,0.373,0.373,0.373,0.373,0.372,0.372,0.372,0.372,0.372,0.372,0.371,0.371,0.37,0.37,0.37,0.369,0.369,0.369,0.369,0.369,0.368,0.368,0.367,0.367,0.367,0.367,0.367,0.367,0.366,0.366,0.366,0.366,0.366,0.366,0.365,0.365,0.364,0.364,0.364,0.363,0.362,0,0,0,0.362,0.362,0.361,0.361,0.36,0.36,0.359,0.359,0.359,0.359,0.359,0.359,0.359,0.359,0.358,0.358,0.358,0.358,0.357,0.357,0.356,0.356,0.356,0.355,0.355,0.355,0.355,0.355,0.355,0.355,0.355,0.354,0.354,0.354,0.354,0.354,0.352,0,0,0.352,0.351,0.351,0.351,0.351,0.351,0.35,0.35,0.35,0.35,0.349,0.349,0.349,0.348,0.348,0.348,0.348,0.347,0.347,0.347,0.346,0.346,0.346,0.345,0.345,0.345,0.345,0.345,0.345,0.344,0.344,0.344,0.344,0.344,0.343,0.343,0.342,0.342,0.342,0.342,0.342,0.342,0.342,0.341,0.341,0.341,0.341,0.341,0.34,0.34,0.34,0.34,0.34,0.34,0.34,0,0,0.339,0.338,0.338,0.338,0.338,0.338,0.337,0.337,0.337,0.337,0.337,0.337,0.337,0.337,0.336,0.336,0.336,0.336,0.336,0.335,0.335,0.335,0.334,0.333,0.333,0.333,0.332,0.332,0.332,0.332,0.332,0.332,0.332,0.332,0.331,0.331,0.331,0.331,0.331,0.33,0.33,0.329,0.329,0.329,0.329,0.329,0.329,0.328,0.328,0.327,0.327,0.327,0.327,0.326,0.326,0.326,0.326,0.326,0.326,0.325,0.325,0.325,0.325,0.324,0.324,0.324,0.324,0.324,0,0,0,0.323,0.323,0.323,0.323,0.323,0,0.322,0.321,0.321,0.321,0.321,0.32,0.32,0.32,0.32,0.32,0.32,0.319,0.319,0.319,0.318,0.318,0.318,0.318,0.318,0.318,0.318,0.318,0.317,0.317,0.317,0.317,0.317,0.316,0.315,0.315,0.315,0.315,0.315,0.315,0.314,0.314,0.314,0.314,0.314,0.313,0.313,0.313,0.312,0.312,0.312,0.312,0.312,0.312,0.312,0.312,0.312,0.311,0.311,0.311,0.311,0.311,0.31,0.31,0.31,0.31,0.31,0.31,0.309,0.309,0.309,0.309,0.309,0.309,0.308,0.308,0.308,0.308,0.307,0.307,0.307,0.307,0.307,0.307,0.307,0.306,0.306,0.306,0.305,0.305,0.305,0.305,0.305,0.304,0.304,0.304,0.304,0.304,0.304,0.303,0.303,0.303,0.303,0.302,0.302,0.302,0.302,0.302,0.302,0.302,0.302,0.302,0.301,0.301,0.301,0.301,0.3,0.3,0.3,0.299,0.299,0.299,0.299,0.299,0.299,0.299,0.299,0.299,0.299,0.299,0,0,0,0,0,0,0,0,0,0,0,0,0,0,0,0,0,0,0,0,0,0,0,0,0,0,0,0,0,0,0,0,0,0,0,0,0,0,0,0,0,0,0,0,0,0,0,0,0,0,0,0,0,0,0,0,0,0,0,0,0,0,0,0,0,0,0,0,0,0,0,0,0,0,0,0,0,0,0,0,0,0,0,0,0
0,0,0,0,0,0,0,0,0,0,0,0,0,0,0,0,0,0,0,0,0,0,0,0,0,0,0,0,0,0,0,0,0,0,0,0,0,0,0,0,0,0.425,0.425,0.425,0.425,0.425,0.425,0.425,0.425,0.424,0.424,0.423,0.422,0.422,0.422,0.421,0.421,0.421,0.421,0.421,0.42,0.42,0.42,0.42,0.419,0.419,0.418,0,0,0.417,0.416,0.416,0.416,0.416,0.415,0.415,0.415,0.415,0.414,0.414,0.413,0.413,0.412,0.412,0.412,0.412,0.412,0.411,0.411,0.411,0.411,0.409,0.409,0.408,0.408,0.407,0.407,0.407,0.407,0.406,0.406,0.406,0.406,0.406,0.404,0.404,0.404,0.403,0.403,0.402,0.402,0.402,0.402,0.402,0.402,0.401,0.401,0.4,0.399,0.399,0.398,0.398,0.398,0.398,0,0,0.397,0.397,0.397,0.397,0.397,0.397,0.397,0.397,0.396,0.395,0.395,0.394,0.394,0.394,0.394,0.393,0.393,0.393,0.393,0.393,0.393,0,0.391,0.391,0.391,0.39,0.39,0.39,0,0.389,0.389,0.389,0.389,0.388,0.388,0.388,0.386,0.386,0.386,0.385,0.385,0.385,0.385,0.385,0.384,0.384,0.384,0.383,0.383,0.383,0.382,0.382,0.382,0.381,0.381,0.381,0.381,0.381,0.381,0.381,0.38,0.38,0.38,0.379,0.379,0.378,0.378,0.377,0.377,0.377,0.377,0.377,0.377,0.376,0.376,0.376,0.375,0.375,0.374,0.374,0.374,0.373,0.373,0.373,0.373,0.373,0.373,0.373,0.372,0.372,0.372,0.371,0.371,0.371,0.371,0.37,0.37,0.37,0.37,0.37,0.369,0.369,0.369,0.369,0.368,0.368,0.367,0.367,0.367,0.367,0.366,0.366,0.366,0.366,0.366,0.366,0.366,0.366,0.366,0.365,0.365,0.365,0.364,0.364,0.363,0.362,0.362,0.362,0.362,0.361,0.361,0.361,0.361,0.36,0.36,0.359,0.359,0.359,0.358,0.358,0.358,0.358,0.358,0.358,0.358,0.357,0.357,0.357,0.356,0.356,0.356,0.355,0.355,0.355,0.355,0.355,0.355,0.355,0.354,0.354,0.354,0.354,0.354,0.353,0.353,0.353,0.352,0.352,0.352,0.351,0.351,0.351,0.351,0.351,0.35,0.35,0.35,0.349,0.349,0.349,0.349,0.349,0.348,0.348,0.348,0.348,0.347,0.347,0.346,0.346,0.346,0.345,0.345,0.345,0.345,0.345,0.345,0.344,0.344,0.344,0.344,0.343,0.342,0.342,0.342,0.342,0.342,0.342,0.342,0.342,0.342,0.341,0.341,0.341,0.341,0.34,0.34,0.34,0.34,0.339,0.339,0.339,0.339,0.339,0.339,0,0,0.338,0.338,0.338,0.338,0.338,0.337,0.337,0.336,0.336,0.336,0.336,0.336,0.336,0.336,0.336,0.336,0.335,0.335,0.335,0.335,0.335,0.334,0.333,0.333,0.332,0.332,0.332,0.332,0.331,0.331,0.331,0.331,0.331,0.331,0.331,0.33,0.33,0.33,0.33,0.33,0.329,0.329,0.329,0.329,0.328,0.328,0.328,0.328,0.327,0.327,0.327,0.326,0.326,0.326,0.326,0.326,0.325,0.325,0.325,0.324,0.324,0.324,0.324,0.324,0.324,0.324,0.323,0.323,0.323,0,0,0,0.323,0.323,0.322,0.322,0,0,0,0,0.321,0.32,0.32,0.32,0.32,0.319,0.319,0.318,0.318,0.318,0.318,0.318,0.318,0.318,0.318,0.318,0.318,0.317,0.317,0.317,0.317,0.316,0.316,0.316,0.315,0.315,0.315,0.315,0.315,0.314,0.314,0.314,0.314,0.314,0.313,0.313,0.313,0.312,0.312,0.312,0.312,0.312,0.312,0.312,0.312,0.312,0.311,0.311,0.311,0.311,0.311,0.31,0.31,0.31,0.31,0.31,0.31,0.309,0.309,0.309,0.309,0.309,0.308,0.308,0.308,0.307,0.307,0.307,0.307,0.307,0.307,0.307,0.307,0.307,0.306,0.306,0.306,0.306,0.305,0.305,0.305,0.305,0.304,0.304,0.304,0.304,0.304,0.303,0.303,0.303,0.303,0.302,0.302,0.302,0.302,0.302,0.302,0.302,0.302,0.302,0.301,0.301,0.301,0.301,0.3,0.3,0.3,0.3,0.3,0.299,0.299,0.299,0.299,0.299,0.298,0.298,0.298,0.298,0.298,0.298,0.298,0.298,0,0,0,0,0,0,0,0,0,0,0,0,0,0,0,0,0,0,0,0,0,0,0,0,0,0,0,0,0,0,0,0,0,0,0,0,0,0,0,0,0,0,0,0,0,0,0,0,0,0,0,0,0,0,0,0,0,0,0,0,0,0,0,0,0,0,0,0,0,0,0,0,0,0,0,0,0,0,0,0,0,0,0,0,0
0,0,0,0,0,0,0,0,0,0,0,0,0,0,0,0,0,0,0,0,0,0,0,0,0,0,0,0,0,0,0,0,0,0,0,0,0,0,0,0.425,0.425,0.425,0.424,0.424,0.423,0.422,0.422,0.422,0.421,0.421,0.421,0.421,0.421,0.42,0.42,0.421,0.42,0.42,0.42,0.42,0.42,0.42,0.419,0.418,0.418,0.417,0.417,0.416,0,0,0,0.415,0.415,0.415,0.414,0.413,0.412,0.412,0.412,0.412,0.411,0.411,0.411,0.411,0.411,0.411,0.411,0.411,0.41,0.41,0.409,0.408,0.407,0.407,0.407,0.407,0.406,0.406,0.406,0.406,0.405,0.405,0.404,0.403,0.403,0.402,0.402,0.402,0.402,0.402,0.402,0.401,0.401,0.4,0.399,0.399,0.399,0.398,0.398,0.398,0.397,0.397,0.397,0.397,0.397,0.397,0.397,0.397,0.396,0.396,0.395,0,0.395,0.394,0.394,0.394,0.394,0.393,0.393,0.393,0.393,0.393,0.392,0.392,0.392,0.392,0,0,0.39,0.389,0.389,0.389,0.389,0,0,0,0.388,0.388,0.387,0.386,0.386,0.386,0.385,0.385,0.385,0.385,0.385,0.384,0.384,0.384,0.383,0.382,0.382,0.382,0.382,0.381,0.381,0.381,0.381,0.381,0.381,0.38,0.38,0.38,0.38,0.38,0.379,0.379,0.378,0.378,0.377,0.377,0.377,0.377,0.376,0.376,0.376,0.376,0.376,0.375,0.375,0.374,0.374,0.373,0.373,0.373,0.373,0.373,0.373,0.373,0.372,0.372,0.372,0.371,0.371,0.371,0.37,0.37,0.37,0.37,0.369,0.369,0.369,0.369,0.369,0.369,0.368,0.368,0.367,0.367,0.367,0.366,0.366,0.366,0.366,0.366,0.366,0.366,0.366,0.366,0.365,0.365,0.365,0.365,0.365,0.365,0.364,0.364,0,0.363,0.362,0.362,0.362,0.361,0.36,0.36,0.36,0.359,0.359,0.359,0.359,0.359,0.358,0.358,0.358,0.357,0.357,0.357,0.356,0.356,0.356,0.356,0.355,0.355,0.355,0.355,0.355,0.355,0.354,0.354,0.354,0.354,0.353,0.353,0.353,0.353,0.352,0.352,0.352,0.352,0.352,0.352,0.351,0.351,0.351,0.351,0.35,0.35,0.35,0.349,0.349,0.349,0.349,0.348,0.348,0.348,0.348,0.348,0.347,0.347,0.347,0.346,0.346,0.346,0.345,0.345,0.345,0.345,0.345,0.345,0.344,0.344,0.344,0.343,0.343,0.342,0.342,0.342,0.342,0.342,0.341,0.341,0.341,0.341,0.341,0.341,0.341,0.341,0.34,0.34,0.339,0.339,0.339,0.339,0.339,0.339,0.339,0.338,0.338,0.338,0.338,0.338,0.338,0.337,0.337,0.337,0.337,0.337,0.336,0.336,0.336,0.336,0.336,0.336,0.336,0.335,0.335,0.335,0.335,0.335,0.335,0.334,0.334,0.333,0.333,0.332,0.332,0.332,0.332,0.332,0.331,0.331,0.331,0.33,0.33,0.33,0.33,0.33,0.33,0.329,0.329,0.329,0.329,0.329,0.329,0.328,0.327,0.327,0.327,0.327,0.327,0.326,0.326,0.326,0.326,0.326,0.325,0.325,0.325,0.324,0.324,0.324,0.324,0.323,0.323,0.323,0.323,0.323,0.323,0.323,0.323,0.323,0.323,0.322,0.322,0.321,0.321,0.321,0.321,0,0.321,0,0,0.32,0.319,0.319,0.319,0.318,0.318,0.318,0.318,0.318,0.318,0.318,0.318,0.317,0.317,0.317,0.317,0.317,0.317,0.316,0,0.315,0.315,0.315,0.315,0.315,0.315,0.314,0.314,0.314,0.314,0.313,0.313,0.313,0.313,0.313,0.312,0.312,0.312,0.312,0.312,0.312,0.311,0.311,0.311,0.311,0.311,0.311,0.31,0.31,0.31,0.31,0.31,0.31,0.309,0.309,0.309,0.309,0.309,0.309,0.308,0.308,0.308,0.307,0.307,0.307,0.307,0.307,0.307,0.307,0.306,0.306,0.306,0.306,0.306,0.305,0.305,0.305,0.305,0.304,0.304,0.304,0.304,0.304,0.303,0.303,0.303,0.303,0.302,0.302,0.302,0.302,0.302,0.302,0.302,0.302,0.302,0.302,0.301,0.301,0.301,0.3,0.3,0.3,0.3,0.299,0.299,0.299,0.299,0.299,0.299,0.299,0.298,0.298,0.298,0.298,0.298,0.297,0.297,0.297,0.297,0.297,0.297,0,0,0,0,0,0,0,0,0,0,0,0,0,0,0,0,0,0,0,0,0,0,0,0,0,0,0,0,0,0,0,0,0,0,0,0,0,0,0,0,0,0,0,0,0,0,0,0,0,0,0,0,0,0,0,0,0,0,0,0,0,0,0,0,0,0,0,0,0,0,0,0,0,0,0,0,0,0,0,0,0,0,0,0,0
0,0,0,0,0,0,0,0,0,0,0,0,0,0,0,0,0,0,0,0,0,0,0,0,0,0,0,0,0,0,0,0,0,0,0,0,0,0,0,0.424,0.424,0.423,0.423,0.422,0.422,0.421,0.421,0.421,0.421,0.421,0.42,0.42,0.42,0.42,0.419,0.419,0.419,0.417,0.417,0.417,0.417,0.416,0.416,0.417,0.416,0.416,0.416,0.415,0.415,0.415,0,0,0,0.412,0.412,0.411,0.411,0.411,0.411,0.411,0.411,0.41,0.41,0.41,0.41,0.41,0.409,0.408,0.408,0.407,0.407,0.407,0.407,0.406,0.406,0.406,0.406,0.405,0.405,0.404,0.403,0.403,0.402,0.402,0.402,0.402,0.401,0.401,0.401,0.4,0.4,0.4,0.399,0.399,0.398,0.398,0.398,0.398,0.397,0.397,0.397,0.396,0.396,0.396,0.395,0.395,0.395,0.394,0.394,0.394,0.394,0.394,0.394,0.393,0.393,0.393,0.393,0.393,0.392,0.392,0.391,0.391,0.39,0.39,0.39,0.39,0.389,0.389,0.389,0.389,0.389,0.388,0.388,0.388,0.388,0.387,0.386,0.386,0.385,0.385,0.385,0.385,0.385,0.385,0.384,0.384,0.384,0.383,0.383,0.382,0.382,0.381,0.381,0.381,0.381,0.381,0.381,0.38,0.38,0.38,0.379,0.379,0.379,0.378,0.378,0.378,0.378,0.377,0.377,0.377,0.377,0.376,0.376,0.375,0.375,0.375,0.374,0.374,0.374,0.374,0.373,0.373,0.373,0.373,0.373,0.372,0.372,0.372,0.371,0.371,0.371,0.371,0.37,0.37,0.37,0.37,0.37,0.369,0.369,0.369,0.369,0.369,0.369,0.369,0.368,0.367,0.367,0.367,0.367,0.366,0.366,0.366,0.366,0.366,0.365,0.365,0.365,0.365,0.365,0.364,0.364,0.364,0.364,0.364,0.364,0.363,0.362,0.362,0.362,0.362,0.362,0.361,0.36,0.36,0.359,0.359,0.359,0.359,0.358,0.358,0.358,0.358,0.357,0.357,0.356,0.356,0.356,0.355,0.355,0.355,0.355,0.355,0.355,0.355,0.354,0.354,0.354,0.354,0.353,0.353,0.352,0.352,0.352,0.352,0.352,0.352,0.352,0.351,0.351,0,0.351,0.351,0.351,0.35,0.35,0.349,0.349,0.349,0.349,0.348,0.348,0.348,0.348,0.348,0.348,0.347,0.347,0.346,0.346,0.346,0.345,0.345,0.345,0.345,0.345,0.345,0.345,0.344,0.344,0.344,0.343,0.342,0.342,0.342,0.342,0.342,0.341,0.341,0.341,0.341,0.341,0.341,0.34,0.34,0.34,0.34,0.34,0.339,0.339,0.339,0.339,0.339,0.338,0.338,0.338,0.338,0.338,0.338,0.338,0.337,0.337,0.337,0.336,0.336,0.336,0.336,0.336,0.336,0.336,0.335,0.335,0.335,0.335,0.335,0.335,0.335,0.334,0.334,0,0.333,0.333,0.333,0.332,0.332,0.332,0.332,0.331,0.331,0.331,0.33,0.33,0.33,0.329,0.329,0.329,0.329,0.329,0.329,0.329,0.329,0.329,0.329,0.328,0.328,0.327,0.327,0.327,0.326,0.326,0.326,0.326,0.326,0.326,0.325,0.325,0.325,0.325,0.324,0.324,0.324,0.323,0.323,0.323,0.323,0.323,0.323,0.323,0.323,0.323,0.322,0.322,0.321,0.321,0.321,0.321,0.321,0.321,0.321,0.32,0.32,0.32,0.32,0.319,0.318,0.318,0.318,0.318,0.318,0.318,0.318,0.317,0.317,0.317,0.317,0.317,0.317,0.316,0.316,0.316,0.315,0.315,0,0,0.315,0.315,0.315,0.315,0.314,0.314,0.314,0.313,0.313,0.313,0.313,0.312,0.312,0.312,0,0.312,0.311,0.311,0.311,0.311,0.311,0.311,0.311,0.31,0.31,0.31,0.31,0.31,0.31,0.309,0.309,0.309,0.309,0.309,0.309,0.308,0.308,0.308,0.308,0.307,0.307,0.307,0.307,0.306,0.306,0.306,0.306,0.306,0.305,0.305,0.305,0.305,0.305,0.305,0.305,0.304,0.304,0.304,0.304,0.304,0.303,0.303,0.303,0.302,0.302,0.302,0.302,0.302,0.302,0.302,0.302,0.302,0.301,0.301,0.301,0.301,0.301,0.3,0.3,0.3,0.3,0.299,0.299,0.299,0.299,0.299,0.299,0.298,0.298,0.298,0.298,0.298,0.297,0.297,0.297,0.297,0.297,0.297,0.297,0.297,0.297,0,0,0,0,0,0,0,0,0,0,0,0,0,0,0,0,0,0,0,0,0,0,0,0,0,0,0,0,0,0,0,0,0,0,0,0,0,0,0,0,0,0,0,0,0,0,0,0,0,0,0,0,0,0,0,0,0,0,0,0,0,0,0,0,0,0,0,0,0,0,0,0,0,0,0,0,0,0,0,0,0,0,0,0,0,0
0,0,0,0,0,0,0,0,0,0,0,0,0,0,0,0,0,0,0,0,0,0,0,0,0,0,0,0,0,0,0,0,0,0,0,0,0,0,0,0.423,0.423,0.422,0.421,0.421,0.421,0.421,0.42,0.42,0.42,0.42,0.42,0.419,0.418,0.418,0.417,0.417,0.416,0.416,0.416,0.416,0.416,0.415,0.415,0.415,0.414,0.413,0.413,0.412,0.411,0.412,0.412,0.411,0.411,0.411,0.411,0.411,0.411,0.41,0.41,0.41,0.409,0.409,0.408,0.408,0.408,0.408,0.407,0.407,0.407,0.406,0.406,0.406,0.406,0.405,0.405,0.405,0.404,0.403,0.403,0.402,0.402,0.402,0.402,0.401,0.401,0.4,0.4,0.399,0.399,0.398,0.398,0.398,0.398,0.398,0.397,0.397,0.397,0.397,0.396,0.396,0.395,0.394,0.394,0.394,0.394,0.394,0.394,0.393,0.393,0.393,0.393,0.393,0.393,0.392,0,0,0,0.391,0.391,0.39,0.39,0.39,0.389,0.389,0.389,0.389,0.389,0.388,0.388,0.388,0.388,0.387,0.387,0.386,0.386,0.385,0.385,0.385,0.385,0.385,0.384,0.384,0.384,0.383,0.383,0.383,0.382,0.382,0.382,0.381,0.381,0.381,0.381,0.38,0.38,0.38,0.38,0.379,0.379,0.378,0.378,0.378,0.378,0.377,0.377,0.377,0.377,0.377,0.376,0.376,0.376,0.375,0.375,0.374,0.374,0.373,0.373,0.373,0.373,0.373,0.373,0.373,0.373,0.372,0.371,0.371,0.37,0.37,0.37,0.37,0.37,0.37,0.369,0.369,0.369,0.369,0.369,0.369,0.369,0.368,0.368,0.367,0.367,0.367,0.366,0,0.366,0.366,0.366,0.366,0.366,0.365,0.365,0.365,0.365,0.364,0.364,0.364,0.363,0.363,0.363,0.363,0.363,0.362,0.362,0.362,0.362,0.362,0.361,0.361,0.36,0.36,0.36,0.359,0.359,0.359,0.359,0.358,0.358,0.357,0.357,0.356,0.356,0.355,0.355,0.355,0.355,0.355,0.355,0.355,0.354,0.354,0.354,0.353,0.353,0.352,0.352,0.352,0.352,0.352,0.352,0.351,0.351,0.351,0.351,0.351,0.351,0.351,0.351,0,0.35,0.35,0.349,0.349,0.348,0.348,0.348,0.348,0.348,0.348,0.348,0.347,0.347,0.347,0.346,0.346,0.346,0.345,0.345,0.345,0.345,0.345,0.345,0.345,0.344,0.344,0.344,0.343,0.342,0.342,0.342,0.342,0.342,0.341,0.341,0.341,0.341,0.341,0.341,0.34,0.34,0.34,0.339,0.339,0.339,0.339,0.339,0.339,0.339,0.338,0.338,0.338,0.338,0.338,0.337,0.337,0.337,0.337,0.336,0.336,0.336,0.336,0.336,0.336,0.335,0.335,0.335,0.335,0.335,0.335,0.335,0.334,0.334,0.334,0.333,0.333,0.333,0,0.332,0.332,0.332,0.332,0.332,0.331,0.331,0.33,0.33,0.33,0.329,0.329,0.329,0.329,0.329,0.329,0.329,0.329,0.328,0.328,0.328,0.328,0.327,0.327,0.327,0.327,0.326,0.326,0.326,0.326,0.326,0.325,0.325,0.325,0.324,0.324,0.324,0.324,0.324,0.324,0.323,0.323,0.323,0.323,0.323,0.323,0.322,0.322,0.322,0.322,0.321,0.321,0.321,0.321,0.321,0.32,0.32,0.32,0.32,0.32,0.32,0.319,0.319,0.318,0.318,0.318,0.318,0.318,0.318,0.318,0.317,0.317,0.317,0.316,0.316,0.316,0.315,0.315,0.315,0.315,0.315,0.315,0.315,0.315,0,0.314,0.314,0.314,0.314,0.313,0.313,0.313,0.313,0.312,0.312,0.312,0.312,0.312,0.311,0,0.311,0.31,0.31,0.31,0.31,0.31,0.31,0.31,0.31,0.31,0,0.309,0.309,0.309,0.309,0.308,0.308,0.308,0.308,0.308,0.307,0.307,0.307,0.307,0.307,0.307,0.306,0.306,0.306,0.305,0.305,0.305,0.305,0.305,0.305,0.305,0.305,0.304,0.304,0.304,0.304,0.304,0.303,0.303,0.303,0.302,0.302,0.302,0.302,0.302,0.302,0.302,0.302,0.301,0.301,0.301,0.301,0.301,0.3,0.3,0.3,0.3,0.3,0.299,0.299,0.299,0.299,0.299,0.299,0.298,0.298,0.298,0.298,0.297,0.297,0.297,0.297,0.297,0.297,0.297,0.297,0.297,0.297,0.297,0.297,0.297,0,0,0,0,0,0,0,0,0,0,0,0,0,0,0,0,0,0,0,0,0,0,0,0,0,0,0,0,0,0,0,0,0,0,0,0,0,0,0,0,0,0,0,0,0,0,0,0,0,0,0,0,0,0,0,0,0,0,0,0,0,0,0,0,0,0,0,0,0,0,0,0,0,0,0,0,0,0,0,0,0,0,0,0,0,0
0,0,0,0,0,0,0,0,0,0,0,0,0,0,0,0,0,0,0,0,0,0,0,0,0,0,0,0,0,0,0,0,0,0,0,0,0,0,0,0,0.421,0.421,0.421,0.421,0.42,0.42,0.42,0.419,0.419,0.418,0.418,0.417,0.417,0.416,0.416,0.416,0.416,0.415,0.415,0.415,0.414,0.414,0.413,0.413,0.412,0.411,0.411,0.411,0.411,0.411,0.41,0.41,0.41,0.409,0.408,0.41,0.41,0.409,0.409,0.408,0.407,0.407,0.407,0.407,0.406,0.406,0.406,0.406,0.406,0.405,0.405,0.405,0.405,0.404,0.404,0.403,0.402,0.402,0.402,0.402,0.401,0.401,0.4,0.4,0.399,0.399,0.398,0.398,0.398,0.398,0.397,0.397,0.397,0.397,0.396,0.396,0.395,0.395,0.394,0.394,0.394,0.393,0.393,0.393,0.393,0.393,0.393,0.393,0.393,0.393,0.392,0.392,0.391,0.391,0,0,0.389,0.389,0.389,0.389,0.389,0.389,0.389,0.388,0.388,0.388,0.387,0.387,0.386,0.386,0.386,0.386,0.385,0.385,0.385,0.385,0.385,0.384,0.384,0.384,0.383,0.383,0.382,0.382,0.382,0.381,0.381,0.381,0.381,0.38,0.38,0.38,0.379,0.379,0.379,0.378,0.378,0.378,0.378,0.377,0.377,0.377,0.377,0.377,0.377,0.377,0.376,0.376,0.375,0.374,0.374,0.374,0.373,0.373,0.373,0.373,0.373,0.373,0.373,0.372,0.372,0.371,0.371,0.37,0.37,0.37,0.369,0.369,0.369,0.369,0.369,0.369,0.369,0.369,0.368,0.368,0.368,0.367,0.367,0.366,0.366,0.366,0.366,0.366,0.366,0.366,0.365,0.365,0.365,0.365,0.365,0.364,0.364,0.364,0.363,0.363,0.363,0.362,0.362,0.362,0.362,0.362,0.362,0.362,0.361,0.361,0.361,0.36,0.36,0.359,0.359,0.359,0.359,0.359,0.358,0.358,0.357,0.357,0.356,0.356,0.355,0.355,0.355,0.355,0.355,0.355,0.355,0.354,0.354,0.354,0.353,0.352,0.352,0.352,0.352,0.352,0.352,0.352,0.351,0.351,0.351,0.351,0.351,0.351,0.35,0.35,0.35,0.349,0.349,0,0.349,0.348,0.348,0.348,0.348,0.348,0.348,0.347,0.347,0.347,0.347,0.346,0.346,0.345,0.345,0.345,0.345,0.345,0.345,0.344,0.344,0.344,0.343,0.343,0.343,0.342,0.342,0.342,0.342,0.342,0.341,0.341,0.341,0.341,0.341,0.34,0.34,0.34,0.34,0.339,0.339,0.339,0.339,0.339,0.338,0.338,0.338,0.338,0.338,0.337,0.337,0.337,0.337,0.336,0.336,0.336,0.336,0.336,0.335,0.335,0.335,0.335,0.335,0.335,0.335,0.335,0.335,0.335,0.335,0.334,0.333,0.333,0.333,0.332,0.332,0.332,0,0.332,0.332,0.331,0.331,0.33,0.33,0.33,0.33,0.329,0.329,0.329,0.329,0.329,0.329,0.329,0.329,0.328,0.328,0.328,0.328,0.327,0.327,0.327,0,0,0,0.326,0.326,0.325,0.325,0.325,0.324,0.324,0.324,0.324,0.324,0.324,0.324,0.323,0.323,0.323,0.323,0.323,0.322,0.322,0.322,0.321,0.321,0.321,0.321,0.321,0.321,0.321,0.321,0.32,0.32,0.32,0.32,0.319,0.319,0.319,0.318,0.318,0.318,0.318,0.318,0.318,0.317,0.317,0.317,0.317,0.316,0.316,0.316,0.315,0,0.315,0.315,0.315,0.315,0.315,0.315,0.314,0.314,0.314,0.314,0.313,0.313,0.313,0.313,0.313,0.312,0.312,0.312,0.312,0.312,0.311,0.311,0.311,0.31,0.31,0.31,0.31,0.31,0.31,0.31,0.31,0.31,0.309,0.309,0,0,0,0.308,0.308,0.308,0.308,0.308,0.307,0.307,0.307,0.307,0.307,0.307,0.307,0.306,0.306,0.306,0.305,0.305,0.305,0.304,0.304,0.304,0.304,0.304,0.304,0.304,0.304,0.303,0.303,0.303,0.303,0.302,0.302,0.302,0.302,0.302,0.302,0.302,0.302,0.301,0.301,0.301,0.301,0.3,0.3,0.3,0.3,0.3,0.3,0.3,0.299,0.299,0.299,0.299,0.299,0.298,0.298,0.298,0.298,0.297,0.297,0.297,0.297,0.297,0.297,0.296,0.296,0.296,0.296,0.296,0.296,0.296,0.296,0.296,0.296,0,0,0,0,0,0,0,0,0,0,0,0,0,0,0,0,0,0,0,0,0,0,0,0,0,0,0,0,0,0,0,0,0,0,0,0,0,0,0,0,0,0,0,0,0,0,0,0,0,0,0,0,0,0,0,0,0,0,0,0,0,0,0,0,0,0,0,0,0,0,0,0,0,0,0,0,0,0,0,0,0,0,0,0,0,0
0,0,0,0,0,0,0,0,0,0,0,0,0,0,0,0,0,0,0,0,0,0,0,0,0,0,0,0,0,0,0,0,0,0,0,0,0,0,0,0,0,0.42,0.42,0.42,0.419,0.418,0.418,0.418,0.417,0.417,0.416,0.416,0.416,0.416,0.415,0.415,0.415,0.414,0.414,0.413,0.412,0.412,0.411,0.411,0.411,0.411,0.41,0.41,0.41,0.409,0.409,0.409,0.408,0.408,0.407,0.407,0.407,0.406,0.406,0.406,0.406,0.406,0.406,0.406,0.405,0.405,0.405,0.404,0.404,0.404,0.404,0.404,0.403,0.402,0.402,0.402,0.402,0.402,0.401,0.401,0.4,0.399,0.399,0.398,0.398,0.398,0.397,0.397,0.397,0.397,0.396,0.396,0.395,0.395,0.394,0.394,0.394,0.394,0.393,0.393,0.393,0.393,0.393,0.393,0.393,0.392,0.392,0.392,0.391,0.391,0,0.39,0.39,0.389,0.389,0.389,0.389,0.388,0.388,0.388,0.388,0.388,0.388,0.387,0.387,0.386,0.386,0.386,0.385,0.385,0.385,0.385,0.385,0.385,0.385,0.384,0.384,0.382,0.383,0.382,0.382,0.381,0.381,0.381,0.381,0.381,0.38,0.38,0.38,0.379,0.378,0.378,0.378,0.377,0.377,0.377,0.377,0.377,0.377,0.377,0.377,0.376,0.376,0.376,0.375,0.375,0.375,0.374,0.374,0.373,0.373,0.373,0.373,0.373,0.372,0.372,0.371,0.371,0.371,0.371,0.37,0.37,0.37,0.369,0.369,0.369,0.369,0.369,0.369,0.369,0.368,0.368,0.368,0.367,0.367,0.366,0.366,0.366,0.366,0.366,0.366,0.366,0.365,0.365,0.365,0.365,0.364,0.364,0.364,0.364,0.363,0.363,0.363,0.362,0.362,0.362,0.362,0.362,0.362,0.361,0.361,0.361,0.361,0.361,0.36,0.36,0.359,0.359,0.359,0.359,0.358,0.358,0.358,0.358,0.357,0.357,0.356,0.355,0.355,0.355,0.355,0.355,0.355,0.354,0.354,0.354,0.353,0.353,0.352,0.352,0.352,0.352,0.351,0.351,0.351,0.351,0.351,0.351,0.351,0.351,0.35,0.35,0.35,0.35,0.349,0.349,0.348,0.348,0.348,0.348,0.348,0.348,0.348,0.347,0.347,0.347,0.347,0.346,0.346,0.346,0.345,0.345,0,0.345,0.345,0.345,0.344,0.344,0.344,0.343,0.343,0.342,0.342,0.342,0.342,0.342,0.341,0.341,0.341,0.341,0.341,0.341,0.34,0.34,0.34,0.339,0.339,0.339,0.339,0.339,0.339,0.338,0.338,0.338,0.338,0.338,0.337,0.337,0.336,0.336,0.336,0.336,0.336,0.335,0.335,0.335,0.335,0.335,0.335,0.335,0.335,0.335,0.335,0.335,0.334,0.334,0.334,0.333,0.333,0.333,0.332,0.332,0.332,0.332,0.331,0.331,0.331,0.331,0.33,0.33,0.33,0.329,0.329,0.329,0.329,0.329,0.328,0.328,0.328,0.328,0.328,0.328,0.327,0.327,0.327,0.327,0.327,0.326,0.326,0.326,0.326,0.326,0,0.325,0.324,0.324,0.324,0.324,0.324,0.324,0.323,0.323,0.323,0.323,0.323,0.323,0.323,0.323,0.322,0.322,0.321,0.321,0.321,0.321,0.321,0.321,0.321,0.32,0.32,0.32,0,0.32,0.319,0.319,0.319,0.318,0.318,0.318,0.318,0.318,0.318,0.318,0.317,0.317,0.317,0.317,0.317,0.316,0.315,0.315,0,0.315,0.315,0.314,0.314,0.314,0.314,0.314,0.314,0.313,0.313,0.313,0.313,0.312,0.312,0.312,0.312,0.312,0.312,0.311,0.311,0.311,0.311,0.31,0.31,0.31,0.31,0.31,0.309,0.309,0.309,0.309,0.309,0.309,0.309,0.308,0,0,0,0,0.307,0.307,0.307,0.307,0.307,0.307,0.307,0.307,0.307,0.306,0.306,0.306,0.305,0.305,0.305,0.305,0.304,0.304,0.304,0.303,0.303,0.303,0.303,0.303,0.303,0.303,0.302,0.302,0.302,0.302,0.302,0.302,0.302,0.302,0.301,0.301,0.301,0.301,0.3,0.3,0.3,0.3,0.3,0.3,0.299,0.299,0.299,0.299,0.299,0.299,0,0,0.298,0.298,0.297,0.297,0.297,0.297,0.297,0.297,0.297,0.297,0.296,0.296,0.295,0.295,0.295,0.295,0.295,0.295,0.295,0.295,0.295,0.295,0,0,0,0,0,0,0,0,0,0,0,0,0,0,0,0,0,0,0,0,0,0,0,0,0,0,0,0,0,0,0,0,0,0,0,0,0,0,0,0,0,0,0,0,0,0,0,0,0,0,0,0,0,0,0,0,0,0,0,0,0,0,0,0,0,0,0,0,0,0,0,0,0,0,0,0,0,0,0,0,0,0,0,0,0,0
0,0,0,0,0,0,0,0,0,0,0,0,0,0,0,0,0,0,0,0,0,0,0,0,0,0,0,0,0,0,0,0,0,0,0,0,0,0,0,0,0,0,0.418,0.418,0.417,0.417,0.416,0.416,0.416,0.416,0.416,0.415,0.415,0.415,0.414,0.414,0.413,0.412,0.412,0.411,0.411,0.411,0.411,0.41,0.41,0.409,0.409,0.409,0.408,0.408,0.408,0.407,0.407,0.407,0.406,0.406,0.406,0.405,0.405,0.404,0.404,0.403,0.403,0.403,0.402,0.403,0.403,0.403,0.403,0.402,0.402,0.402,0.402,0.402,0.401,0.401,0.401,0.4,0.4,0.399,0.398,0.398,0.398,0.397,0.397,0.397,0.397,0.396,0.396,0.395,0.394,0.394,0.394,0.394,0.393,0.393,0.393,0.393,0.393,0.392,0.392,0.392,0.392,0.391,0.391,0.391,0.39,0.39,0,0,0.389,0.389,0.388,0.388,0.387,0.387,0.387,0.386,0.387,0.386,0.386,0.386,0.386,0.386,0.386,0.385,0.385,0.385,0.385,0.385,0.385,0.384,0.384,0.384,0.383,0.383,0.382,0.382,0.381,0.381,0.381,0.381,0.381,0.38,0.38,0.379,0.379,0.379,0.378,0.378,0.377,0.377,0.377,0.377,0.377,0.377,0.376,0.376,0.376,0.376,0.375,0.375,0.374,0.374,0.374,0.374,0.373,0.373,0,0,0.373,0.372,0.372,0.371,0.371,0.37,0.37,0.37,0.37,0.37,0.369,0.369,0.369,0.369,0.369,0.368,0.368,0.368,0.368,0.367,0.367,0.366,0.366,0.366,0.366,0.366,0.365,0.365,0.365,0.365,0.365,0.365,0.364,0.364,0.364,0.364,0.363,0.363,0.363,0.362,0.362,0,0,0.362,0.361,0.361,0.361,0.361,0.36,0.36,0.36,0.359,0.359,0.359,0.359,0.358,0.358,0.358,0.358,0.358,0.357,0.357,0.356,0.356,0.356,0.355,0.355,0.355,0.355,0.354,0.354,0.354,0.354,0.353,0.353,0.352,0.352,0.352,0.352,0.351,0.351,0.351,0.351,0.351,0.351,0.35,0.35,0.35,0.35,0.349,0.349,0.349,0.349,0.348,0.348,0.348,0.348,0.348,0.347,0.347,0.347,0.347,0.346,0.346,0.346,0.346,0.345,0.345,0.345,0.345,0.345,0.345,0.344,0.344,0.344,0.343,0.343,0.342,0.342,0.342,0.342,0.342,0.342,0.341,0.341,0.341,0.341,0.341,0.34,0.34,0.34,0.34,0.339,0.339,0.339,0.339,0.339,0.339,0.338,0.338,0.338,0.338,0.337,0.337,0.337,0.336,0.336,0.336,0.335,0.335,0.335,0.335,0.335,0.335,0.335,0.335,0.335,0.334,0.334,0.334,0.333,0.333,0.333,0.333,0,0,0.333,0.332,0.332,0.332,0.332,0.332,0.331,0.331,0.33,0.33,0.33,0.33,0.329,0.329,0.329,0.329,0.329,0.328,0.328,0.328,0.327,0.327,0.327,0.327,0.327,0.327,0.327,0.326,0.326,0.326,0.326,0.326,0.325,0.324,0.324,0.324,0.324,0.324,0.323,0.323,0.323,0.323,0.323,0.323,0.323,0.323,0.323,0.323,0.322,0.322,0.322,0.321,0.321,0.321,0.321,0.321,0.32,0.32,0.32,0.32,0.32,0.32,0.32,0.319,0.319,0.318,0.318,0.318,0.318,0.318,0.318,0.318,0.318,0.317,0.317,0.317,0.317,0.317,0.316,0.316,0.315,0.315,0.315,0.314,0.314,0.314,0.314,0.313,0.314,0.313,0.313,0.313,0.313,0.313,0.312,0.312,0.312,0.312,0.312,0.312,0.312,0.311,0.311,0.311,0.311,0.311,0.31,0.31,0.31,0.31,0.309,0.309,0.308,0.308,0,0.309,0.308,0.308,0.308,0.307,0.307,0.307,0.307,0.307,0.307,0.307,0.307,0.307,0.307,0.307,0.306,0.306,0.306,0.305,0.305,0.305,0.305,0.304,0.304,0.304,0.304,0.303,0.303,0.303,0.303,0.302,0.302,0.302,0.302,0.302,0.302,0.302,0.302,0.302,0.302,0.301,0.301,0.301,0.3,0.3,0.3,0.3,0.3,0.3,0.3,0.299,0.299,0.299,0.299,0.299,0.299,0.298,0.298,0.298,0.297,0.297,0.297,0.297,0.297,0.297,0.297,0.296,0.296,0.296,0.296,0.295,0.295,0.295,0.295,0.295,0.295,0.295,0.295,0.295,0.295,0.295,0.295,0.295,0,0,0,0,0,0,0,0,0,0,0,0,0,0,0,0,0,0,0,0,0,0,0,0,0,0,0,0,0,0,0,0,0,0,0,0,0,0,0,0,0,0,0,0,0,0,0,0,0,0,0,0,0,0,0,0,0,0,0,0,0,0,0,0,0,0,0,0,0,0,0,0,0,0,0,0,0,0,0,0,0,0,0,0,0,0
0,0,0,0,0,0,0,0,0,0,0,0,0,0,0,0,0,0,0,0,0,0,0,0,0,0,0,0,0,0,0,0,0,0,0,0,0,0,0,0,0,0,0,0,0.416,0.416,0.415,0.415,0.415,0.415,0.415,0.414,0.413,0.413,0.412,0.412,0.411,0.411,0.411,0.41,0.41,0.41,0.409,0.409,0.408,0.408,0.407,0.407,0.407,0.407,0.407,0.406,0.406,0.406,0.405,0.405,0.404,0.404,0.403,0.403,0.402,0.402,0.402,0.402,0.402,0.402,0.401,0.401,0.4,0.402,0.402,0.401,0.401,0.4,0.4,0,0.399,0.399,0.398,0.398,0.398,0.397,0.397,0.397,0.396,0.395,0.395,0.394,0.394,0.394,0.394,0.393,0.393,0.393,0.392,0.392,0.391,0.391,0.391,0.391,0.391,0.39,0.39,0.39,0.389,0.389,0.389,0.389,0.389,0.388,0.387,0.387,0.386,0.386,0.386,0.386,0.385,0.385,0.385,0.385,0.385,0.385,0.385,0.385,0.385,0.385,0.384,0.384,0.384,0.384,0.383,0.383,0.383,0.382,0.382,0.381,0.381,0.381,0.381,0.381,0.38,0.38,0.38,0.379,0.379,0.378,0.378,0.377,0.377,0.377,0.377,0.376,0.376,0.376,0.376,0.375,0.375,0.375,0.374,0.374,0.374,0.373,0.373,0.373,0.373,0.373,0.373,0.373,0,0.371,0.371,0.37,0.37,0.37,0.37,0.37,0.369,0.369,0.369,0.369,0.369,0.369,0.368,0.368,0.367,0.367,0.366,0.366,0.366,0.366,0.366,0.366,0.366,0.365,0.365,0.365,0.365,0.364,0.364,0.364,0.363,0.363,0.363,0.363,0.363,0.362,0.362,0.362,0.362,0.362,0.362,0.361,0.361,0.36,0.36,0.36,0.359,0.359,0.359,0.359,0,0.359,0.358,0.358,0.358,0.358,0.357,0.357,0.357,0.357,0.356,0.356,0.355,0.355,0.355,0,0,0.354,0.353,0.353,0.353,0.353,0.352,0.352,0.352,0.352,0.351,0.351,0.351,0.351,0.351,0.35,0.35,0.35,0.35,0.349,0.349,0.349,0.349,0.349,0.348,0.348,0.348,0.348,0.348,0.347,0.347,0.346,0.346,0.346,0.346,0.345,0.345,0.345,0.345,0.345,0.345,0.345,0.345,0.344,0.344,0.344,0.343,0.342,0.342,0.342,0.342,0.342,0.342,0.341,0.341,0.341,0.341,0.341,0.34,0.34,0.34,0.339,0.339,0.339,0.339,0.339,0.339,0.339,0.339,0.338,0.338,0.338,0.338,0.337,0.337,0.337,0.336,0.336,0.336,0.335,0.335,0.335,0.335,0.335,0.335,0.334,0.334,0.334,0.334,0.333,0.333,0.333,0.333,0.333,0.333,0.332,0.332,0,0,0.332,0.332,0.332,0.332,0.332,0.331,0.331,0.33,0.33,0.33,0.329,0.329,0.329,0.328,0.328,0.328,0.328,0.327,0.327,0.327,0.327,0.327,0.326,0.326,0.326,0.326,0.326,0.326,0.326,0.326,0.325,0.324,0.324,0.324,0.324,0.323,0.323,0.323,0.323,0.323,0.323,0.323,0.323,0.323,0.322,0.322,0.322,0.322,0.322,0.321,0.321,0.321,0.321,0.321,0.32,0.32,0.32,0.32,0.32,0.319,0.319,0.319,0.319,0.318,0.318,0.318,0.318,0.318,0.317,0.317,0.317,0.317,0.317,0.317,0.317,0.316,0.316,0.316,0.316,0.315,0,0,0.314,0.314,0.313,0.313,0.313,0.313,0.313,0.313,0.312,0.312,0.312,0.312,0.312,0.312,0.312,0.312,0.311,0.311,0.311,0.311,0.31,0.31,0.31,0.31,0.31,0.31,0.309,0.309,0.309,0.308,0.308,0.308,0.308,0.308,0.308,0.307,0.307,0.307,0.307,0.307,0.307,0.306,0.306,0.306,0.306,0.306,0.306,0.306,0.305,0.305,0.305,0.305,0.305,0.304,0.304,0.304,0.304,0.304,0,0.302,0.302,0.302,0.302,0.302,0.302,0.302,0.302,0.302,0.302,0.301,0.301,0.301,0.3,0.3,0.3,0.3,0.3,0.3,0.3,0.299,0.299,0.299,0.299,0.299,0.299,0.299,0.298,0.298,0.298,0.298,0.297,0.297,0.297,0.297,0.297,0.297,0.296,0.296,0.296,0.296,0.295,0.295,0.295,0.295,0.295,0.295,0.295,0.294,0.294,0.294,0.294,0.294,0.294,0.294,0.294,0.294,0.294,0,0,0,0,0,0,0,0,0,0,0,0,0,0,0,0,0,0,0,0,0,0,0,0,0,0,0,0,0,0,0,0,0,0,0,0,0,0,0,0,0,0,0,0,0,0,0,0,0,0,0,0,0,0,0,0,0,0,0,0,0,0,0,0,0,0,0,0,0,0,0,0,0,0,0,0,0,0,0,0,0,0,0,0,0,0
0,0,0,0,0,0,0,0,0,0,0,0,0,0,0,0,0,0,0,0,0,0,0,0,0,0,0,0,0,0,0,0,0,0,0,0,0,0,0,0,0,0.415,0.415,0.415,0.415,0.415,0.414,0.414,0.413,0.413,0.412,0.412,0.412,0.411,0.411,0.411,0.41,0.41,0.409,0.409,0.408,0.408,0.407,0.407,0.407,0.407,0,0.406,0.406,0.406,0.405,0.405,0.405,0.404,0.404,0.403,0.403,0.402,0.402,0.402,0.402,0.401,0.401,0.401,0.4,0.4,0.4,0.399,0.399,0.399,0.398,0.398,0.398,0.398,0.398,0.398,0.398,0.398,0.397,0.397,0.397,0.396,0.395,0.395,0.394,0.394,0.394,0.393,0.393,0.393,0.393,0.393,0.392,0.391,0.391,0.39,0.39,0.39,0.39,0.389,0.389,0.389,0.389,0.389,0.389,0.388,0.388,0.387,0.386,0.386,0.386,0.385,0.385,0.385,0.385,0.385,0.385,0.385,0.385,0.385,0.385,0.385,0.385,0.384,0.384,0.383,0.383,0.383,0.382,0.382,0.382,0.382,0.381,0.381,0.381,0.381,0.381,0.38,0.379,0.379,0.379,0.378,0.378,0.378,0.377,0.377,0.377,0.377,0.377,0.376,0.376,0.375,0.375,0.375,0.374,0.374,0.374,0.373,0.373,0.373,0.373,0.373,0.373,0.372,0.372,0.372,0.371,0.37,0.37,0.37,0.37,0.369,0.369,0.369,0.369,0.369,0.369,0.369,0.369,0.368,0.368,0.367,0.367,0.367,0.366,0.366,0.366,0.366,0.366,0.365,0.365,0.365,0.364,0.364,0.364,0.363,0.363,0.363,0.363,0.363,0.363,0.362,0.362,0.362,0.362,0.362,0.362,0.362,0.361,0.361,0.36,0.36,0.359,0.359,0.359,0.359,0.359,0.358,0.358,0.358,0.358,0.358,0.357,0.356,0.356,0.356,0.356,0.356,0.356,0.355,0.355,0.355,0.355,0.355,0.354,0.354,0.353,0.352,0.352,0.352,0.352,0.352,0.352,0.351,0.351,0.351,0.351,0.351,0.35,0.35,0.35,0.349,0.349,0.349,0.349,0.348,0.348,0.348,0.348,0.348,0.348,0.348,0.347,0.347,0.347,0.346,0.346,0.345,0.345,0.345,0.345,0.345,0.345,0.345,0.345,0.345,0.344,0.344,0.344,0.343,0.342,0.342,0.342,0.342,0.342,0.341,0.341,0.341,0.341,0.341,0.34,0.34,0.34,0.339,0.339,0.339,0.339,0.339,0.339,0.339,0.338,0.338,0.338,0.338,0.338,0.338,0.337,0.337,0.336,0.336,0.336,0.336,0.336,0.335,0.335,0.335,0.335,0.334,0.334,0.334,0.333,0.333,0.333,0.333,0.333,0.333,0.332,0.332,0.332,0.332,0.332,0.332,0.332,0.331,0.331,0.331,0.331,0.331,0.33,0.33,0.33,0.33,0.329,0.329,0.329,0.329,0.328,0.328,0.328,0.327,0.327,0.327,0.327,0.326,0.326,0.326,0.326,0.326,0.326,0.326,0.326,0.325,0.325,0.324,0.324,0.324,0.323,0.323,0.323,0.323,0.323,0.323,0.323,0.323,0.322,0.322,0.322,0.322,0.322,0.321,0.321,0.321,0.321,0.321,0.321,0.321,0.32,0.32,0.32,0.32,0.32,0.319,0.319,0.319,0.319,0.318,0.318,0.318,0.318,0.318,0.317,0.317,0.317,0.317,0.316,0.316,0.316,0.316,0.316,0.315,0.315,0.315,0.315,0.315,0.315,0.314,0.314,0.313,0.313,0.313,0.313,0.312,0.312,0.312,0.312,0.312,0.312,0.312,0.312,0.312,0.312,0.311,0.311,0.311,0.31,0.31,0.31,0.31,0.31,0.31,0.31,0.309,0.309,0.309,0.309,0.308,0.307,0.307,0.307,0.307,0.307,0.307,0.307,0.307,0.307,0.306,0.306,0.305,0.305,0.305,0.305,0.305,0.305,0,0,0,0,0.304,0.304,0.304,0.304,0.303,0.303,0.302,0.302,0.302,0.302,0.302,0.302,0.302,0.302,0.302,0.302,0.301,0.301,0.301,0.301,0.3,0.3,0.3,0.3,0.299,0.299,0.299,0.299,0.299,0.299,0.299,0.299,0.298,0.298,0.298,0.297,0.297,0.297,0.297,0.297,0.297,0.297,0.297,0.296,0.296,0.296,0.296,0.295,0.295,0.295,0.295,0.295,0.295,0.294,0.294,0.294,0.294,0.294,0.294,0.294,0.294,0.294,0.294,0.294,0.294,0.294,0.294,0,0,0,0,0,0,0,0,0,0,0,0,0,0,0,0,0,0,0,0,0,0,0,0,0,0,0,0,0,0,0,0,0,0,0,0,0,0,0,0,0,0,0,0,0,0,0,0,0,0,0,0,0,0,0,0,0,0,0,0,0,0,0,0,0,0,0,0,0,0,0,0,0,0,0,0,0,0,0,0,0,0,0,0,0,0
0,0,0,0,0,0,0,0,0,0,0,0,0,0,0,0,0,0,0,0,0,0,0,0,0,0,0,0,0,0,0,0,0,0,0,0,0,0,0,0,0.415,0.415,0.415,0.414,0.414,0.414,0.413,0.412,0.412,0.411,0.411,0.411,0.411,0.41,0.409,0.409,0.408,0.408,0.407,0.407,0.407,0.407,0.406,0.406,0.406,0.406,0.406,0.405,0.405,0.404,0.404,0.404,0.403,0.403,0.402,0.402,0.402,0.402,0.402,0.401,0.401,0.399,0.399,0.399,0.399,0.398,0.398,0.398,0.398,0.398,0.398,0.397,0.397,0.397,0.396,0.396,0.395,0.397,0.396,0.395,0.395,0.394,0.394,0.394,0.393,0.393,0.393,0.393,0.393,0.392,0.392,0.391,0.391,0.39,0.39,0.39,0.389,0.389,0.389,0.389,0.388,0.388,0.388,0.386,0.386,0.386,0.385,0.385,0.385,0.385,0.385,0.385,0.385,0.385,0.385,0.385,0.384,0.384,0.384,0.384,0.384,0.383,0.383,0.383,0.382,0,0,0.381,0.381,0.381,0.381,0.381,0.381,0.38,0.38,0.38,0.379,0.378,0.378,0.378,0.378,0.377,0.377,0.377,0.377,0.377,0.376,0.376,0.375,0.374,0.374,0.374,0.374,0.373,0.373,0.373,0.373,0.373,0.373,0.373,0.372,0.372,0.371,0.371,0.37,0.37,0.37,0.369,0.369,0.369,0.369,0.369,0.369,0.369,0.369,0.368,0.368,0.368,0.367,0.367,0.366,0.366,0.366,0.366,0.366,0.365,0.365,0.365,0.365,0.364,0.364,0.363,0.363,0.363,0.362,0.362,0.362,0.362,0.362,0.362,0.362,0.362,0.362,0.362,0.362,0.361,0.361,0.36,0.36,0.359,0.359,0.359,0.359,0.358,0.358,0.358,0.358,0.358,0.357,0.356,0.356,0.356,0.355,0.355,0,0,0.355,0.355,0.355,0.355,0.355,0.354,0.354,0.353,0.353,0.352,0.352,0.351,0.351,0.351,0.351,0.351,0.351,0.351,0.35,0.35,0.35,0.349,0.349,0.349,0.348,0.348,0.348,0.348,0.348,0.348,0.348,0.348,0.348,0.347,0.346,0.346,0.346,0.346,0.345,0.345,0.345,0.345,0.345,0.345,0.345,0.344,0.344,0.344,0.344,0.343,0.342,0.342,0.342,0.342,0.342,0.341,0.341,0.341,0.341,0.341,0.34,0.34,0.34,0.339,0.339,0.339,0.339,0.339,0.339,0.338,0.338,0.338,0.338,0.338,0.338,0.338,0.338,0.337,0.337,0.337,0.336,0.336,0.336,0.336,0.335,0.335,0.335,0.335,0.335,0.334,0.334,0.333,0.333,0.333,0.332,0.332,0.332,0.332,0.332,0.332,0.332,0.332,0.332,0.331,0.331,0.331,0.33,0.33,0.33,0.33,0.329,0.329,0.329,0.329,0.329,0.329,0.329,0.328,0.328,0.327,0.327,0.327,0.327,0.326,0.326,0.326,0.326,0.326,0.326,0.326,0.325,0.325,0.325,0.324,0.324,0.324,0.324,0.323,0.323,0.323,0.323,0.323,0.323,0.323,0.323,0.322,0.322,0.322,0.322,0.322,0.321,0.321,0.321,0.321,0.321,0.321,0.32,0.32,0.32,0.32,0.32,0.319,0.319,0.319,0.318,0.318,0.318,0.318,0.318,0.318,0.317,0.317,0.317,0.317,0.316,0.316,0.316,0.316,0.316,0.315,0.315,0.315,0.315,0.315,0.315,0.315,0.315,0.314,0.314,0.313,0.313,0.313,0.312,0.312,0.312,0.312,0.312,0.312,0.312,0.312,0.312,0.311,0.311,0.311,0.311,0.31,0.31,0.31,0.31,0.31,0.31,0.309,0.309,0.309,0.309,0.309,0,0.307,0.307,0.307,0.307,0.307,0.307,0.307,0.307,0.307,0.306,0,0.306,0.306,0.305,0.305,0.305,0.304,0.304,0.304,0.304,0,0,0,0.304,0.304,0.303,0.303,0.302,0.302,0.302,0.302,0.302,0.302,0.302,0.301,0.301,0.301,0.301,0.301,0.301,0.301,0.3,0.3,0.3,0.299,0.299,0.299,0.299,0.299,0.299,0.299,0.299,0.299,0,0,0.297,0.297,0.297,0,0,0.297,0.297,0.297,0.297,0.296,0.296,0.296,0.295,0.295,0.295,0.295,0.295,0.295,0.295,0.294,0.294,0.294,0.294,0.294,0.294,0.294,0.293,0.293,0.293,0.293,0.293,0.293,0,0,0.293,0,0,0,0,0,0,0,0,0,0,0,0,0,0,0,0,0,0,0,0,0,0,0,0,0,0,0,0,0,0,0,0,0,0,0,0,0,0,0,0,0,0,0,0,0,0,0,0,0,0,0,0,0,0,0,0,0,0,0,0,0,0,0,0,0,0,0,0,0,0,0,0,0,0,0,0,0,0,0,0,0,0,0,0,0,0,0
0,0,0,0,0,0,0,0,0,0,0,0,0,0,0,0,0,0,0,0,0,0,0,0,0,0,0,0,0,0,0,0,0,0,0,0,0,0,0,0,0.414,0.414,0.413,0.413,0.412,0.412,0.411,0.411,0.411,0.411,0.411,0.409,0.409,0.408,0.407,0.407,0.407,0.407,0.406,0.406,0.406,0.406,0.406,0.405,0.404,0.404,0.404,0.403,0.403,0.403,0.403,0.402,0.402,0.402,0.402,0.402,0.401,0.401,0.399,0.399,0.398,0.398,0.398,0.398,0.398,0.398,0.397,0.397,0.397,0.397,0.397,0.396,0.395,0.395,0.394,0.394,0.394,0.394,0.393,0.393,0.393,0.393,0.393,0.393,0.393,0.393,0.392,0.392,0.391,0.391,0.39,0.39,0.389,0.389,0.389,0.389,0.389,0.388,0.388,0.387,0.386,0.386,0.386,0,0.385,0.385,0.385,0.385,0.384,0.384,0.384,0.384,0.384,0.383,0.383,0.383,0.383,0.383,0.383,0.382,0.382,0.382,0.382,0.381,0.381,0,0,0.381,0.381,0.38,0.38,0.38,0.379,0.378,0.378,0.378,0.377,0.377,0.377,0.377,0.377,0.377,0.377,0.376,0.376,0.376,0.375,0.374,0.374,0.373,0.373,0.373,0.373,0.373,0.373,0.373,0.372,0.372,0.372,0.371,0.371,0.371,0.37,0.369,0.369,0.369,0.369,0.369,0.369,0.368,0.368,0.368,0.368,0.368,0.367,0.367,0.367,0.366,0.366,0.366,0.366,0.366,0.365,0.365,0.365,0.364,0.364,0.364,0.363,0.363,0.363,0.362,0.362,0.362,0.362,0.362,0.362,0.362,0.362,0.361,0.361,0.361,0.361,0.361,0.361,0.36,0.359,0.359,0.359,0.359,0.358,0.358,0.358,0.358,0.357,0.357,0.356,0.356,0.356,0.355,0.355,0.355,0.355,0.354,0.354,0.354,0.354,0.354,0.354,0.354,0.353,0.353,0.352,0.352,0.352,0.351,0.351,0.351,0.351,0.351,0.351,0.35,0.35,0.349,0.349,0.349,0.348,0.348,0.348,0.348,0.348,0.348,0.348,0.348,0.347,0.347,0.346,0.346,0.346,0.346,0.345,0.345,0.345,0.345,0.345,0.345,0.345,0.344,0.344,0.344,0.344,0.343,0.342,0.342,0.342,0.342,0.342,0.342,0.341,0.341,0.341,0.341,0.341,0.34,0.34,0.34,0.339,0.339,0.339,0.339,0.338,0.338,0.338,0.338,0.338,0.338,0.338,0.337,0.337,0.337,0.337,0.337,0.336,0.336,0.336,0.336,0.336,0.335,0.335,0.335,0.335,0.335,0.335,0.334,0.334,0.333,0.333,0.332,0.332,0.332,0.332,0.332,0.332,0.332,0.332,0.331,0.331,0.331,0.331,0.33,0.33,0.33,0.33,0.329,0.329,0.329,0.329,0.329,0.328,0.328,0.328,0.328,0.327,0.327,0.327,0.326,0.326,0.326,0.326,0.326,0.326,0.326,0.325,0.325,0.325,0.325,0.324,0.324,0.324,0.324,0.324,0.323,0.323,0.323,0.323,0.323,0.323,0.322,0.322,0.322,0.322,0.321,0.321,0.321,0.321,0.321,0.321,0.321,0.321,0.32,0.32,0.32,0.32,0.319,0.319,0.319,0.319,0.318,0.318,0.318,0.318,0.318,0.318,0.318,0.317,0.317,0.317,0.317,0.316,0.316,0.316,0.315,0.315,0.315,0.315,0.315,0.315,0.315,0.314,0.314,0.314,0.314,0.313,0.313,0.313,0.313,0.312,0.312,0.312,0.312,0.312,0.312,0.312,0.311,0.311,0.311,0.311,0.311,0.311,0.31,0.31,0.31,0.31,0.31,0.309,0.309,0.309,0.309,0.308,0.308,0.308,0.308,0,0,0.307,0.307,0.307,0.307,0.306,0.306,0.306,0.306,0.306,0,0,0.305,0.305,0.304,0.304,0.304,0.304,0.304,0.304,0.304,0.303,0.303,0.303,0.303,0.302,0.302,0.302,0.302,0.302,0.301,0.301,0.301,0.301,0.301,0.3,0.3,0.3,0.3,0.3,0.3,0.299,0.299,0.299,0.299,0.299,0.299,0.299,0.298,0.298,0.298,0.298,0.297,0.297,0.297,0.297,0.297,0.297,0.297,0.296,0.296,0.296,0.296,0.296,0.295,0.295,0.295,0.295,0.295,0.295,0.295,0.294,0.294,0.294,0.294,0.294,0.294,0.294,0.293,0.293,0.293,0.293,0.292,0.292,0,0.292,0,0,0,0,0,0,0,0,0,0,0,0,0,0,0,0,0,0,0,0,0,0,0,0,0,0,0,0,0,0,0,0,0,0,0,0,0,0,0,0,0,0,0,0,0,0,0,0,0,0,0,0,0,0,0,0,0,0,0,0,0,0,0,0,0,0,0,0,0,0,0,0,0,0,0,0,0,0,0,0,0,0,0,0,0,0,0,0,0,0,0
0,0,0,0,0,0,0,0,0,0,0,0,0,0,0,0,0,0,0,0,0,0,0,0,0,0,0,0,0,0,0,0,0,0,0,0,0,0,0,0,0,0.413,0.412,0.412,0.411,0.411,0.411,0.411,0.41,0.41,0.409,0.408,0.407,0.407,0.407,0.406,0.406,0.406,0.406,0.405,0.405,0.404,0.404,0.403,0.403,0.403,0.402,0.402,0.402,0.402,0.402,0.402,0.402,0.401,0.401,0.4,0.399,0.399,0.398,0.398,0.398,0.397,0.397,0.397,0.397,0.397,0.396,0.396,0.396,0.396,0.395,0.394,0.394,0.394,0.393,0.393,0.393,0.393,0.393,0.392,0.392,0.392,0.391,0.39,0.392,0.391,0.391,0.39,0.39,0.389,0.389,0.389,0.389,0.389,0.388,0.388,0.387,0.387,0.386,0.385,0.385,0.385,0.385,0.385,0.384,0.384,0.384,0.384,0.383,0.383,0.383,0.382,0.382,0.382,0.382,0.382,0.382,0.382,0.381,0.381,0.381,0.381,0.381,0.381,0.38,0.38,0.38,0.379,0.379,0.378,0.378,0.378,0.377,0.377,0.377,0.377,0.377,0.377,0.376,0.376,0.376,0.376,0.376,0.375,0.375,0.373,0.373,0.373,0.373,0.373,0.373,0.372,0.372,0.372,0.372,0.371,0.371,0.371,0.37,0.37,0.37,0.369,0.369,0.369,0.369,0.369,0.369,0.368,0.368,0.368,0.367,0.367,0.367,0.367,0.366,0.366,0.366,0,0.365,0.365,0.365,0.365,0.364,0.364,0.364,0.363,0.363,0.362,0.362,0.362,0.362,0.362,0.361,0.361,0.36,0.36,0.36,0.36,0.36,0.36,0.36,0,0.359,0.359,0.359,0.359,0.359,0.359,0.358,0.358,0.358,0.358,0.356,0.356,0.355,0.355,0,0.355,0.355,0.355,0.354,0.354,0.354,0.353,0.353,0.352,0.352,0.352,0.352,0.352,0.352,0,0.351,0.351,0.351,0.351,0.35,0.35,0.35,0.35,0.35,0.35,0.349,0.349,0.348,0.348,0.348,0.348,0.348,0.348,0.347,0.347,0.346,0.346,0.346,0,0.345,0.345,0.345,0.345,0.345,0.345,0.344,0.344,0.344,0.344,0.344,0.343,0.343,0.342,0.342,0.342,0.342,0.342,0.341,0.341,0.341,0.341,0.341,0.341,0.34,0.34,0.34,0.339,0.339,0.339,0.339,0.339,0.338,0.338,0.338,0.338,0.337,0.337,0.337,0.337,0.337,0.336,0.336,0.336,0.336,0.336,0.336,0.335,0.335,0.335,0.335,0.335,0.335,0.334,0.334,0.334,0.333,0.333,0.332,0.332,0.332,0.332,0.332,0.332,0.331,0.331,0.331,0.331,0.331,0.331,0.33,0.33,0.33,0.33,0.33,0.329,0.329,0.329,0.329,0.328,0.328,0.328,0.327,0.327,0,0,0,0.326,0.326,0.326,0.326,0.326,0.326,0.325,0.325,0.324,0.324,0.324,0.324,0.324,0.324,0.324,0.324,0.323,0.323,0.323,0.323,0.323,0.322,0.322,0.322,0.321,0.321,0.321,0.321,0.321,0.321,0.32,0.32,0.32,0.32,0.32,0.32,0.32,0.32,0.319,0.319,0.319,0.318,0.318,0.318,0.318,0.318,0.318,0.317,0.317,0.317,0.317,0.316,0.316,0.316,0.316,0.315,0.315,0.315,0.315,0.315,0.315,0.315,0.314,0.314,0.313,0,0,0.313,0.313,0.312,0.312,0.312,0.312,0.312,0.312,0.311,0.311,0.311,0.311,0.311,0.31,0.31,0.31,0.31,0.31,0.31,0.31,0.309,0.309,0.309,0.309,0.309,0.308,0.308,0.308,0.307,0.307,0.307,0.307,0.307,0.306,0.306,0.306,0.306,0.306,0.305,0.305,0.305,0.305,0.305,0.304,0,0.304,0.304,0.304,0.304,0.304,0.303,0.303,0.303,0.303,0.303,0.303,0.302,0.302,0.302,0.302,0.302,0.301,0.301,0.301,0.3,0.3,0.3,0.3,0.3,0.3,0.3,0.3,0,0,0,0.299,0.299,0.298,0.298,0.298,0.298,0.298,0.298,0.297,0.297,0.297,0.297,0.297,0.296,0.296,0.296,0.296,0.295,0.295,0.295,0.295,0.295,0.295,0.295,0.295,0.294,0.294,0.294,0.294,0.294,0.294,0.294,0.294,0.293,0.293,0.293,0.293,0.293,0.293,0.292,0.292,0.292,0.292,0.292,0,0,0,0,0,0,0,0,0,0,0,0,0,0,0,0,0,0,0,0,0,0,0,0,0,0,0,0,0,0,0,0,0,0,0,0,0,0,0,0,0,0,0,0,0,0,0,0,0,0,0,0,0,0,0,0,0,0,0,0,0,0,0,0,0,0,0,0,0,0,0,0,0,0,0,0,0,0,0,0,0,0,0,0,0,0,0,0,0,0,0
0,0,0,0,0,0,0,0,0,0,0,0,0,0,0,0,0,0,0,0,0,0,0,0,0,0,0,0,0,0,0,0,0,0,0,0,0,0,0,0,0,0,0,0.411,0.411,0.411,0.41,0.409,0.408,0.407,0.407,0.407,0.407,0.406,0.406,0.405,0.405,0.404,0.404,0.403,0.403,0.403,0.402,0.402,0.402,0.402,0.402,0.402,0.401,0.401,0.401,0.4,0.4,0.399,0.398,0.398,0.398,0.398,0.397,0.397,0.397,0.397,0.397,0.396,0.396,0.395,0.395,0.394,0.394,0.394,0.393,0.393,0.393,0.393,0.393,0.393,0.392,0.392,0.391,0.391,0.391,0.39,0.389,0.389,0.389,0.389,0.389,0.389,0.389,0.389,0.389,0.388,0.388,0.388,0.387,0.386,0.386,0.385,0.385,0.385,0.385,0.384,0.384,0.384,0.383,0.383,0.382,0.382,0.382,0.381,0.381,0.381,0.381,0.381,0.381,0.381,0.381,0.381,0.381,0.381,0.38,0.38,0.38,0.379,0.378,0.378,0.377,0.377,0.377,0.377,0.377,0.377,0.377,0.377,0.376,0.376,0.376,0.376,0.375,0.375,0.375,0.374,0.374,0.373,0.373,0.373,0.373,0.372,0.372,0.372,0.371,0.371,0.371,0.371,0.371,0.37,0.37,0.37,0.369,0.369,0.369,0.369,0.369,0.368,0.368,0.368,0.367,0.367,0.367,0.366,0.366,0.366,0.366,0.366,0.365,0.365,0.365,0.365,0.364,0.364,0.363,0.363,0.363,0.363,0.362,0.362,0.362,0.362,0.362,0.361,0.36,0.36,0.359,0.359,0.359,0.359,0.359,0.359,0.359,0,0,0,0,0.358,0.358,0.358,0.358,0.358,0.358,0.356,0.356,0.356,0.355,0.355,0,0,0,0.354,0.354,0.354,0.353,0.353,0.352,0.352,0.352,0.351,0.351,0.351,0.351,0.351,0,0,0.35,0.35,0.35,0.35,0.349,0.349,0.349,0.349,0.349,0.349,0.348,0.348,0.348,0.348,0.347,0.347,0.346,0.346,0.346,0.346,0.345,0.345,0.345,0.345,0.345,0.345,0.344,0.344,0.344,0.344,0.343,0.343,0.343,0.342,0.342,0.342,0.342,0.342,0.342,0.341,0.341,0.341,0.341,0.34,0.34,0.34,0.339,0.339,0.339,0.339,0.339,0.339,0.339,0.338,0.338,0.338,0.338,0.337,0.337,0.336,0.336,0.336,0.336,0.336,0.336,0.336,0.336,0.335,0.335,0.335,0.335,0.335,0.335,0.334,0.334,0,0.333,0.333,0.333,0.333,0.332,0.332,0.332,0.332,0.331,0.331,0.331,0.331,0.33,0.33,0.33,0.33,0.33,0.33,0.329,0.329,0.329,0.329,0.329,0.329,0.328,0.328,0.328,0.327,0.327,0.327,0.327,0.326,0.326,0.326,0.326,0.326,0.326,0.325,0.325,0.324,0.324,0.324,0.324,0.324,0.323,0.323,0.323,0.323,0.323,0.323,0.323,0.323,0.322,0.322,0.322,0.322,0.321,0.321,0.321,0.321,0.321,0.32,0.32,0.32,0,0.32,0.32,0.32,0.319,0.319,0.319,0.319,0.319,0.318,0.318,0.318,0.318,0.318,0.317,0.317,0.317,0.316,0.316,0.316,0.316,0.316,0.315,0.315,0.315,0.315,0.315,0.315,0.315,0.314,0.314,0.314,0.313,0.313,0.313,0.312,0.312,0.312,0.312,0.312,0.312,0.312,0.312,0.312,0.311,0.311,0.31,0.31,0.31,0.31,0.31,0.31,0.31,0.31,0.31,0.31,0.309,0.309,0.309,0.308,0.308,0.308,0.308,0.308,0.307,0.307,0.307,0.307,0.307,0.306,0.306,0.305,0.305,0.305,0.305,0.305,0.305,0.304,0.304,0.304,0.304,0.304,0.304,0.303,0.303,0.303,0.303,0.303,0.303,0.302,0.302,0.302,0.302,0.302,0.302,0,0.301,0.301,0.301,0.3,0.3,0.3,0.3,0.3,0.3,0.299,0.299,0.299,0.299,0.299,0.299,0,0,0,0.297,0.297,0.297,0.297,0.297,0.297,0.297,0.297,0.297,0.296,0.296,0.296,0.295,0.295,0.295,0.295,0.295,0.295,0.295,0.295,0.294,0.294,0.294,0.294,0.294,0.294,0.294,0.294,0.294,0.293,0.293,0.293,0.293,0.293,0.293,0.292,0.292,0.292,0.292,0.292,0.292,0.292,0.292,0,0,0,0,0,0,0,0,0,0,0,0,0,0,0,0,0,0,0,0,0,0,0,0,0,0,0,0,0,0,0,0,0,0,0,0,0,0,0,0,0,0,0,0,0,0,0,0,0,0,0,0,0,0,0,0,0,0,0,0,0,0,0,0,0,0,0,0,0,0,0,0,0,0,0,0,0,0,0,0,0,0,0,0,0,0,0,0,0,0,0
0,0,0,0,0,0,0,0,0,0,0,0,0,0,0,0,0,0,0,0,0,0,0,0,0,0,0,0,0,0,0,0,0,0,0,0,0,0,0,0,0,0,0,0,0,0,0.408,0.407,0.407,0.407,0.406,0.406,0.406,0.405,0.404,0.404,0.403,0.403,0.402,0.402,0.402,0.402,0.402,0.402,0.401,0.401,0.401,0.4,0.4,0.399,0.399,0.398,0.398,0.398,0.397,0.397,0.397,0.397,0.396,0.396,0.396,0.396,0.395,0.394,0.394,0.394,0.393,0.393,0.393,0.393,0.393,0.393,0.392,0.392,0.392,0.391,0.391,0.39,0.389,0.389,0.389,0.389,0.389,0.389,0.388,0.388,0.388,0.388,0.387,0.387,0.386,0.385,0.386,0.386,0,0,0.385,0.385,0.384,0.384,0.384,0.383,0.383,0.382,0.382,0.381,0.381,0.381,0.381,0.381,0.381,0.381,0.381,0.38,0.38,0.38,0.38,0.38,0.38,0.379,0.379,0.378,0.378,0.377,0.377,0.377,0.377,0.377,0.377,0.376,0.376,0.376,0.376,0.375,0.375,0.375,0.374,0.374,0.374,0.373,0.373,0.373,0.373,0.373,0.373,0.372,0.372,0.371,0.371,0.37,0.37,0.37,0.37,0.37,0.37,0.369,0.369,0.369,0.369,0.368,0.368,0.367,0.367,0.366,0.366,0.366,0.366,0.366,0.366,0.366,0.366,0.366,0.365,0.365,0.364,0.364,0.364,0.363,0.363,0.362,0.362,0.362,0.362,0.362,0.362,0.362,0.361,0.36,0.36,0.359,0.359,0.359,0.359,0.359,0.359,0.358,0.358,0.358,0.358,0.358,0,0,0,0.358,0.357,0.357,0.357,0.357,0.356,0.355,0.355,0.355,0.355,0.354,0.354,0.353,0.353,0.353,0.353,0.352,0.352,0.352,0.351,0.351,0.351,0.351,0.35,0.35,0.35,0.349,0,0.349,0.349,0.349,0.349,0.348,0.348,0.348,0.348,0.348,0.348,0.348,0.348,0.347,0.347,0.346,0.346,0.346,0.345,0.345,0.345,0.345,0.345,0.345,0.344,0.344,0.344,0.343,0.343,0.343,0.342,0.342,0.342,0.342,0.342,0.342,0.341,0.341,0.341,0.341,0.341,0.34,0.34,0.34,0.339,0.339,0.339,0.339,0.339,0.339,0.339,0.339,0.338,0.338,0.338,0.338,0.337,0.337,0.336,0.336,0.336,0.336,0.336,0.336,0.335,0.335,0.335,0.335,0.335,0.335,0.335,0.335,0.334,0.334,0.333,0.333,0,0.333,0,0.332,0.332,0.332,0.332,0.331,0.331,0.331,0.33,0.33,0.33,0.33,0.33,0.33,0.33,0.329,0.329,0.329,0.329,0.328,0.328,0.328,0.328,0.327,0.327,0.327,0.327,0.326,0.326,0.326,0.326,0.326,0.326,0.325,0.325,0.325,0.325,0.324,0.324,0.324,0.323,0.323,0.323,0.323,0.323,0.323,0.323,0.323,0.323,0.323,0.322,0.322,0.321,0.321,0.321,0.321,0.321,0.321,0.32,0.32,0.32,0.32,0.32,0.319,0,0.319,0.319,0.318,0.318,0.318,0.318,0.318,0.318,0.318,0.318,0.317,0.317,0.317,0.316,0.316,0.316,0.316,0.315,0.315,0.315,0.315,0.315,0.315,0.315,0.315,0.314,0.314,0,0,0.313,0.313,0.312,0.312,0.312,0.312,0.312,0.312,0.312,0.311,0.311,0.311,0.311,0.311,0.311,0.31,0.31,0.31,0.31,0.309,0.309,0.309,0.309,0.309,0.309,0.309,0.309,0.308,0.308,0.307,0.307,0.307,0.307,0.307,0.307,0.307,0.307,0.306,0.306,0.305,0.305,0.305,0.305,0.304,0.304,0.304,0.304,0.304,0.304,0.303,0.303,0.303,0.303,0.302,0.302,0.302,0.302,0.302,0.302,0.302,0.302,0.302,0.302,0.302,0.301,0.301,0.3,0,0.3,0.3,0.299,0.299,0.299,0.299,0.299,0.299,0.299,0.299,0.298,0.298,0.298,0.297,0,0.297,0.297,0.297,0.297,0.297,0.297,0.297,0.296,0.296,0.295,0.295,0.295,0.295,0.295,0.295,0.295,0.295,0.294,0.294,0.294,0.294,0.294,0.294,0.294,0.293,0.293,0.293,0.293,0.293,0.293,0.293,0.293,0.293,0.293,0.292,0,0,0,0.292,0.292,0.292,0.292,0.292,0,0,0,0,0,0,0,0,0,0,0,0,0,0,0,0,0,0,0,0,0,0,0,0,0,0,0,0,0,0,0,0,0,0,0,0,0,0,0,0,0,0,0,0,0,0,0,0,0,0,0,0,0,0,0,0,0,0,0,0,0,0,0,0,0,0,0,0,0,0,0,0,0,0,0,0,0,0,0,0,0,0,0,0,0,0,0,0,0,0,0,0
0,0,0,0,0,0,0,0,0,0,0,0,0,0,0,0,0,0,0,0,0,0,0,0,0,0,0,0,0,0,0,0,0,0,0,0,0,0,0,0,0,0,0,0,0,0.407,0.407,0.406,0.406,0.406,0.405,0.405,0.404,0.404,0.403,0.402,0.402,0.402,0.402,0.402,0.401,0.401,0.401,0.4,0.4,0.399,0.399,0.399,0.398,0.398,0.398,0.397,0.397,0.397,0.396,0.396,0.396,0.395,0.395,0.394,0.394,0.394,0.394,0.393,0.393,0.393,0.393,0.393,0.392,0.392,0.392,0.391,0.391,0.391,0.39,0.39,0.389,0.389,0.389,0.389,0.388,0.388,0.388,0.387,0.387,0.386,0.386,0.386,0.386,0.385,0.385,0.385,0.384,0.384,0.385,0.384,0.384,0.384,0.383,0.383,0.382,0.382,0.382,0.381,0.381,0.381,0.381,0.381,0.38,0.38,0.38,0.38,0.379,0.379,0.378,0.378,0.378,0.378,0.378,0.377,0.377,0.377,0.377,0.377,0.376,0.376,0.376,0.376,0.376,0.376,0.375,0.374,0.374,0.374,0.374,0.373,0.373,0.373,0.373,0.373,0.373,0.373,0.373,0.372,0,0.371,0.37,0.37,0.37,0.37,0.37,0.369,0.369,0.369,0.369,0.368,0.368,0.367,0.367,0.367,0.366,0.366,0.366,0.366,0.366,0.366,0.366,0.365,0.365,0.365,0.364,0.364,0.364,0.363,0.363,0.363,0.362,0.362,0.362,0.362,0.362,0.362,0.361,0.361,0.36,0.36,0.359,0.359,0.359,0.359,0.358,0.358,0.358,0.358,0.358,0.358,0.358,0.357,0.357,0.357,0,0,0.356,0.356,0.356,0.356,0.355,0.355,0.355,0.355,0.354,0.354,0.353,0.353,0.352,0.352,0.352,0.352,0.352,0.351,0.351,0.351,0.351,0.351,0.35,0.35,0.349,0.349,0.349,0.348,0,0,0,0.348,0.348,0.348,0.348,0.348,0.348,0.348,0.347,0.347,0,0.346,0.345,0.345,0.345,0.345,0.345,0.345,0.345,0.344,0.344,0.343,0.343,0.342,0.342,0.342,0.342,0.342,0.342,0.341,0.341,0.341,0.341,0.341,0.341,0.341,0.34,0.34,0.34,0.339,0.339,0.339,0.339,0.339,0.338,0.338,0.338,0.338,0.338,0.338,0.338,0.337,0.337,0.336,0.336,0.336,0.336,0.335,0.335,0.335,0.335,0.335,0.335,0.335,0.335,0.334,0.334,0.334,0.333,0.333,0.333,0.333,0.332,0.332,0,0,0,0.331,0.331,0.331,0.33,0.33,0.33,0.33,0.33,0.329,0.329,0.329,0.329,0.329,0.329,0.329,0.328,0.328,0.328,0.327,0.327,0.327,0.327,0.326,0.326,0,0.326,0.326,0.326,0.325,0.325,0.325,0.324,0.324,0.324,0.324,0.324,0.324,0.323,0.323,0.323,0.323,0.323,0.322,0.322,0.322,0.322,0.322,0.321,0.321,0,0,0.321,0.321,0.32,0.32,0.32,0.32,0.32,0.32,0.319,0.319,0.318,0.318,0.318,0.318,0.318,0.318,0.318,0.318,0.318,0.318,0.317,0.317,0.317,0.316,0.316,0.316,0.315,0.315,0.315,0.315,0.315,0.315,0.315,0.315,0.315,0.314,0.314,0.314,0.313,0,0,0,0,0.312,0.312,0.311,0.311,0.311,0.311,0.311,0.311,0.31,0.31,0.31,0.31,0.31,0.31,0.31,0.309,0.309,0.309,0.309,0.309,0.309,0.309,0.309,0.308,0.308,0.308,0.307,0.307,0.307,0.307,0.307,0.307,0.307,0.306,0.306,0.306,0.305,0.305,0.305,0.304,0.304,0.304,0.304,0.304,0.304,0.303,0.303,0.303,0.303,0.302,0.302,0.302,0.302,0.302,0.302,0.302,0.302,0.302,0.302,0.302,0.301,0.301,0.301,0.3,0.3,0,0,0,0.299,0.299,0.299,0.299,0.299,0.299,0.299,0.298,0.298,0.297,0.297,0.297,0.297,0.297,0.296,0.296,0.296,0.296,0.296,0.296,0.296,0.295,0.295,0.295,0.295,0.295,0.295,0.294,0.294,0.294,0.294,0.294,0.294,0.294,0.293,0,0,0.293,0.293,0.293,0.293,0.293,0.292,0.292,0.292,0.292,0.292,0.292,0.292,0,0,0,0,0,0,0.292,0,0,0,0,0,0,0,0,0,0,0,0,0,0,0,0,0,0,0,0,0,0,0,0,0,0,0,0,0,0,0,0,0,0,0,0,0,0,0,0,0,0,0,0,0,0,0,0,0,0,0,0,0,0,0,0,0,0,0,0,0,0,0,0,0,0,0,0,0,0,0,0,0,0,0,0,0,0,0,0,0,0,0,0,0,0,0,0,0,0,0,0,0
0,0,0,0,0,0,0,0,0,0,0,0,0,0,0,0,0,0,0,0,0,0,0,0,0,0,0,0,0,0,0,0,0,0,0,0,0,0,0,0,0,0,0,0.407,0.406,0.406,0.406,0.405,0.404,0.404,0.404,0.403,0.402,0.402,0.402,0.402,0.401,0.401,0.401,0.4,0.4,0.399,0.399,0.399,0.398,0.398,0.398,0.397,0.397,0.397,0.397,0.396,0.396,0.395,0.395,0.394,0.394,0.394,0.394,0.394,0.393,0.393,0.393,0.393,0.393,0.392,0.392,0.392,0.391,0.391,0.391,0.39,0.39,0.389,0.389,0.389,0.388,0.388,0.388,0.387,0.387,0.386,0.386,0.386,0.385,0.385,0.385,0.385,0.385,0.384,0.384,0.384,0.383,0.383,0.382,0.382,0.381,0.381,0.382,0.382,0.381,0.381,0.381,0.381,0.38,0.38,0.38,0.379,0.379,0.379,0.378,0.378,0.378,0.378,0.377,0.377,0.377,0.377,0.377,0.377,0.377,0.376,0.376,0.376,0.376,0.375,0.375,0.375,0.374,0.374,0.374,0.374,0.373,0.373,0.373,0.373,0.373,0.372,0.372,0.372,0.372,0.371,0.371,0.37,0.37,0.37,0.369,0.369,0.369,0.369,0.369,0.369,0.369,0.368,0.368,0.367,0.366,0.366,0.366,0.366,0.366,0.365,0.365,0.365,0.365,0.364,0.364,0.364,0.364,0.364,0.363,0.363,0.363,0.362,0.362,0.362,0.362,0.362,0.361,0.361,0.36,0.36,0.36,0.359,0.359,0.359,0.359,0.358,0.358,0.358,0.358,0.358,0.357,0.357,0.357,0.356,0.356,0.355,0.355,0.355,0.355,0.355,0.355,0.355,0.355,0.355,0.355,0,0,0,0.353,0.352,0.352,0.352,0.352,0.351,0.351,0.351,0.351,0.351,0.351,0.35,0.35,0.35,0.349,0.349,0.348,0.348,0.348,0.348,0.348,0.348,0.348,0.348,0.347,0.347,0.347,0.347,0.346,0.346,0.346,0,0,0.345,0.345,0.345,0.344,0.344,0.344,0.344,0.343,0.343,0.343,0.342,0.342,0.342,0.342,0.341,0.341,0.341,0.341,0.341,0.341,0.34,0.34,0.34,0.34,0.339,0.339,0.339,0.339,0.339,0.338,0.338,0.338,0.338,0.338,0.338,0.338,0.338,0.337,0.337,0.337,0.336,0.336,0.336,0.335,0.335,0.335,0.335,0.335,0.335,0.334,0.334,0.334,0.334,0.333,0.333,0.333,0.332,0.332,0.332,0.332,0.332,0.331,0.331,0.331,0.331,0.33,0.33,0.33,0.33,0.33,0.33,0.329,0.329,0.329,0.329,0.329,0.329,0.328,0.328,0.328,0.327,0.327,0.327,0.326,0.326,0.326,0.326,0.326,0.326,0.326,0.325,0.325,0.325,0.324,0.324,0.324,0.324,0.324,0.323,0.323,0.323,0.323,0.323,0,0.322,0.322,0.322,0.322,0.322,0.321,0.321,0.321,0.321,0.321,0.321,0,0,0,0.32,0.32,0.32,0.32,0.319,0.319,0.318,0.318,0.318,0.318,0.318,0.318,0.318,0.317,0.317,0.317,0.317,0.317,0.316,0.316,0.316,0.315,0.315,0.315,0.315,0.315,0.315,0.315,0.314,0.314,0.314,0.314,0.314,0.313,0.313,0.313,0.312,0.312,0.312,0,0,0.311,0.311,0.311,0.31,0.31,0.31,0.31,0.31,0.31,0.31,0.31,0.31,0.31,0.309,0.309,0.309,0.308,0.308,0.308,0.308,0.308,0.307,0.307,0.307,0,0.307,0,0.307,0.306,0.306,0.306,0.306,0.306,0.306,0.305,0.305,0,0,0.304,0.304,0.304,0.304,0.304,0.303,0.303,0.303,0.303,0.302,0.302,0.302,0.302,0.302,0.302,0.302,0.302,0.302,0.302,0.301,0.301,0.301,0.3,0.3,0.3,0.3,0.3,0,0,0,0.299,0.299,0.298,0.298,0.298,0.298,0.298,0.298,0.297,0.297,0.297,0.297,0.296,0.295,0.295,0.295,0.295,0.295,0.295,0.295,0.295,0.295,0.295,0.295,0.294,0.294,0.294,0.294,0.294,0.294,0.294,0.294,0.294,0.293,0.293,0.293,0,0,0.292,0.292,0.292,0.292,0.292,0.292,0.292,0.292,0.292,0.292,0.292,0.292,0.292,0.292,0.292,0,0,0,0,0,0,0,0,0,0,0,0,0,0,0,0,0,0,0,0,0,0,0,0,0,0,0,0,0,0,0,0,0,0,0,0,0,0,0,0,0,0,0,0,0,0,0,0,0,0,0,0,0,0,0,0,0,0,0,0,0,0,0,0,0,0,0,0,0,0,0,0,0,0,0,0,0,0,0,0,0,0,0,0,0,0,0,0,0,0,0,0,0,0,0,0,0
0,0,0,0,0,0,0,0,0,0,0,0,0,0,0,0,0,0,0,0,0,0,0,0,0,0,0,0,0,0,0,0,0,0,0,0,0,0,0,0,0,0,0,0.404,0.404,0.403,0.403,0.403,0.403,0.402,0.402,0.402,0.402,0.401,0.401,0.4,0.4,0.399,0.399,0.398,0.398,0.398,0.398,0.398,0.397,0.397,0.397,0.397,0.396,0.396,0.395,0.394,0.394,0.394,0.394,0.393,0.393,0.393,0.393,0.393,0.392,0.392,0.392,0.392,0.391,0.391,0.391,0.39,0.39,0.39,0.389,0.389,0.389,0.389,0.388,0.388,0.387,0.386,0.386,0.386,0.385,0.385,0.385,0.385,0.385,0.385,0.384,0.384,0.384,0.383,0.382,0.382,0.382,0.381,0.381,0.381,0.381,0.381,0.38,0.38,0.38,0.38,0.38,0.38,0.379,0.379,0.378,0.378,0.378,0.378,0.377,0.377,0.377,0.377,0.377,0.377,0.376,0.376,0.376,0.376,0.375,0.375,0.375,0.374,0.374,0.374,0.374,0.374,0.373,0.373,0.373,0.373,0.373,0.372,0.372,0.371,0.371,0.371,0.371,0,0.37,0.37,0.37,0.369,0.369,0.369,0.369,0.368,0.368,0.368,0.367,0.367,0.367,0.367,0.366,0.366,0.366,0.366,0.365,0.365,0.365,0.364,0.364,0.364,0.364,0.364,0.363,0.363,0.363,0.363,0.362,0.362,0.362,0.362,0.361,0.361,0.361,0.361,0.36,0.359,0.359,0.359,0.359,0.359,0.358,0.358,0.358,0.358,0.357,0.357,0.357,0.357,0.356,0.356,0.355,0.355,0.355,0.355,0.355,0.355,0.354,0.354,0.354,0.354,0.353,0.354,0.353,0.353,0.352,0,0.352,0.351,0.351,0.351,0.351,0.351,0.35,0.35,0.35,0.35,0.35,0.349,0.349,0.349,0.348,0.348,0.348,0.348,0.347,0.347,0.347,0.347,0.346,0.346,0.346,0.346,0.346,0.345,0.345,0.345,0.345,0.345,0.344,0.344,0.344,0.343,0.343,0.343,0.343,0.342,0.342,0.342,0.342,0.341,0.341,0.341,0.341,0.341,0.341,0.34,0.34,0.34,0.339,0.339,0.339,0.339,0.339,0.339,0.338,0.338,0.338,0.338,0.338,0.337,0.337,0.337,0.336,0.336,0.336,0.336,0.336,0.336,0.336,0.335,0.335,0.335,0.335,0.335,0.334,0.334,0.334,0.333,0.333,0.333,0.333,0.332,0.332,0.332,0.332,0.332,0.332,0.332,0.331,0.331,0.33,0.33,0.33,0.33,0.329,0.329,0.329,0.329,0.329,0.329,0.329,0.329,0.328,0.328,0.328,0.328,0.327,0.327,0.327,0.327,0.326,0.326,0.326,0.326,0.325,0.325,0.325,0.324,0.324,0.324,0.324,0.324,0.323,0.323,0.323,0.323,0.323,0.323,0.323,0.323,0.322,0.322,0.322,0.321,0.321,0.321,0.321,0.321,0.321,0.321,0.32,0.32,0.32,0.32,0.32,0.32,0.319,0.319,0.319,0.319,0.319,0.318,0.318,0.318,0.318,0.317,0.317,0.317,0.317,0.316,0.316,0.316,0.316,0.316,0.316,0.315,0.315,0.315,0.315,0.315,0.315,0.315,0.314,0.314,0.314,0.313,0.313,0.313,0.313,0.313,0.313,0.312,0.312,0.312,0.312,0.311,0.311,0.31,0.31,0.31,0.31,0.31,0.31,0.31,0.309,0.309,0.309,0.309,0.309,0.309,0.309,0.309,0.308,0.308,0.307,0.307,0.307,0.307,0.307,0.307,0.307,0,0,0,0,0.305,0.305,0.305,0.305,0.305,0.305,0.305,0,0,0,0,0.303,0.303,0.303,0.303,0.303,0.302,0.302,0.302,0.302,0.302,0.302,0.302,0.302,0.301,0.301,0.301,0.301,0.301,0.301,0.301,0.3,0.3,0.3,0.3,0.299,0.299,0.299,0.298,0.298,0.298,0.298,0.298,0.298,0.298,0.298,0.297,0.297,0.297,0.297,0.297,0.297,0.296,0.295,0.295,0.295,0.295,0.295,0.295,0.295,0.295,0.294,0.294,0.294,0.294,0.294,0.294,0.294,0.294,0.293,0.293,0.293,0.293,0.293,0.293,0.293,0.292,0.292,0.292,0.292,0.292,0.292,0.292,0.292,0.292,0,0,0,0,0,0.291,0.291,0,0,0,0,0,0,0,0,0,0,0,0,0,0,0,0,0,0,0,0,0,0,0,0,0,0,0,0,0,0,0,0,0,0,0,0,0,0,0,0,0,0,0,0,0,0,0,0,0,0,0,0,0,0,0,0,0,0,0,0,0,0,0,0,0,0,0,0,0,0,0,0,0,0,0,0,0,0,0,0,0,0,0,0,0,0,0,0,0,0,0,0,0,0,0,0,0,0,0
0,0,0,0,0,0,0,0,0,0,0,0,0,0,0,0,0,0,0,0,0,0,0,0,0,0,0,0,0,0,0,0,0,0,0,0,0,0,0,0,0,0,0,0,0,0,0.402,0.402,0.402,0.401,0.401,0.401,0.4,0.4,0.399,0.399,0.398,0.398,0.398,0.398,0.398,0.397,0.397,0.397,0.397,0.396,0.396,0.395,0.395,0.394,0.394,0.393,0.393,0.393,0.393,0.392,0.392,0.392,0.392,0.391,0.391,0.391,0.391,0.39,0.39,0.39,0.389,0.389,0.389,0.389,0.389,0.388,0.388,0.388,0.387,0.386,0.386,0.385,0.385,0.385,0.385,0.385,0.384,0.384,0.384,0.383,0.383,0.382,0.382,0.382,0.381,0.381,0.381,0.381,0.381,0.381,0.38,0.38,0.379,0.379,0.378,0.378,0.378,0.378,0.378,0.378,0.377,0.377,0.377,0.377,0.377,0.377,0.376,0.376,0.376,0.376,0.375,0.375,0.374,0.374,0.374,0.374,0.374,0.373,0.373,0.373,0.373,0.373,0.373,0.373,0.372,0.372,0.371,0.371,0.371,0.37,0.37,0.37,0,0.369,0.369,0.369,0.369,0.369,0.368,0.367,0.367,0.367,0.366,0.366,0.366,0.366,0.366,0.366,0.366,0.365,0.365,0.365,0.364,0.363,0.363,0.363,0.362,0.363,0.363,0.362,0.362,0.362,0.362,0.362,0.362,0.362,0.361,0.361,0.36,0.359,0.359,0.359,0.359,0.359,0.359,0.358,0.358,0.358,0.358,0.357,0.357,0.357,0.356,0.356,0.356,0.355,0.355,0.355,0.355,0.355,0.355,0.354,0.354,0.354,0.354,0.353,0.353,0.352,0.352,0.352,0.352,0.352,0.351,0.351,0.351,0.351,0.35,0.35,0.35,0.35,0.349,0.349,0.349,0.349,0.349,0.348,0.348,0.348,0.348,0.348,0.347,0.347,0.346,0.346,0.346,0.345,0.345,0.345,0.345,0.345,0.345,0.345,0.345,0.344,0.344,0.344,0.343,0.342,0.342,0.342,0.342,0.342,0.342,0.342,0.341,0.341,0.341,0.341,0.341,0.34,0.34,0.34,0.34,0.339,0.339,0.339,0.339,0.339,0.338,0.338,0.338,0.338,0,0,0.337,0.336,0.336,0.336,0.336,0.336,0.336,0.336,0.336,0,0.335,0.335,0.335,0.335,0.335,0.335,0.334,0.334,0.333,0.333,0.333,0.332,0.332,0.332,0.332,0.332,0.332,0.331,0.331,0.331,0.331,0.331,0.33,0.33,0.33,0.329,0.329,0.329,0.329,0.329,0.329,0.329,0.328,0.328,0.328,0.328,0.328,0.327,0.327,0.327,0.327,0.326,0.326,0.326,0.326,0.325,0.325,0.325,0.324,0.324,0.324,0.324,0.323,0.323,0.323,0.323,0.323,0.323,0.323,0.323,0.323,0.322,0.322,0.321,0.321,0.321,0,0.321,0.321,0.32,0.32,0.32,0.32,0.32,0.32,0.319,0.319,0.319,0.319,0.318,0.318,0.318,0.318,0.318,0.318,0.318,0.317,0.317,0.317,0.317,0.316,0.316,0.316,0.316,0.315,0.315,0.315,0.315,0.315,0.315,0.315,0.315,0.314,0.314,0.314,0.313,0.313,0.313,0.313,0.313,0.312,0.312,0.312,0.312,0.312,0.312,0.311,0.311,0.311,0.31,0.31,0.31,0.309,0.309,0.309,0.309,0.309,0.309,0.309,0.309,0.308,0.308,0.308,0.308,0.308,0.307,0.307,0.307,0.307,0.307,0.307,0.307,0.306,0.306,0.306,0,0,0,0,0.305,0.305,0.305,0.304,0.304,0.304,0.304,0.304,0,0.303,0.303,0.302,0.302,0.302,0.302,0.302,0.302,0.302,0.302,0.302,0.301,0.301,0.301,0.301,0.3,0.3,0.3,0.3,0.3,0.3,0.3,0.3,0.3,0.299,0.299,0.299,0.299,0.298,0.298,0.297,0.297,0.297,0.297,0.297,0.297,0.297,0.297,0.297,0.297,0.296,0.296,0.295,0.295,0.295,0.295,0.295,0.294,0.294,0.294,0.294,0.294,0.294,0.294,0.294,0.293,0.293,0.293,0.293,0.293,0.293,0.293,0.293,0.293,0.293,0.293,0.292,0.292,0.292,0.292,0.292,0.292,0.292,0.292,0.292,0.292,0,0,0,0,0,0,0,0,0,0,0,0,0,0,0,0,0,0,0,0,0,0,0,0,0,0,0,0,0,0,0,0,0,0,0,0,0,0,0,0,0,0,0,0,0,0,0,0,0,0,0,0,0,0,0,0,0,0,0,0,0,0,0,0,0,0,0,0,0,0,0,0,0,0,0,0,0,0,0,0,0,0,0,0,0,0,0,0,0,0,0,0,0,0,0,0,0,0,0,0,0,0,0,0,0,0
0,0,0,0,0,0,0,0,0,0,0,0,0,0,0,0,0,0,0,0,0,0,0,0,0,0,0,0,0,0,0,0,0,0,0,0,0,0,0,0,0,0,0,0,0.401,0.401,0.401,0.4,0.4,0.4,0.399,0.399,0.399,0,0,0,0,0.397,0.397,0.397,0.397,0.396,0.396,0.395,0.394,0.394,0.394,0.394,0.394,0.393,0.393,0.393,0.393,0.392,0.391,0.391,0.391,0.39,0.39,0.39,0.39,0.389,0.389,0.389,0.389,0.389,0.389,0.389,0.389,0.388,0.388,0.387,0.386,0.386,0.385,0.385,0.385,0.385,0.384,0.384,0.384,0.383,0.383,0.382,0.382,0.382,0.382,0.381,0.381,0.381,0.381,0.381,0.38,0.38,0.38,0.379,0.378,0.378,0.378,0.378,0.377,0.377,0.377,0.377,0.377,0.377,0.377,0.377,0.377,0.376,0.376,0.375,0.375,0.375,0.374,0.374,0.374,0.373,0.373,0.373,0.373,0.373,0.373,0.373,0.373,0.373,0.373,0.372,0.372,0.371,0.371,0.37,0.37,0.37,0.37,0.369,0.369,0.369,0.369,0.369,0.369,0.368,0.367,0.367,0.366,0.366,0.366,0.366,0.366,0.366,0.366,0.366,0.365,0.365,0.365,0.364,0.363,0.363,0.363,0.362,0.362,0.362,0.362,0.362,0.362,0.362,0.362,0.362,0.362,0.361,0.361,0.36,0.36,0.359,0.359,0.359,0.358,0.358,0.358,0.358,0.358,0.358,0.357,0.357,0.356,0.356,0.356,0.355,0.355,0.355,0.355,0.355,0.355,0.354,0.354,0.354,0.353,0.353,0.353,0.352,0.352,0.352,0.352,0.352,0.352,0.351,0.351,0.351,0.35,0.35,0.349,0.349,0.349,0.349,0.349,0.348,0.348,0.348,0.348,0.348,0.348,0.348,0.348,0.348,0.347,0.347,0.346,0.345,0.345,0.345,0.345,0.345,0.345,0.345,0.345,0.345,0.345,0.344,0.344,0.343,0.343,0.342,0.342,0.342,0.342,0.341,0,0.341,0.341,0.341,0.341,0.34,0.34,0.34,0.34,0.339,0.339,0.339,0.339,0.339,0.339,0.338,0.338,0.338,0.338,0.338,0.337,0.337,0.336,0.336,0.336,0.336,0.335,0.335,0.335,0.335,0.335,0.335,0.335,0.335,0.335,0.335,0.335,0.334,0.334,0.334,0.333,0.333,0.332,0.332,0.332,0.332,0.332,0.332,0.332,0.331,0.331,0.33,0.33,0.33,0.33,0.33,0.329,0.329,0.329,0.329,0.329,0.329,0.329,0.328,0.328,0.328,0.327,0.327,0.327,0.327,0.327,0.326,0.326,0.326,0.326,0.326,0.326,0.326,0.325,0.324,0.324,0.324,0.323,0.323,0.323,0.323,0.323,0.323,0.323,0.323,0.322,0.322,0.322,0.322,0.322,0.321,0.321,0.321,0.321,0.32,0.32,0.32,0.32,0.319,0,0.319,0.319,0.318,0.318,0.318,0.318,0.318,0.318,0.318,0,0,0,0,0.317,0.317,0.316,0.316,0.315,0.315,0.315,0.315,0.315,0.315,0.315,0.315,0.315,0.315,0.315,0.314,0.314,0.314,0.313,0.313,0.313,0.313,0.313,0.312,0.312,0.312,0.312,0.312,0.312,0.311,0.311,0.311,0.31,0.31,0.31,0.31,0.31,0.309,0.309,0.309,0.309,0.309,0.308,0.308,0.308,0.308,0.307,0.307,0.307,0.307,0.307,0.307,0.307,0.307,0.306,0.306,0.306,0.306,0.305,0.305,0.305,0.305,0.305,0.304,0.304,0.304,0.304,0.304,0.304,0.304,0.303,0.303,0.303,0.302,0.302,0.302,0.302,0.302,0.302,0.302,0.302,0.301,0.301,0.301,0.3,0.3,0.3,0.3,0.3,0.3,0.3,0.3,0.299,0.299,0.299,0.299,0.299,0.299,0.299,0.298,0.298,0.298,0.297,0.297,0.297,0.297,0.297,0.297,0.297,0.297,0.297,0.297,0.296,0.295,0.295,0.295,0.295,0.294,0.294,0.294,0.294,0.294,0.294,0.294,0.294,0.294,0.293,0.293,0.293,0.293,0.293,0.293,0.293,0.292,0.293,0.293,0.293,0.293,0.293,0.292,0.292,0.292,0.292,0.292,0.291,0.291,0.291,0.291,0,0,0,0,0,0,0,0,0,0,0,0,0,0,0,0,0,0,0,0,0,0,0,0,0,0,0,0,0,0,0,0,0,0,0,0,0,0,0,0,0,0,0,0,0,0,0,0,0,0,0,0,0,0,0,0,0,0,0,0,0,0,0,0,0,0,0,0,0,0,0,0,0,0,0,0,0,0,0,0,0,0,0,0,0,0,0,0,0,0,0,0,0,0,0,0,0,0,0,0,0,0,0,0,0,0,0,0
