0.0,0.0,0.0,0.0,0.0,0.0,0.0,0.0,0.0,0.0,0.0,0.0,0.0,0.0,0.0,0.0,0.631,0.63,0.63,0.63,0.63,0.629,0.628,0.627,0.626,0.626,0.625,0.624,0.624,0.623,0.623,0.622,0.622,0.621,0.621,0.62,0.619,0.616,0.616,0.615,0.614,0.614,0.613,0.613,0.612,0.612,0.612,0.611,0.611,0.611,0.61,0.609,0.608,0.606,0.605,0.604,0.603,0.603,0.602,0.602,0.601,0.601,0.601,0.6,0.599,0.598,0.596,0.594,0.594,0.593,0.592,0.592,0.591,0.591,0.591,0.59,0.589,0.589,0.589,0.586,0.586,0.584,0.584,0.583,0.582,0.582,0.581,0.581,0.581,0.58,0.58,0.58,0.579,0.579,0.576,0.575,0.575,0.574,0.573,0.573,0.573,0.572,0.572,0.571,0.571,0.57,0.568,0.567,0.566,0.566,0.565,0.565,0.564,0.564,0.563,0.563,0.563,0.562,0.561,0.56,0.559,0.558,0.557,0.557,0.556,0.556,0.556,0.555,0.555,0.554,0.554,0.553,0.552,0.55,0.549,0.549,0.548,0.548,0.547,0.547,0.547,0.546,0.546,0.546,0.545,0.544,0.543,0.542,0.541,0.54,0.54,0.54,0.539,0.539,0.539,0.538,0.538,0.537,0.537,0.536,0.535,0.534,0.534,0.533,0.533,0.532,0.532,0.532,0.532,0.532,0.532,0.531,0.531,0.531,0.531,0.53,0.529,0.528,0.526,0.524,0.524,0.523,0.523,0.523,0.523,0.523,0.522,0.522,0.522,0.521,0.52,0.519,0.518,0.517,0.517,0.516,0.516,0.515,0.515,0.514,0.514,0.514,0.514,0.514,0.514,0.514,0.514,0.515,0.0,0.0,0.0,0.0,0.0,0.0,0.0,0.0,0.0,0.0,0.0,0.0,0.0,0.0,0.0,0.0,0.0,0.315,0.315,0.315,0.315,0.315,0.315,0.314,0.314,0.314,0.314,0.314,0.314,0.314,0.314,0.313,0.313,0.313,0.313,0.313,0.313,0.313,0.313,0.312,0.312,0.312,0.312,0.312,0.312,0.312,0.312,0.312,0.312,0.312,0.312,0.312,0.312,0.312,0.312,0.312,0.312,0.313,0.313,0.313,0.313,0.313,0.313,0.313,0.313,0.313,0.313,0.313,0.3135,0.314,0.314,0.314,0.314,0.314,0.315,0.315,0.315,0.315,0.315,0.315,0.315,0.315,0.315,0.315,0.316,0.316,0.316,0.317,0.317,0.317,0.318,0.318,0.318,0.318,0.318,0.318,0.318,0.3185,0.319,0.319,0.319,0.32,0.32,0.32,0.32,0.321,0.321,0.321,0.321,0.321,0.321,0.321,0.322,0.322,0.322,0.322,0.322,0.3225,0.323,0.323,0.323,0.323,0.323,0.323,0.323,0.3235,0.324,0.324,0.324,0.324,0.325,0.325,0.325,0.326,0.326,0.326,0.326,0.326,0.326,0.327,0.327,0.327,0.328,0.328,0.328,0.3285,0.329,0.329,0.329,0.329,0.33,0.33,0.33,0.331,0.332,0.332,0.333,0.3335,0.334,0.335,0.336,0.337,0.338,0.3385,0.339,0.339,0.34,0.341,0.342,0.343,0.344,0.345,0.345,0.347,0.348,0.349,0.34962499999999996,0.35,0.351,0.352,0.354,0.355,0.3555,0.356,0.358,0.359,0.36,0.361,0.3615,0.362,0.362,0.362,0.363,0.364,0.365,0.366,0.366,0.367,0.36749999999999994,0.368,0.3685,0.369,0.369,0.0,0.0,0.0,0.0,0.0,0.0,0.0,0.0,0.0,0.0,0.0,0.0,0.421,0.42,0.42,0.42,0.42,0.418,0.417,0.417,0.417,0.416,0.416,0.415,0.415,0.414,0.413,0.412,0.412,0.412,0.412,0.411,0.411,0.411,0.411,0.411,0.411,0.411,0.41,0.41,0.41,0.409,0.409,0.409,0.408,0.408,0.408,0.408,0.407,0.407,0.407,0.407,0.407,0.407,0.406,0.406,0.405,0.404,0.404,0.402,0.402,0.402,0.402,0.402,0.402,0.402,0.402,0.401,0.401,0.4,0.4,0.399,0.399,0.398,0.398,0.398,0.398,0.398,0.398,0.397,0.397,0.397,0.396,0.396,0.395,0.395,0.394,0.393,0.393,0.393,0.392,0.392,0.392,0.391,0.391,0.391,0.391,0.391,0.39,0.39,0.39,0.389,0.389,0.389,0.389,0.389,0.389,0.389,0.388,0.388,0.388,0.387,0.386,0.386,0.385,0.385,0.385,0.385,0.385,0.384,0.384,0.383,0.383,0.382,0.382,0.382,0.381,0.381,0.381,0.381,0.381,0.38,0.38,0.379,0.379,0.379,0.378,0.378,0.378,0.377,0.377,0.377,0.377,0.376,0.376,0.375,0.375,0.375,0.375,0.375,0.0,0.0,0.0,0.0,0.0,0.0,0.0,0.0,0.0,0.0,0.0,0.0,0.0
0.0,0.0,0.0,0.0,0.0,0.0,0.0,0.0,0.0,0.0,0.0,0.0,0.0,0.0,0.0,0.0,0.0,0.629,0.628,0.627,0.626,0.626,0.625,0.624,0.624,0.623,0.623,0.623,0.622,0.622,0.622,0.621,0.62,0.62,0.619,0.616,0.614,0.614,0.613,0.613,0.612,0.612,0.611,0.611,0.611,0.611,0.61,0.61,0.609,0.608,0.607,0.605,0.603,0.603,0.602,0.602,0.601,0.601,0.601,0.6,0.6,0.599,0.598,0.598,0.595,0.594,0.593,0.592,0.592,0.591,0.591,0.59,0.589,0.588,0.587,0.586,0.586,0.585,0.584,0.583,0.583,0.582,0.582,0.581,0.581,0.58,0.579,0.578,0.577,0.577,0.576,0.576,0.575,0.575,0.574,0.573,0.573,0.573,0.572,0.571,0.57,0.569,0.569,0.567,0.566,0.566,0.565,0.565,0.564,0.564,0.563,0.563,0.563,0.562,0.561,0.56,0.559,0.558,0.557,0.557,0.556,0.556,0.556,0.555,0.555,0.555,0.554,0.554,0.553,0.551,0.551,0.549,0.549,0.548,0.547,0.547,0.547,0.547,0.546,0.546,0.544,0.544,0.543,0.542,0.542,0.54,0.54,0.54,0.539,0.539,0.539,0.538,0.538,0.538,0.537,0.536,0.535,0.535,0.534,0.533,0.532,0.532,0.532,0.531,0.531,0.531,0.531,0.531,0.531,0.531,0.531,0.531,0.53,0.529,0.528,0.527,0.526,0.525,0.524,0.523,0.523,0.522,0.522,0.521,0.521,0.521,0.52,0.519,0.519,0.518,0.517,0.517,0.516,0.516,0.515,0.515,0.514,0.513,0.512,0.512,0.512,0.511,0.511,0.511,0.511,0.511,0.512,0.513,0.0,0.0,0.0,0.0,0.0,0.0,0.0,0.0,0.0,0.0,0.0,0.0,0.0,0.0,0.0,0.0,0.0,0.315,0.315,0.315,0.315,0.315,0.314,0.314,0.314,0.314,0.314,0.314,0.314,0.313,0.313,0.313,0.313,0.313,0.313,0.313,0.313,0.312,0.312,0.312,0.312,0.312,0.312,0.312,0.312,0.312,0.312,0.312,0.312,0.312,0.312,0.312,0.312,0.312,0.312,0.312,0.312,0.313,0.313,0.313,0.313,0.313,0.313,0.313,0.313,0.313,0.313,0.313,0.313625,0.314,0.314,0.314,0.314,0.315,0.315,0.315,0.315,0.315,0.315,0.315,0.315,0.315,0.315,0.316,0.316,0.316,0.317,0.317,0.317,0.317,0.318,0.318,0.318,0.318,0.318,0.318,0.3185,0.319,0.319,0.319,0.32,0.32,0.32,0.32,0.321,0.321,0.321,0.321,0.321,0.321,0.322,0.322,0.322,0.322,0.322,0.322,0.3225,0.323,0.323,0.323,0.323,0.323,0.323,0.323,0.3235,0.324,0.324,0.324,0.324,0.325,0.325,0.325,0.326,0.326,0.326,0.326,0.326,0.326,0.327,0.327,0.327,0.328,0.328,0.328,0.328,0.328625,0.329,0.329,0.329,0.329,0.33,0.33,0.331,0.331,0.332,0.332,0.333,0.333875,0.335,0.335,0.336,0.337,0.338,0.3385,0.339,0.34,0.341,0.342,0.342,0.344,0.3445,0.345,0.346,0.348,0.348,0.349,0.35,0.351,0.352,0.353,0.354,0.355,0.356,0.357,0.358,0.359,0.36,0.361,0.361625,0.362,0.362,0.363,0.364,0.365,0.365,0.366,0.366,0.367,0.368,0.3685,0.369,0.369,0.0,0.0,0.0,0.0,0.0,0.0,0.0,0.0,0.0,0.0,0.0,0.0,0.42,0.42,0.42,0.419,0.419,0.417,0.417,0.416,0.416,0.416,0.415,0.415,0.414,0.413,0.412,0.411,0.411,0.411,0.411,0.411,0.411,0.411,0.411,0.41,0.41,0.409,0.409,0.409,0.408,0.408,0.408,0.408,0.407,0.407,0.407,0.407,0.407,0.406,0.406,0.406,0.406,0.406,0.406,0.405,0.404,0.403,0.402,0.402,0.402,0.402,0.401,0.401,0.401,0.401,0.4,0.4,0.4,0.399,0.399,0.398,0.398,0.398,0.398,0.397,0.397,0.397,0.397,0.397,0.396,0.396,0.395,0.394,0.394,0.393,0.393,0.393,0.392,0.392,0.391,0.391,0.391,0.39,0.39,0.39,0.39,0.39,0.39,0.389,0.389,0.389,0.389,0.389,0.389,0.388,0.388,0.388,0.388,0.387,0.386,0.386,0.385,0.385,0.385,0.385,0.385,0.384,0.384,0.384,0.383,0.382,0.382,0.382,0.381,0.381,0.381,0.381,0.38,0.38,0.38,0.379,0.379,0.378,0.378,0.378,0.377,0.377,0.377,0.377,0.376,0.376,0.376,0.375,0.375,0.374,0.374,0.374,0.374,0.374,0.374,0.0,0.0,0.0,0.0,0.0,0.0,0.0,0.0,0.0,0.0,0.0,0.0,0.0
0.0,0.0,0.0,0.0,0.0,0.0,0.0,0.0,0.0,0.0,0.0,0.0,0.0,0.0,0.0,0.0,0.0,0.626,0.625,0.625,0.624,0.623,0.622,0.622,0.622,0.622,0.622,0.622,0.621,0.621,0.62,0.619,0.618,0.615,0.614,0.613,0.612,0.612,0.611,0.611,0.611,0.611,0.61,0.609,0.609,0.608,0.608,0.606,0.604,0.603,0.603,0.602,0.602,0.601,0.601,0.6,0.6,0.599,0.598,0.598,0.597,0.596,0.594,0.593,0.592,0.592,0.591,0.591,0.59,0.589,0.587,0.586,0.585,0.584,0.583,0.583,0.583,0.582,0.582,0.582,0.581,0.58,0.579,0.579,0.577,0.576,0.575,0.574,0.574,0.574,0.574,0.574,0.573,0.573,0.573,0.572,0.571,0.57,0.569,0.567,0.565,0.565,0.565,0.564,0.564,0.564,0.563,0.563,0.562,0.562,0.561,0.56,0.559,0.558,0.557,0.556,0.556,0.556,0.555,0.555,0.555,0.555,0.554,0.554,0.553,0.553,0.552,0.551,0.55,0.548,0.548,0.548,0.547,0.547,0.547,0.546,0.545,0.544,0.543,0.542,0.542,0.541,0.54,0.54,0.539,0.539,0.539,0.538,0.538,0.538,0.537,0.537,0.536,0.535,0.534,0.534,0.533,0.533,0.532,0.531,0.531,0.531,0.531,0.531,0.531,0.531,0.531,0.53,0.53,0.53,0.529,0.529,0.528,0.527,0.526,0.525,0.523,0.523,0.522,0.522,0.521,0.519,0.519,0.519,0.519,0.518,0.518,0.517,0.517,0.516,0.516,0.516,0.514,0.514,0.513,0.512,0.511,0.511,0.51,0.51,0.51,0.51,0.51,0.51,0.51,0.51,0.0,0.0,0.0,0.0,0.0,0.0,0.0,0.0,0.0,0.0,0.0,0.0,0.0,0.0,0.0,0.0,0.0,0.0,0.315,0.315,0.315,0.315,0.315,0.315,0.314,0.314,0.314,0.314,0.314,0.313,0.313,0.313,0.313,0.313,0.313,0.313,0.312,0.312,0.312,0.312,0.312,0.312,0.312,0.312,0.312,0.312,0.312,0.312,0.312,0.312,0.312,0.312,0.312,0.312,0.312,0.312,0.312,0.312,0.312,0.313,0.313,0.313,0.313,0.313,0.313,0.313,0.313,0.313,0.313,0.3135,0.314,0.314,0.314,0.314,0.314,0.315,0.315,0.315,0.315,0.315,0.315,0.315,0.315,0.315,0.315,0.316,0.316,0.316,0.317,0.317,0.317,0.318,0.318,0.318,0.318,0.318,0.318,0.3185,0.319,0.319,0.319,0.32,0.32,0.32,0.32,0.32,0.321,0.321,0.321,0.321,0.321,0.322,0.322,0.322,0.322,0.322,0.322,0.3225,0.323,0.323,0.323,0.323,0.323,0.323,0.323,0.323,0.323625,0.324,0.324,0.324,0.324,0.325,0.325,0.326,0.326,0.326,0.326,0.326,0.326,0.327,0.327,0.327,0.327,0.328,0.328,0.3285,0.329,0.329,0.329,0.329,0.329,0.33,0.33,0.331,0.331,0.332,0.332,0.333,0.3335,0.334,0.335,0.336,0.337,0.338,0.338,0.338625,0.339,0.34,0.341,0.342,0.343,0.344,0.345,0.345,0.347,0.348,0.349,0.34950000000000003,0.35,0.351,0.352,0.354,0.0,0.0,0.0,0.3575,0.358,0.359,0.361,0.3615,0.362,0.362,0.363,0.363,0.364,0.365,0.366,0.366,0.367,0.367,0.368,0.36862500000000004,0.369,0.369,0.0,0.0,0.0,0.0,0.0,0.0,0.0,0.0,0.0,0.0,0.0,0.0,0.419,0.417,0.417,0.417,0.41674999999999995,0.416,0.416,0.415,0.415,0.414,0.413,0.413,0.412,0.411,0.411,0.411,0.411,0.411,0.41,0.41,0.41,0.409,0.409,0.408,0.408,0.408,0.408,0.407,0.407,0.407,0.407,0.406,0.406,0.406,0.406,0.406,0.406,0.406,0.405,0.405,0.404,0.404,0.404,0.403,0.402,0.402,0.40125000000000005,0.401,0.4,0.4,0.4,0.4,0.399,0.399,0.399,0.398,0.398,0.398,0.397,0.397,0.397,0.397,0.397,0.397,0.396,0.396,0.396,0.395,0.394,0.394,0.394,0.393,0.393,0.392,0.392,0.391,0.391,0.39,0.39,0.39,0.389,0.389,0.389,0.389,0.389,0.389,0.389,0.389,0.389,0.388,0.388,0.388,0.387,0.386,0.386,0.386,0.386,0.385,0.385,0.385,0.385,0.384,0.384,0.384,0.383,0.383,0.383,0.382,0.382,0.381,0.381,0.381,0.381,0.38,0.38,0.38,0.379,0.379,0.378,0.378,0.378,0.377,0.3775,0.377125,0.377,0.376,0.376,0.376,0.375,0.375,0.374,0.374,0.374,0.374,0.373,0.373,0.373,0.373,0.373,0.0,0.0,0.0,0.0,0.0,0.0,0.0,0.0,0.0,0.0,0.0,0.0,0.0
0.0,0.0,0.0,0.0,0.0,0.0,0.0,0.0,0.0,0.0,0.0,0.0,0.0,0.0,0.0,0.0,0.624,0.624,0.623,0.623,0.622,0.622,0.622,0.621,0.621,0.62,0.62,0.62,0.619,0.618,0.617,0.614,0.613,0.613,0.612,0.611,0.611,0.611,0.61,0.609,0.609,0.608,0.607,0.606,0.605,0.603,0.603,0.602,0.602,0.601,0.601,0.601,0.6,0.599,0.599,0.598,0.597,0.596,0.595,0.594,0.593,0.592,0.592,0.592,0.591,0.59,0.589,0.588,0.586,0.585,0.584,0.583,0.582,0.582,0.582,0.582,0.581,0.581,0.58,0.579,0.578,0.577,0.576,0.575,0.574,0.573,0.573,0.573,0.573,0.573,0.573,0.572,0.572,0.571,0.571,0.57,0.568,0.567,0.565,0.564,0.564,0.564,0.563,0.563,0.562,0.562,0.561,0.56,0.559,0.558,0.558,0.556,0.556,0.556,0.555,0.555,0.555,0.555,0.554,0.554,0.553,0.553,0.552,0.551,0.55,0.549,0.548,0.548,0.547,0.547,0.547,0.547,0.546,0.545,0.544,0.543,0.542,0.541,0.541,0.539,0.539,0.539,0.539,0.538,0.538,0.538,0.537,0.536,0.536,0.535,0.534,0.534,0.533,0.533,0.532,0.531,0.531,0.531,0.531,0.53,0.53,0.53,0.529,0.529,0.529,0.529,0.529,0.528,0.528,0.527,0.526,0.526,0.525,0.524,0.523,0.522,0.522,0.521,0.52,0.519,0.518,0.517,0.517,0.517,0.517,0.516,0.516,0.516,0.516,0.515,0.514,0.513,0.512,0.511,0.511,0.51,0.51,0.509,0.509,0.509,0.509,0.509,0.509,0.509,0.0,0.0,0.0,0.0,0.0,0.0,0.0,0.0,0.0,0.0,0.0,0.0,0.0,0.0,0.0,0.0,0.0,0.0,0.0,0.0,0.315,0.315,0.315,0.315,0.315,0.315,0.314,0.314,0.314,0.314,0.314,0.313,0.313,0.313,0.313,0.312,0.312,0.312,0.312,0.312,0.312,0.312,0.312,0.312,0.312,0.312,0.312,0.312,0.312,0.312,0.312,0.312,0.312,0.312,0.312,0.312,0.312,0.312,0.312,0.312,0.313,0.313,0.313,0.313,0.313,0.313,0.313,0.313,0.313,0.313,0.3135,0.314,0.314,0.314,0.314,0.314,0.315,0.315,0.315,0.315,0.315,0.315,0.315,0.315,0.315,0.315,0.316,0.316,0.316,0.317,0.317,0.317,0.317,0.318,0.318,0.318,0.318,0.318,0.3185,0.319,0.319,0.319,0.32,0.32,0.32,0.32,0.32,0.321,0.321,0.321,0.321,0.321,0.322,0.322,0.322,0.322,0.3225,0.323,0.323,0.323,0.323,0.323,0.323,0.323,0.323,0.323,0.3235,0.324,0.324,0.324,0.324,0.324,0.325,0.325,0.326,0.326,0.326,0.326,0.326,0.326,0.327,0.327,0.327,0.328,0.328,0.328,0.328,0.328625,0.329,0.329,0.329,0.329,0.33,0.33,0.331,0.331,0.332,0.332,0.333,0.0,0.33375,0.0,0.0,0.336,0.337,0.338,0.3385,0.339,0.34,0.341,0.342,0.343,0.344,0.3445,0.345,0.346,0.347,0.348,0.349,0.35,0.351,0.352,0.353,0.355,0.0,0.0,0.0,0.358,0.359,0.36,0.361,0.361625,0.362,0.362,0.363,0.364,0.365,0.365,0.366,0.366,0.367,0.368,0.3685,0.369,0.369,0.369,0.0,0.0,0.0,0.0,0.0,0.0,0.0,0.0,0.0,0.0,0.0,0.0,0.0,0.0,0.416,0.416,0.415,0.415,0.414,0.413,0.412,0.412,0.411,0.411,0.411,0.411,0.41,0.41,0.409,0.409,0.409,0.408,0.408,0.408,0.407,0.407,0.407,0.407,0.407,0.406,0.406,0.406,0.406,0.406,0.406,0.405,0.405,0.404,0.404,0.404,0.403,0.403,0.403,0.402,0.402,0.402,0.401,0.4,0.4,0.399,0.399,0.399,0.398,0.398,0.398,0.398,0.398,0.398,0.397,0.397,0.397,0.396,0.396,0.396,0.395,0.395,0.394,0.394,0.394,0.394,0.393,0.393,0.392,0.392,0.391,0.391,0.39,0.39,0.389,0.389,0.389,0.389,0.389,0.389,0.389,0.389,0.389,0.389,0.388,0.388,0.387,0.387,0.386,0.386,0.386,0.385,0.385,0.385,0.385,0.385,0.384,0.384,0.384,0.383,0.383,0.382,0.382,0.382,0.381,0.381,0.381,0.381,0.38,0.38,0.38,0.379,0.379,0.378,0.378,0.378,0.378,0.377,0.377,0.377,0.377,0.376,0.376,0.375,0.375,0.375,0.374,0.374,0.373,0.373,0.373,0.373,0.373,0.373,0.373,0.373,0.373,0.0,0.0,0.0,0.0,0.0,0.0,0.0,0.0,0.0,0.0,0.0,0.0,0.0
0.0,0.0,0.0,0.0,0.0,0.0,0.0,0.0,0.0,0.0,0.0,0.0,0.0,0.0,0.0,0.0,0.623,0.622,0.622,0.622,0.621,0.621,0.62,0.62,0.618,0.618,0.617,0.616,0.616,0.614,0.613,0.612,0.612,0.611,0.611,0.61,0.609,0.608,0.607,0.606,0.605,0.605,0.603,0.603,0.602,0.602,0.601,0.601,0.6,0.599,0.599,0.598,0.598,0.597,0.595,0.594,0.594,0.592,0.592,0.592,0.591,0.591,0.59,0.59,0.589,0.587,0.585,0.584,0.582,0.582,0.582,0.581,0.581,0.581,0.58,0.58,0.579,0.578,0.577,0.576,0.575,0.574,0.573,0.573,0.573,0.572,0.572,0.571,0.571,0.571,0.57,0.57,0.569,0.568,0.566,0.566,0.564,0.564,0.563,0.563,0.562,0.561,0.56,0.56,0.559,0.558,0.558,0.557,0.556,0.556,0.555,0.555,0.555,0.554,0.554,0.553,0.553,0.552,0.551,0.551,0.55,0.549,0.549,0.548,0.548,0.547,0.547,0.547,0.546,0.546,0.545,0.544,0.543,0.542,0.541,0.54,0.54,0.539,0.539,0.538,0.538,0.537,0.537,0.536,0.536,0.535,0.534,0.534,0.533,0.533,0.532,0.532,0.531,0.531,0.531,0.531,0.53,0.53,0.529,0.528,0.528,0.528,0.528,0.527,0.527,0.527,0.527,0.526,0.525,0.525,0.524,0.524,0.523,0.522,0.521,0.52,0.519,0.518,0.517,0.517,0.516,0.516,0.516,0.516,0.516,0.515,0.515,0.514,0.513,0.512,0.511,0.51,0.51,0.509,0.509,0.509,0.509,0.509,0.509,0.509,0.509,0.509,0.509,0.509,0.0,0.0,0.0,0.0,0.0,0.0,0.0,0.0,0.0,0.0,0.0,0.0,0.0,0.0,0.0,0.0,0.0,0.0,0.0,0.315,0.315,0.315,0.315,0.315,0.314,0.314,0.314,0.314,0.314,0.313,0.313,0.313,0.313,0.312,0.312,0.312,0.312,0.312,0.312,0.312,0.312,0.312,0.312,0.312,0.312,0.312,0.312,0.312,0.312,0.312,0.312,0.312,0.312,0.312,0.312,0.312,0.312,0.312,0.312,0.312,0.312,0.313,0.313,0.313,0.313,0.313,0.313,0.313,0.313,0.3135,0.314,0.314,0.314,0.314,0.314,0.315,0.315,0.315,0.315,0.315,0.315,0.315,0.315,0.315,0.315,0.316,0.316,0.316,0.316,0.317,0.317,0.317,0.318,0.318,0.318,0.318,0.318,0.3185,0.319,0.319,0.319,0.32,0.32,0.32,0.32,0.32,0.321,0.321,0.321,0.321,0.321,0.322,0.322,0.322,0.322,0.3225,0.323,0.323,0.323,0.323,0.323,0.323,0.323,0.323,0.323,0.3235,0.324,0.324,0.324,0.324,0.325,0.325,0.326,0.326,0.326,0.326,0.326,0.326,0.326,0.327,0.327,0.327,0.327,0.328,0.328,0.3285,0.329,0.329,0.329,0.329,0.33,0.33,0.33,0.331,0.331,0.332,0.332,0.332,0.333,0.3335,0.334,0.0,0.0,0.337,0.338,0.3385,0.339,0.339,0.34,0.341,0.34225000000000005,0.344,0.34425,0.345,0.345,0.346,0.348,0.349,0.34975,0.351,0.351,0.353,0.354,0.355,0.3555,0.356,0.358,0.359,0.359,0.36,0.361,0.362,0.362,0.362,0.363,0.364,0.365,0.366,0.366,0.367,0.368,0.3685,0.369,0.369,0.369,0.37,0.0,0.0,0.0,0.0,0.0,0.0,0.0,0.0,0.0,0.0,0.0,0.0,0.0,0.0,0.414,0.414,0.413,0.412,0.412,0.411,0.411,0.411,0.411,0.41,0.41,0.409,0.409,0.408,0.408,0.407,0.407,0.407,0.407,0.407,0.407,0.406,0.406,0.406,0.406,0.406,0.405,0.405,0.405,0.405,0.404,0.404,0.403,0.403,0.403,0.402,0.402,0.402,0.402,0.401,0.4,0.4,0.399,0.399,0.398,0.398,0.398,0.398,0.398,0.398,0.397,0.397,0.397,0.396,0.396,0.395,0.395,0.395,0.394,0.394,0.394,0.394,0.394,0.393,0.393,0.393,0.392,0.391,0.391,0.39,0.39,0.389,0.389,0.389,0.389,0.389,0.389,0.388,0.388,0.388,0.388,0.388,0.387,0.387,0.386,0.386,0.386,0.385,0.385,0.385,0.385,0.385,0.385,0.384,0.384,0.383,0.383,0.382,0.382,0.382,0.382,0.381,0.381,0.381,0.381,0.381,0.38,0.38,0.379,0.379,0.378,0.378,0.378,0.377,0.377,0.377,0.377,0.377,0.376,0.376,0.375,0.375,0.374,0.374,0.374,0.374,0.373,0.373,0.373,0.373,0.373,0.373,0.372,0.372,0.372,0.372,0.372,0.0,0.0,0.0,0.0,0.0,0.0,0.0,0.0,0.0,0.0,0.0,0.0,0.0
0.0,0.0,0.0,0.0,0.0,0.0,0.0,0.0,0.0,0.0,0.0,0.0,0.0,0.0,0.0,0.0,0.0,0.0,0.62,0.62,0.619,0.618,0.617,0.616,0.615,0.615,0.614,0.613,0.613,0.612,0.612,0.611,0.611,0.61,0.609,0.608,0.606,0.605,0.604,0.603,0.603,0.602,0.601,0.601,0.601,0.601,0.6,0.599,0.598,0.597,0.596,0.595,0.594,0.593,0.592,0.592,0.592,0.591,0.591,0.59,0.59,0.588,0.587,0.586,0.584,0.584,0.583,0.582,0.581,0.58,0.58,0.579,0.579,0.578,0.577,0.576,0.575,0.575,0.574,0.574,0.573,0.573,0.572,0.572,0.571,0.57,0.57,0.569,0.568,0.567,0.566,0.566,0.565,0.565,0.565,0.564,0.563,0.562,0.561,0.56,0.559,0.558,0.557,0.557,0.556,0.556,0.556,0.555,0.555,0.554,0.554,0.553,0.552,0.551,0.551,0.55,0.549,0.549,0.549,0.548,0.548,0.548,0.547,0.547,0.547,0.546,0.545,0.545,0.544,0.543,0.542,0.541,0.54,0.54,0.539,0.538,0.538,0.537,0.536,0.536,0.535,0.534,0.534,0.533,0.533,0.532,0.532,0.532,0.531,0.531,0.531,0.53,0.53,0.53,0.529,0.529,0.528,0.527,0.527,0.526,0.526,0.526,0.526,0.525,0.525,0.525,0.524,0.524,0.523,0.523,0.522,0.521,0.519,0.519,0.518,0.517,0.516,0.516,0.516,0.516,0.515,0.515,0.515,0.514,0.513,0.512,0.511,0.511,0.51,0.509,0.509,0.509,0.509,0.508,0.508,0.508,0.508,0.508,0.508,0.508,0.508,0.508,0.508,0.0,0.0,0.0,0.0,0.0,0.0,0.0,0.0,0.0,0.0,0.0,0.0,0.0,0.0,0.0,0.0,0.0,0.0,0.0,0.315,0.315,0.315,0.315,0.314,0.315,0.314,0.314,0.314,0.314,0.313,0.313,0.313,0.312,0.312,0.312,0.312,0.312,0.312,0.312,0.311,0.311,0.311,0.311,0.311,0.311,0.312,0.311,0.311,0.311,0.311,0.311,0.311,0.312,0.312,0.312,0.312,0.312,0.312,0.312,0.312,0.312,0.312,0.313,0.313,0.313,0.313,0.313,0.313,0.313,0.3135,0.314,0.314,0.314,0.314,0.314,0.314,0.315,0.315,0.315,0.315,0.315,0.315,0.315,0.315,0.315,0.316,0.316,0.316,0.316,0.317,0.317,0.317,0.317,0.318,0.318,0.318,0.318,0.318,0.318625,0.319,0.319,0.32,0.32,0.32,0.32,0.32,0.321,0.321,0.321,0.321,0.321,0.322,0.322,0.322,0.322,0.3225,0.323,0.323,0.323,0.323,0.323,0.323,0.323,0.323,0.323,0.324,0.324,0.324,0.324,0.324,0.325,0.325,0.325,0.326,0.326,0.326,0.326,0.326,0.327,0.327,0.327,0.327,0.328,0.328,0.328,0.3285,0.329,0.329,0.329,0.329,0.329,0.33,0.33,0.33,0.331,0.332,0.332,0.333,0.333,0.3335,0.334,0.335,0.335,0.336,0.337,0.338,0.338625,0.339,0.34,0.341,0.342,0.342,0.34299999999999997,0.344,0.345,0.346,0.347,0.348,0.349,0.35,0.351,0.352,0.354,0.355,0.3554999999999999,0.356,0.358,0.358,0.359,0.36,0.361,0.36150000000000004,0.362,0.362,0.363,0.364,0.365,0.365,0.366,0.366,0.367,0.368,0.3685,0.369,0.0,0.0,0.0,0.0,0.0,0.0,0.0,0.0,0.0,0.0,0.0,0.0,0.0,0.0,0.0,0.0,0.0,0.412,0.411,0.411,0.411,0.411,0.41,0.41,0.41,0.409,0.409,0.408,0.408,0.407,0.407,0.407,0.407,0.406,0.406,0.406,0.406,0.405,0.405,0.405,0.405,0.404,0.404,0.404,0.404,0.403,0.403,0.403,0.403,0.402,0.402,0.402,0.402,0.401,0.401,0.4,0.4,0.399,0.399,0.398,0.398,0.398,0.398,0.397,0.397,0.397,0.397,0.396,0.396,0.395,0.395,0.394,0.394,0.394,0.394,0.393,0.393,0.393,0.393,0.393,0.393,0.393,0.391,0.391,0.39,0.39,0.389,0.389,0.389,0.389,0.388,0.388,0.388,0.387,0.387,0.387,0.386,0.386,0.386,0.386,0.385,0.385,0.385,0.385,0.385,0.384,0.384,0.383,0.383,0.383,0.382,0.382,0.382,0.381,0.381,0.381,0.381,0.381,0.381,0.38,0.38,0.38,0.379,0.379,0.378,0.378,0.377,0.377,0.377,0.377,0.377,0.377,0.376,0.376,0.375,0.375,0.374,0.374,0.374,0.373,0.373,0.373,0.373,0.373,0.373,0.372,0.372,0.371,0.371,0.371,0.371,0.371,0.371,0.0,0.0,0.0,0.0,0.0,0.0,0.0,0.0,0.0,0.0,0.0,0.0,0.0,0.0
0.0,0.0,0.0,0.0,0.0,0.0,0.0,0.0,0.0,0.0,0.0,0.0,0.0,0.0,0.0,0.0,0.0,0.0,0.0,0.0,0.616,0.616,0.615,0.614,0.613,0.612,0.612,0.612,0.612,0.611,0.611,0.61,0.609,0.607,0.605,0.604,0.603,0.602,0.602,0.601,0.601,0.601,0.6,0.6,0.599,0.598,0.597,0.596,0.594,0.593,0.593,0.592,0.592,0.592,0.591,0.591,0.591,0.59,0.589,0.588,0.586,0.585,0.584,0.583,0.582,0.581,0.581,0.58,0.579,0.577,0.576,0.575,0.575,0.574,0.574,0.574,0.573,0.573,0.573,0.572,0.571,0.571,0.57,0.569,0.568,0.566,0.566,0.565,0.565,0.565,0.564,0.564,0.563,0.563,0.562,0.561,0.56,0.559,0.558,0.557,0.556,0.556,0.556,0.555,0.555,0.555,0.554,0.554,0.553,0.552,0.551,0.55,0.549,0.549,0.548,0.548,0.548,0.547,0.547,0.547,0.547,0.546,0.546,0.545,0.544,0.543,0.543,0.542,0.541,0.54,0.54,0.539,0.539,0.539,0.537,0.536,0.535,0.535,0.534,0.533,0.533,0.532,0.532,0.531,0.531,0.531,0.531,0.531,0.53,0.53,0.529,0.528,0.528,0.527,0.527,0.526,0.526,0.526,0.525,0.525,0.525,0.525,0.524,0.524,0.524,0.523,0.523,0.523,0.521,0.519,0.519,0.517,0.517,0.516,0.516,0.516,0.515,0.515,0.514,0.514,0.512,0.512,0.511,0.511,0.51,0.51,0.509,0.509,0.509,0.508,0.508,0.508,0.507,0.507,0.507,0.506,0.506,0.506,0.507,0.507,0.507,0.0,0.0,0.0,0.0,0.0,0.0,0.0,0.0,0.0,0.0,0.0,0.0,0.0,0.0,0.0,0.0,0.0,0.0,0.0,0.0,0.315,0.315,0.315,0.315,0.315,0.315,0.314,0.314,0.314,0.314,0.313,0.313,0.312,0.312,0.312,0.312,0.312,0.311,0.311,0.311,0.311,0.311,0.311,0.311,0.311,0.311,0.311,0.311,0.311,0.311,0.311,0.311,0.311,0.311,0.311,0.312,0.312,0.312,0.312,0.312,0.312,0.312,0.312,0.312,0.313,0.313,0.313,0.313,0.313,0.313,0.3135,0.314,0.314,0.314,0.314,0.314,0.314,0.315,0.315,0.315,0.315,0.315,0.315,0.315,0.315,0.315,0.316,0.316,0.316,0.316,0.317,0.317,0.317,0.317,0.3175,0.318,0.318,0.318,0.318,0.3185,0.319,0.319,0.32,0.32,0.32,0.32,0.32,0.321,0.321,0.321,0.321,0.321,0.322,0.322,0.322,0.322,0.322,0.322625,0.323,0.323,0.323,0.323,0.323,0.323,0.323,0.324,0.324,0.324,0.324,0.324,0.324,0.325,0.325,0.326,0.326,0.326,0.326,0.326,0.326,0.327,0.327,0.327,0.327,0.328,0.328,0.328,0.328,0.328625,0.329,0.329,0.329,0.329,0.33,0.33,0.331,0.331,0.332,0.332,0.333,0.333,0.3335,0.334,0.335,0.335,0.336,0.336,0.338,0.3385,0.339,0.34,0.341,0.341,0.342,0.343,0.34375,0.345,0.345,0.346,0.348,0.349,0.34975,0.351,0.352,0.354,0.355,0.35575,0.356,0.358,0.359,0.359,0.36,0.361,0.3615,0.362,0.362,0.362,0.363,0.364,0.365,0.366,0.366,0.367,0.368,0.0,0.0,0.0,0.0,0.0,0.0,0.0,0.0,0.0,0.0,0.0,0.0,0.0,0.0,0.0,0.0,0.0,0.41,0.41,0.41,0.41,0.41,0.41,0.409,0.409,0.409,0.408,0.408,0.407,0.407,0.407,0.407,0.406,0.406,0.406,0.406,0.406,0.405,0.405,0.404,0.404,0.404,0.403,0.403,0.403,0.403,0.402,0.402,0.402,0.402,0.402,0.402,0.402,0.402,0.401,0.401,0.4,0.4,0.399,0.399,0.398,0.398,0.398,0.398,0.397,0.397,0.397,0.396,0.395,0.394,0.394,0.394,0.394,0.393,0.393,0.393,0.393,0.393,0.393,0.393,0.393,0.392,0.392,0.391,0.39,0.39,0.389,0.3895,0.389125,0.389,0.388,0.388,0.388,0.387,0.386,0.386,0.386,0.386,0.385,0.385,0.385,0.385,0.385,0.0,0.3835,0.383125,0.383,0.382,0.382,0.382,0.382,0.382,0.381,0.381,0.381,0.381,0.381,0.381,0.38,0.38,0.38,0.379,0.379,0.378,0.378,0.378,0.377,0.377,0.377,0.377,0.377,0.377,0.376,0.376,0.376,0.375,0.374,0.374,0.373,0.373,0.373,0.373,0.373,0.373,0.373,0.373,0.372,0.372,0.371,0.371,0.37,0.37,0.37,0.0,0.0,0.0,0.0,0.0,0.0,0.0,0.0,0.0,0.0,0.0,0.0,0.0,0.0,0.0,0.0,0.0
0.0,0.0,0.0,0.0,0.0,0.0,0.0,0.0,0.0,0.0,0.0,0.0,0.0,0.0,0.0,0.0,0.0,0.0,0.0,0.0,0.614,0.613,0.612,0.612,0.612,0.611,0.611,0.611,0.61,0.609,0.608,0.607,0.605,0.604,0.603,0.602,0.601,0.601,0.6,0.599,0.599,0.598,0.598,0.597,0.596,0.594,0.593,0.593,0.592,0.592,0.591,0.591,0.591,0.59,0.589,0.588,0.587,0.586,0.585,0.584,0.584,0.582,0.582,0.581,0.58,0.579,0.577,0.576,0.575,0.574,0.574,0.573,0.573,0.573,0.573,0.572,0.572,0.571,0.57,0.569,0.568,0.567,0.566,0.565,0.565,0.565,0.564,0.564,0.563,0.563,0.562,0.561,0.561,0.56,0.559,0.558,0.557,0.556,0.556,0.556,0.555,0.555,0.555,0.554,0.553,0.552,0.551,0.55,0.549,0.549,0.548,0.548,0.547,0.547,0.547,0.547,0.547,0.546,0.546,0.545,0.544,0.544,0.543,0.542,0.542,0.541,0.541,0.54,0.539,0.539,0.539,0.538,0.537,0.536,0.535,0.534,0.533,0.532,0.532,0.531,0.531,0.531,0.531,0.53,0.53,0.529,0.528,0.528,0.528,0.527,0.526,0.526,0.525,0.525,0.525,0.525,0.525,0.524,0.524,0.524,0.524,0.523,0.523,0.523,0.523,0.521,0.519,0.0,0.0,0.516,0.516,0.516,0.515,0.515,0.514,0.514,0.512,0.511,0.511,0.511,0.51,0.51,0.509,0.509,0.509,0.509,0.508,0.508,0.507,0.507,0.506,0.505,0.505,0.504,0.504,0.504,0.5045,0.505,0.505,0.505,0.506,0.0,0.0,0.0,0.0,0.0,0.0,0.0,0.0,0.0,0.0,0.0,0.0,0.0,0.0,0.0,0.0,0.0,0.0,0.0,0.0,0.315,0.315,0.315,0.315,0.314,0.314,0.314,0.314,0.314,0.313,0.313,0.312,0.312,0.312,0.312,0.312,0.311,0.311,0.311,0.31,0.31,0.31,0.31,0.311,0.311,0.31,0.311,0.311,0.311,0.311,0.311,0.311,0.311,0.311,0.311,0.311,0.311,0.312,0.312,0.312,0.312,0.312,0.312,0.312,0.313,0.313,0.313,0.313,0.313,0.3135,0.314,0.314,0.314,0.314,0.314,0.314,0.315,0.315,0.315,0.315,0.315,0.315,0.315,0.315,0.315,0.316,0.316,0.316,0.316,0.317,0.317,0.317,0.317,0.3175,0.318,0.318,0.318,0.318,0.3185,0.319,0.319,0.319,0.32,0.32,0.32,0.32,0.32,0.321,0.321,0.321,0.321,0.321,0.322,0.322,0.322,0.3225,0.323,0.323,0.323,0.323,0.323,0.323,0.323,0.324,0.324,0.324,0.324,0.324,0.324,0.325,0.325,0.325,0.326,0.326,0.326,0.326,0.326,0.327,0.327,0.327,0.327,0.327,0.3275,0.328,0.328,0.3285,0.329,0.329,0.329,0.329,0.329,0.33,0.33,0.331,0.331,0.332,0.332,0.332,0.333,0.3335,0.334,0.335,0.335,0.335,0.336,0.337,0.338,0.3385,0.339,0.34,0.341,0.342,0.342,0.34299999999999997,0.344,0.345,0.345,0.346,0.348,0.349,0.35,0.352,0.353,0.355,0.35574999999999996,0.357,0.358,0.359,0.359,0.36,0.361,0.361,0.361625,0.362,0.362,0.363,0.364,0.365,0.366,0.366,0.367,0.36774999999999997,0.369,0.0,0.0,0.0,0.0,0.0,0.0,0.0,0.0,0.0,0.0,0.0,0.0,0.0,0.0,0.0,0.0,0.0,0.408,0.408,0.408,0.408,0.408,0.408,0.408,0.408,0.407,0.407,0.407,0.407,0.406,0.406,0.406,0.406,0.406,0.404,0.404,0.404,0.404,0.403,0.403,0.403,0.402,0.402,0.402,0.402,0.402,0.402,0.402,0.402,0.402,0.402,0.401,0.401,0.401,0.4,0.4,0.399,0.399,0.398,0.398,0.398,0.398,0.397,0.397,0.397,0.395,0.394,0.394,0.394,0.0,0.3935,0.393,0.393,0.393,0.393,0.392,0.392,0.392,0.392,0.391,0.391,0.391,0.39,0.39,0.389,0.389,0.389,0.389,0.388,0.388,0.386,0.386,0.386,0.386,0.385,0.385,0.385,0.385,0.385,0.385,0.385,0.384,0.384,0.383,0.382,0.381,0.381,0.381,0.381,0.381,0.381,0.381,0.381,0.38,0.38,0.38,0.379,0.379,0.379,0.378,0.378,0.378,0.377,0.377,0.377,0.377,0.377,0.377,0.376,0.376,0.376,0.376,0.375,0.374,0.374,0.373,0.373,0.373,0.373,0.373,0.373,0.373,0.373,0.372,0.372,0.372,0.371,0.37,0.37,0.37,0.37,0.369,0.369,0.0,0.0,0.0,0.0,0.0,0.0,0.0,0.0,0.0,0.0,0.0,0.0,0.0,0.0,0.0,0.0,0.0
0.0,0.0,0.0,0.0,0.0,0.0,0.0,0.0,0.0,0.0,0.0,0.0,0.0,0.0,0.0,0.0,0.0,0.0,0.0,0.0,0.612,0.612,0.611,0.611,0.611,0.611,0.61,0.609,0.608,0.607,0.605,0.604,0.602,0.602,0.601,0.599,0.599,0.598,0.597,0.596,0.595,0.594,0.593,0.593,0.592,0.592,0.592,0.591,0.591,0.589,0.589,0.589,0.588,0.587,0.586,0.585,0.584,0.583,0.583,0.582,0.582,0.581,0.579,0.577,0.576,0.575,0.574,0.573,0.573,0.573,0.572,0.572,0.571,0.571,0.57,0.569,0.568,0.567,0.566,0.565,0.565,0.564,0.564,0.564,0.564,0.563,0.563,0.562,0.561,0.559,0.559,0.558,0.557,0.557,0.556,0.556,0.556,0.555,0.555,0.554,0.554,0.552,0.551,0.551,0.549,0.549,0.548,0.548,0.548,0.547,0.547,0.547,0.547,0.546,0.546,0.544,0.544,0.543,0.543,0.543,0.542,0.542,0.541,0.54,0.54,0.54,0.539,0.539,0.538,0.538,0.536,0.535,0.534,0.533,0.532,0.532,0.531,0.531,0.531,0.53,0.53,0.529,0.528,0.527,0.527,0.526,0.526,0.526,0.525,0.525,0.525,0.524,0.524,0.524,0.524,0.524,0.523,0.523,0.523,0.523,0.523,0.522,0.522,0.52,0.518,0.518,0.517,0.0,0.0,0.515,0.514,0.513,0.512,0.511,0.511,0.51,0.51,0.509,0.509,0.509,0.509,0.509,0.508,0.508,0.507,0.507,0.506,0.505,0.505,0.503,0.503,0.503,0.503,0.502,0.503,0.502,0.503,0.503,0.0,0.0,0.0,0.0,0.0,0.0,0.0,0.0,0.0,0.0,0.0,0.0,0.0,0.0,0.0,0.0,0.0,0.0,0.0,0.0,0.0,0.315,0.315,0.315,0.315,0.315,0.314,0.314,0.314,0.314,0.313,0.313,0.313,0.312,0.312,0.312,0.312,0.311,0.311,0.311,0.31,0.31,0.31,0.31,0.31,0.31,0.31,0.31,0.31,0.31,0.31,0.311,0.311,0.311,0.311,0.311,0.311,0.311,0.311,0.311,0.311,0.312,0.312,0.312,0.312,0.312,0.312,0.313,0.313,0.313,0.313,0.3135,0.314,0.314,0.314,0.314,0.314,0.314,0.315,0.315,0.315,0.315,0.315,0.315,0.315,0.315,0.315,0.316,0.316,0.316,0.317,0.317,0.317,0.317,0.317,0.3175,0.318,0.318,0.318,0.318,0.318,0.318625,0.319,0.319,0.32,0.32,0.32,0.32,0.32,0.321,0.321,0.321,0.321,0.321,0.322,0.322,0.322,0.3225,0.323,0.323,0.323,0.323,0.323,0.323,0.323,0.323,0.324,0.324,0.324,0.324,0.324,0.325,0.325,0.325,0.326,0.326,0.326,0.326,0.326,0.327,0.327,0.327,0.327,0.3275,0.328,0.328,0.328,0.329,0.329,0.329,0.329,0.329,0.329,0.33,0.33,0.331,0.331,0.332,0.332,0.332,0.333,0.3335,0.334,0.335,0.335,0.335,0.336,0.336,0.337,0.338,0.338625,0.339,0.341,0.341,0.342,0.343,0.3435,0.344,0.345,0.346,0.347,0.349,0.35,0.351,0.353,0.355,0.3555,0.356,0.358,0.359,0.359,0.36,0.361,0.36150000000000004,0.362,0.362,0.362,0.362,0.363,0.364,0.365,0.366,0.366,0.36724999999999997,0.368,0.369,0.369,0.0,0.0,0.0,0.0,0.0,0.0,0.0,0.0,0.0,0.0,0.0,0.0,0.0,0.0,0.0,0.407,0.407,0.407,0.407,0.407,0.407,0.407,0.407,0.407,0.406,0.406,0.406,0.406,0.406,0.405,0.404,0.404,0.403,0.403,0.403,0.402,0.402,0.402,0.402,0.402,0.402,0.402,0.402,0.401,0.401,0.401,0.401,0.401,0.401,0.401,0.4,0.4,0.399,0.399,0.399,0.399,0.398,0.398,0.398,0.397,0.397,0.397,0.396,0.394,0.394,0.394,0.393,0.393,0.393,0.393,0.392,0.392,0.391,0.391,0.391,0.391,0.39,0.39,0.39,0.389,0.389,0.389,0.389,0.389,0.388,0.388,0.387,0.387,0.386,0.385,0.385,0.385,0.385,0.385,0.385,0.385,0.384,0.384,0.384,0.383,0.382,0.381,0.381,0.381,0.381,0.38,0.38,0.38,0.38,0.38,0.379,0.379,0.379,0.378,0.378,0.378,0.378,0.377,0.377,0.377,0.377,0.377,0.377,0.376,0.376,0.376,0.376,0.376,0.375,0.374,0.374,0.373,0.373,0.373,0.373,0.373,0.372,0.372,0.372,0.372,0.371,0.371,0.371,0.37,0.37,0.37,0.37,0.369,0.369,0.369,0.369,0.369,0.369,0.369,0.368,0.0,0.0,0.0,0.0,0.0,0.0,0.0,0.0,0.0,0.0,0.0,0.0,0.0,0.0
0.0,0.0,0.0,0.0,0.0,0.0,0.0,0.0,0.0,0.0,0.0,0.0,0.0,0.0,0.0,0.0,0.0,0.0,0.0,0.0,0.611,0.611,0.61,0.61,0.61,0.609,0.608,0.607,0.606,0.604,0.602,0.602,0.601,0.599,0.598,0.596,0.595,0.594,0.593,0.593,0.592,0.592,0.592,0.591,0.59,0.59,0.588,0.587,0.586,0.585,0.585,0.585,0.584,0.583,0.583,0.0,0.0,0.582,0.581,0.58,0.578,0.577,0.575,0.574,0.573,0.573,0.573,0.572,0.571,0.571,0.57,0.568,0.568,0.567,0.566,0.565,0.565,0.565,0.564,0.564,0.563,0.563,0.563,0.562,0.561,0.56,0.559,0.558,0.557,0.557,0.556,0.556,0.556,0.555,0.555,0.555,0.554,0.553,0.553,0.551,0.55,0.549,0.549,0.548,0.548,0.547,0.547,0.547,0.546,0.546,0.546,0.545,0.543,0.543,0.542,0.542,0.541,0.541,0.54,0.54,0.54,0.54,0.539,0.539,0.539,0.539,0.538,0.537,0.535,0.534,0.533,0.532,0.532,0.531,0.531,0.531,0.53,0.53,0.529,0.528,0.527,0.526,0.525,0.525,0.525,0.524,0.524,0.524,0.524,0.524,0.523,0.523,0.523,0.523,0.523,0.523,0.523,0.523,0.522,0.522,0.522,0.519,0.518,0.517,0.516,0.516,0.515,0.514,0.514,0.512,0.51,0.51,0.51,0.509,0.509,0.509,0.509,0.508,0.508,0.508,0.507,0.507,0.506,0.505,0.504,0.504,0.503,0.502,0.502,0.502,0.502,0.502,0.501,0.501,0.501,0.501,0.501,0.0,0.0,0.0,0.0,0.0,0.0,0.0,0.0,0.0,0.0,0.0,0.0,0.0,0.0,0.0,0.0,0.0,0.0,0.0,0.0,0.0,0.315,0.315,0.315,0.315,0.315,0.314,0.314,0.314,0.314,0.313,0.313,0.313,0.312,0.312,0.312,0.311,0.311,0.311,0.31,0.31,0.31,0.31,0.31,0.31,0.31,0.31,0.31,0.31,0.31,0.31,0.31,0.31,0.31,0.31,0.311,0.311,0.311,0.311,0.311,0.311,0.311,0.311,0.312,0.312,0.312,0.312,0.312,0.313,0.313,0.313,0.3135,0.314,0.314,0.314,0.314,0.314,0.315,0.315,0.315,0.315,0.315,0.315,0.315,0.315,0.315,0.315,0.315,0.316,0.316,0.316,0.317,0.317,0.317,0.317,0.317,0.317625,0.318,0.318,0.318,0.318,0.3185,0.319,0.319,0.319,0.32,0.32,0.32,0.32,0.32,0.321,0.321,0.321,0.321,0.322,0.322,0.322,0.3225,0.323,0.323,0.323,0.323,0.323,0.323,0.323,0.324,0.324,0.324,0.324,0.324,0.325,0.325,0.325,0.326,0.326,0.326,0.326,0.326,0.326,0.327,0.327,0.327,0.327,0.3275,0.328,0.328,0.328,0.329,0.329,0.329,0.329,0.329,0.33,0.33,0.33,0.331,0.331,0.332,0.332,0.332,0.333,0.333,0.333625,0.334,0.335,0.335,0.336,0.336,0.337,0.338,0.3385,0.339,0.34,0.341,0.342,0.343,0.34375,0.344,0.345,0.345,0.347,0.348,0.0,0.0,0.0,0.0,0.0,0.35624999999999996,0.358,0.359,0.36,0.361,0.361,0.36150000000000004,0.362,0.362,0.362,0.363,0.363,0.364,0.365,0.366,0.367,0.36724999999999997,0.368,0.369,0.369,0.37,0.0,0.0,0.0,0.0,0.0,0.0,0.0,0.0,0.0,0.0,0.0,0.0,0.0,0.0,0.0,0.406,0.406,0.406,0.406,0.406,0.406,0.406,0.406,0.406,0.406,0.405,0.405,0.404,0.404,0.403,0.403,0.403,0.402,0.402,0.402,0.402,0.402,0.402,0.401,0.401,0.401,0.401,0.4,0.4,0.4,0.4,0.4,0.399,0.399,0.399,0.399,0.399,0.399,0.398,0.398,0.398,0.398,0.398,0.397,0.397,0.397,0.396,0.394,0.393,0.393,0.393,0.392,0.392,0.392,0.391,0.391,0.39,0.39,0.39,0.39,0.389,0.389,0.389,0.389,0.389,0.389,0.388,0.388,0.387,0.387,0.386,0.385,0.385,0.385,0.385,0.385,0.385,0.385,0.384,0.384,0.384,0.383,0.383,0.382,0.381,0.381,0.381,0.38,0.38,0.379,0.379,0.378,0.378,0.378,0.378,0.377,0.377,0.377,0.377,0.377,0.377,0.377,0.377,0.377,0.377,0.376,0.376,0.376,0.376,0.376,0.375,0.375,0.374,0.374,0.373,0.373,0.373,0.373,0.372,0.372,0.371,0.371,0.371,0.37,0.37,0.37,0.37,0.369,0.369,0.369,0.369,0.369,0.369,0.368,0.368,0.368,0.368,0.368,0.367,0.367,0.0,0.0,0.0,0.0,0.0,0.0,0.0,0.0,0.0,0.0,0.0,0.0,0.0,0.0
0.0,0.0,0.0,0.0,0.0,0.0,0.0,0.0,0.0,0.0,0.0,0.0,0.0,0.0,0.0,0.0,0.0,0.0,0.0,0.61,0.61,0.61,0.609,0.609,0.609,0.608,0.606,0.604,0.603,0.602,0.601,0.598,0.597,0.595,0.593,0.592,0.592,0.592,0.592,0.591,0.59,0.59,0.587,0.586,0.586,0.585,0.584,0.583,0.583,0.583,0.582,0.582,0.582,0.581,0.0,0.0,0.0,0.577,0.576,0.576,0.575,0.574,0.573,0.573,0.572,0.571,0.571,0.57,0.567,0.566,0.566,0.565,0.565,0.565,0.564,0.564,0.563,0.563,0.562,0.562,0.561,0.56,0.559,0.558,0.558,0.557,0.556,0.556,0.556,0.555,0.555,0.555,0.554,0.554,0.553,0.552,0.55,0.549,0.549,0.548,0.548,0.547,0.547,0.547,0.546,0.546,0.545,0.544,0.543,0.542,0.541,0.541,0.54,0.54,0.54,0.54,0.539,0.539,0.539,0.539,0.539,0.539,0.538,0.538,0.538,0.537,0.535,0.534,0.533,0.532,0.532,0.531,0.531,0.531,0.53,0.529,0.528,0.527,0.526,0.525,0.525,0.524,0.524,0.524,0.523,0.523,0.523,0.523,0.523,0.523,0.523,0.522,0.522,0.522,0.522,0.522,0.521,0.521,0.519,0.519,0.518,0.517,0.516,0.516,0.514,0.513,0.511,0.51,0.509,0.509,0.509,0.509,0.509,0.508,0.508,0.507,0.507,0.506,0.505,0.505,0.504,0.504,0.503,0.502,0.502,0.502,0.502,0.501,0.501,0.5,0.5,0.5,0.499,0.499,0.499,0.499,0.0,0.0,0.0,0.499,0.0,0.0,0.0,0.0,0.0,0.0,0.0,0.0,0.0,0.0,0.0,0.0,0.0,0.0,0.0,0.0,0.0,0.0,0.315,0.315,0.315,0.315,0.314,0.314,0.314,0.314,0.313,0.313,0.312,0.312,0.312,0.312,0.311,0.311,0.31,0.31,0.31,0.31,0.31,0.31,0.31,0.309,0.31,0.31,0.31,0.31,0.31,0.31,0.31,0.31,0.31,0.31,0.31,0.31,0.31,0.311,0.311,0.311,0.311,0.311,0.312,0.312,0.312,0.312,0.312,0.313,0.313,0.313,0.313625,0.314,0.314,0.314,0.314,0.315,0.315,0.315,0.315,0.315,0.315,0.315,0.315,0.315,0.315,0.315,0.316,0.316,0.316,0.317,0.317,0.317,0.317,0.3175,0.318,0.318,0.318,0.318,0.318,0.3185,0.319,0.319,0.319,0.32,0.32,0.32,0.32,0.321,0.321,0.321,0.321,0.321,0.321,0.322,0.322,0.3225,0.323,0.323,0.323,0.323,0.323,0.323,0.324,0.324,0.324,0.324,0.324,0.324,0.325,0.325,0.325,0.326,0.326,0.326,0.326,0.326,0.326,0.327,0.327,0.327,0.327,0.3275,0.328,0.328,0.328,0.329,0.329,0.329,0.329,0.329,0.33,0.33,0.33,0.331,0.331,0.332,0.332,0.332,0.333,0.333,0.3335,0.334,0.335,0.335,0.336,0.336,0.337,0.338,0.338,0.33875,0.0,0.0,0.0,0.0,0.344,0.345,0.345,0.346,0.0,0.0,0.0,0.0,0.0,0.0,0.0,0.0,0.357,0.358,0.36,0.3605,0.361,0.362,0.362,0.362,0.362,0.363,0.364,0.364,0.365,0.366,0.366,0.36724999999999997,0.368,0.369,0.369,0.371,0.372,0.373,0.0,0.0,0.0,0.0,0.0,0.0,0.0,0.0,0.0,0.0,0.0,0.0,0.0,0.406,0.405,0.406,0.406,0.406,0.406,0.405,0.405,0.405,0.404,0.404,0.403,0.403,0.403,0.402,0.402,0.402,0.402,0.402,0.402,0.401,0.401,0.401,0.401,0.4,0.4,0.4,0.399,0.399,0.399,0.399,0.399,0.399,0.398,0.398,0.398,0.398,0.398,0.398,0.398,0.398,0.398,0.397,0.397,0.397,0.394,0.394,0.393,0.393,0.393,0.392,0.391,0.391,0.39,0.39,0.389,0.389,0.389,0.389,0.389,0.389,0.389,0.388,0.388,0.388,0.388,0.388,0.387,0.386,0.386,0.385,0.385,0.385,0.385,0.385,0.384,0.384,0.384,0.384,0.383,0.383,0.382,0.382,0.381,0.381,0.381,0.38,0.38,0.379,0.378,0.378,0.378,0.377,0.377,0.377,0.377,0.377,0.377,0.377,0.377,0.377,0.376,0.376,0.376,0.376,0.376,0.375,0.375,0.374,0.374,0.374,0.374,0.373,0.373,0.373,0.373,0.372,0.372,0.371,0.371,0.37,0.37,0.37,0.369,0.369,0.369,0.369,0.369,0.369,0.369,0.368,0.368,0.368,0.367,0.367,0.367,0.367,0.367,0.366,0.366,0.366,0.0,0.0,0.0,0.0,0.0,0.0,0.0,0.0,0.0,0.0,0.0,0.0,0.0,0.0
0.0,0.0,0.0,0.0,0.0,0.0,0.0,0.0,0.0,0.0,0.0,0.0,0.0,0.0,0.0,0.0,0.0,0.0,0.0,0.61,0.61,0.609,0.608,0.607,0.606,0.603,0.602,0.602,0.601,0.598,0.596,0.59475,0.593,0.592,0.592,0.591,0.591,0.59,0.59,0.588,0.586,0.585,0.584,0.583,0.583,0.582,0.582,0.582,0.581,0.581,0.581,0.581,0.579,0.579,0.0,0.0,0.575,0.574,0.573,0.573,0.573,0.573,0.572,0.571,0.57,0.568,0.566,0.566,0.565,0.565,0.564,0.564,0.564,0.563,0.563,0.562,0.561,0.561,0.559,0.558,0.557,0.556,0.556,0.556,0.556,0.555,0.555,0.555,0.554,0.553,0.552,0.552,0.551,0.549,0.549,0.548,0.548,0.548,0.547,0.547,0.547,0.546,0.546,0.545,0.544,0.543,0.541,0.54,0.54,0.54,0.539,0.539,0.539,0.539,0.539,0.538,0.538,0.538,0.538,0.537,0.537,0.537,0.536,0.536,0.534,0.534,0.533,0.532,0.531,0.531,0.531,0.53,0.529,0.529,0.528,0.527,0.525,0.525,0.524,0.524,0.523,0.523,0.523,0.523,0.522,0.522,0.522,0.522,0.522,0.521,0.521,0.521,0.521,0.521,0.52,0.519,0.519,0.518,0.517,0.516,0.516,0.515,0.514,0.513,0.511,0.509,0.509,0.509,0.508,0.507,0.507,0.506,0.507,0.506,0.505,0.505,0.504,0.503,0.503,0.503,0.502,0.502,0.501,0.501,0.5,0.5,0.5,0.499,0.499,0.498,0.497,0.497,0.497,0.496,0.496,0.496,0.0,0.0,0.0,0.0,0.0,0.0,0.0,0.0,0.0,0.0,0.0,0.0,0.0,0.0,0.0,0.0,0.0,0.0,0.0,0.0,0.0,0.315,0.315,0.315,0.315,0.314,0.314,0.314,0.314,0.313,0.313,0.312,0.312,0.312,0.312,0.311,0.311,0.31,0.31,0.31,0.31,0.31,0.309,0.309,0.309,0.309,0.309,0.309,0.31,0.31,0.31,0.31,0.31,0.31,0.31,0.31,0.31,0.31,0.31,0.31,0.31,0.311,0.311,0.311,0.312,0.312,0.312,0.312,0.313,0.313,0.313,0.3135,0.314,0.314,0.314,0.315,0.315,0.315,0.315,0.315,0.315,0.315,0.315,0.315,0.315,0.315,0.315,0.316,0.316,0.316,0.316,0.317,0.317,0.317,0.317,0.317625,0.318,0.318,0.318,0.318,0.318,0.318625,0.319,0.319,0.319,0.32,0.32,0.32,0.32,0.321,0.321,0.321,0.321,0.321,0.322,0.322,0.3225,0.323,0.323,0.323,0.323,0.323,0.323,0.324,0.324,0.324,0.324,0.324,0.325,0.325,0.325,0.326,0.326,0.326,0.326,0.326,0.326,0.326,0.327,0.327,0.327,0.327,0.3275,0.328,0.328,0.328,0.329,0.329,0.329,0.329,0.33,0.33,0.33,0.331,0.331,0.331,0.332,0.332,0.332,0.333,0.333,0.3335,0.334,0.335,0.335,0.336,0.336,0.337,0.338,0.3385,0.339,0.339,0.0,0.0,0.0,0.0,0.345,0.345,0.347,0.347,0.0,0.0,0.0,0.0,0.0,0.0,0.0,0.0,0.358,0.359,0.36,0.361,0.362,0.362,0.362,0.363,0.363,0.364,0.364,0.365,0.366,0.366,0.367,0.368,0.369,0.369,0.37,0.372,0.373,0.373,0.3745,0.376,0.0,0.0,0.0,0.0,0.0,0.0,0.0,0.0,0.0,0.0,0.0,0.404,0.404,0.404,0.404,0.404,0.404,0.404,0.404,0.403,0.403,0.403,0.402,0.402,0.402,0.402,0.402,0.401,0.401,0.401,0.401,0.4,0.4,0.399,0.399,0.399,0.398,0.398,0.398,0.398,0.398,0.398,0.398,0.398,0.398,0.398,0.398,0.398,0.398,0.398,0.397,0.397,0.397,0.397,0.394,0.394,0.393,0.393,0.393,0.392,0.391,0.39,0.39,0.389,0.389,0.389,0.389,0.389,0.388,0.388,0.388,0.388,0.387,0.387,0.386,0.386,0.386,0.386,0.386,0.386,0.385,0.385,0.385,0.385,0.384,0.384,0.384,0.383,0.383,0.382,0.382,0.382,0.381,0.381,0.381,0.38,0.38,0.379,0.378,0.378,0.378,0.377,0.377,0.377,0.377,0.377,0.376,0.376,0.376,0.376,0.376,0.376,0.375,0.375,0.375,0.374,0.374,0.374,0.374,0.373,0.373,0.373,0.373,0.373,0.373,0.372,0.372,0.371,0.371,0.37,0.37,0.369,0.369,0.369,0.369,0.368,0.368,0.368,0.367,0.367,0.367,0.367,0.366,0.366,0.366,0.366,0.366,0.366,0.366,0.366,0.366,0.366,0.0,0.0,0.0,0.0,0.0,0.0,0.0,0.0,0.0,0.0,0.0,0.0,0.0,0.0
0.0,0.0,0.0,0.0,0.0,0.0,0.0,0.0,0.0,0.0,0.0,0.0,0.0,0.0,0.0,0.0,0.0,0.0,0.0,0.0,0.0,0.606,0.605,0.603,0.602,0.601,0.601,0.597,0.594,0.593,0.592,0.592,0.591,0.591,0.59,0.589,0.588,0.587,0.585,0.584,0.583,0.583,0.582,0.581,0.581,0.581,0.58,0.579,0.579,0.578,0.577,0.575,0.575,0.575,0.574,0.573,0.573,0.572,0.572,0.572,0.571,0.57,0.569,0.566,0.566,0.565,0.565,0.564,0.564,0.563,0.563,0.562,0.562,0.561,0.56,0.559,0.557,0.556,0.556,0.556,0.555,0.555,0.555,0.554,0.554,0.554,0.553,0.552,0.551,0.549,0.549,0.548,0.548,0.547,0.547,0.547,0.547,0.547,0.546,0.546,0.544,0.543,0.543,0.542,0.54,0.54,0.539,0.539,0.539,0.538,0.538,0.538,0.538,0.537,0.537,0.536,0.536,0.535,0.535,0.535,0.534,0.533,0.533,0.533,0.532,0.532,0.531,0.531,0.53,0.53,0.529,0.528,0.527,0.526,0.525,0.524,0.524,0.523,0.523,0.523,0.522,0.522,0.522,0.521,0.521,0.521,0.52,0.519,0.519,0.519,0.519,0.519,0.518,0.518,0.517,0.517,0.516,0.516,0.516,0.515,0.514,0.511,0.509,0.509,0.509,0.508,0.508,0.507,0.506,0.505,0.505,0.504,0.504,0.504,0.503,0.503,0.502,0.502,0.502,0.501,0.5,0.5,0.499,0.498,0.497,0.497,0.497,0.496,0.496,0.49624999999999997,0.496,0.495,0.495,0.495,0.495,0.495,0.495,0.0,0.0,0.0,0.0,0.0,0.0,0.0,0.0,0.0,0.0,0.0,0.0,0.0,0.0,0.0,0.0,0.0,0.0,0.0,0.0,0.315,0.315,0.315,0.315,0.314,0.314,0.314,0.313,0.313,0.312,0.312,0.312,0.312,0.311,0.31,0.31,0.31,0.31,0.31,0.31,0.309,0.309,0.309,0.309,0.309,0.309,0.309,0.309,0.309,0.31,0.31,0.31,0.31,0.31,0.31,0.31,0.31,0.31,0.31,0.31,0.311,0.311,0.311,0.312,0.312,0.312,0.312,0.313,0.313,0.3135,0.314,0.314,0.314,0.315,0.315,0.315,0.315,0.315,0.315,0.315,0.315,0.315,0.315,0.315,0.315,0.316,0.316,0.316,0.316,0.317,0.317,0.317,0.317,0.3175,0.318,0.318,0.318,0.318,0.318,0.3185,0.319,0.319,0.319,0.32,0.32,0.32,0.32,0.321,0.321,0.321,0.321,0.321,0.321,0.322,0.322,0.322625,0.323,0.323,0.323,0.323,0.323,0.324,0.324,0.324,0.324,0.324,0.325,0.325,0.325,0.326,0.326,0.326,0.326,0.326,0.326,0.326,0.327,0.327,0.327,0.327,0.3275,0.328,0.328,0.329,0.329,0.329,0.329,0.329,0.33,0.33,0.33,0.331,0.331,0.332,0.332,0.332,0.332,0.333,0.333,0.3335,0.334,0.335,0.335,0.335,0.336,0.337,0.338,0.338,0.338625,0.339,0.341,0.342,0.0,0.0,0.0,0.345,0.347,0.348,0.348,0.0,0.0,0.0,0.0,0.0,0.0,0.355,0.357,0.359,0.36,0.3605,0.361,0.362,0.362,0.363,0.363,0.364,0.365,0.365,0.366,0.366,0.367,0.36774999999999997,0.369,0.369,0.37,0.371,0.373,0.0,0.0,0.0,0.0,0.0,0.0,0.0,0.0,0.0,0.0,0.0,0.0,0.0,0.0,0.403,0.403,0.403,0.403,0.403,0.403,0.403,0.402,0.402,0.402,0.402,0.402,0.402,0.402,0.401,0.401,0.401,0.4,0.4,0.399,0.399,0.399,0.398,0.398,0.398,0.398,0.397,0.397,0.397,0.397,0.397,0.397,0.397,0.397,0.397,0.397,0.397,0.397,0.397,0.397,0.396,0.396,0.395,0.394,0.393,0.393,0.0,0.0,0.0,0.39,0.39,0.389,0.389,0.389,0.389,0.389,0.388,0.388,0.387,0.387,0.386,0.386,0.386,0.386,0.385,0.385,0.385,0.385,0.385,0.385,0.385,0.385,0.384,0.384,0.383,0.383,0.383,0.38225,0.382,0.381,0.381,0.381,0.381,0.38,0.38,0.379,0.378,0.378,0.378,0.377,0.377,0.377,0.377,0.376,0.376,0.376,0.375,0.375,0.375,0.374,0.374,0.374,0.374,0.374,0.374,0.373,0.373,0.373,0.373,0.373,0.373,0.373,0.372,0.372,0.371,0.371,0.37,0.37,0.37,0.369,0.369,0.369,0.368,0.368,0.367,0.367,0.366,0.366,0.366,0.366,0.366,0.366,0.366,0.366,0.366,0.365,0.365,0.365,0.365,0.365,0.365,0.0,0.0,0.0,0.0,0.0,0.0,0.0,0.0,0.0,0.0,0.0,0.0,0.0,0.0,0.0
0.0,0.0,0.0,0.0,0.0,0.0,0.0,0.0,0.0,0.0,0.0,0.0,0.0,0.0,0.0,0.0,0.0,0.0,0.0,0.0,0.0,0.0,0.602,0.601,0.6,0.596,0.594,0.592,0.592,0.591,0.59,0.59,0.589,0.588,0.586,0.584,0.584,0.583,0.583,0.582,0.582,0.581,0.58,0.579,0.578,0.577,0.576,0.575,0.574,0.574,0.574,0.573,0.573,0.573,0.572,0.572,0.571,0.57,0.569,0.569,0.568,0.566,0.565,0.565,0.564,0.564,0.563,0.563,0.562,0.561,0.56,0.559,0.559,0.558,0.556,0.556,0.555,0.555,0.555,0.554,0.554,0.553,0.552,0.551,0.551,0.55,0.549,0.549,0.547,0.547,0.547,0.547,0.546,0.546,0.545,0.544,0.544,0.544,0.543,0.542,0.541,0.541,0.54,0.539,0.539,0.539,0.538,0.538,0.537,0.536,0.536,0.535,0.535,0.535,0.534,0.534,0.533,0.533,0.532,0.532,0.532,0.531,0.531,0.531,0.531,0.53,0.53,0.529,0.528,0.527,0.526,0.524,0.524,0.524,0.523,0.523,0.523,0.522,0.522,0.521,0.521,0.519,0.519,0.519,0.518,0.518,0.517,0.517,0.517,0.517,0.517,0.516,0.516,0.516,0.516,0.515,0.515,0.514,0.5125,0.5115000000000001,0.510625,0.509,0.508,0.508,0.507,0.506,0.505,0.505,0.504,0.503,0.503,0.503,0.502,0.502,0.502,0.502,0.5,0.5,0.499,0.499,0.498,0.497,0.496,0.496,0.496,0.495,0.495,0.495,0.495,0.495,0.495,0.494,0.494,0.494,0.493,0.493,0.493,0.493,0.0,0.0,0.0,0.0,0.0,0.0,0.0,0.0,0.0,0.0,0.0,0.0,0.0,0.0,0.0,0.0,0.0,0.0,0.315,0.315,0.315,0.315,0.314,0.314,0.314,0.314,0.313,0.312,0.312,0.312,0.311,0.311,0.31,0.31,0.31,0.31,0.31,0.309,0.309,0.309,0.309,0.309,0.309,0.309,0.309,0.309,0.309,0.309,0.309,0.31,0.31,0.31,0.31,0.31,0.31,0.31,0.31,0.31,0.311,0.311,0.311,0.311,0.312,0.312,0.312,0.312,0.313,0.313,0.3135,0.314,0.314,0.315,0.315,0.315,0.315,0.315,0.315,0.315,0.315,0.315,0.315,0.315,0.315,0.316,0.316,0.316,0.316,0.317,0.317,0.317,0.317,0.3175,0.318,0.318,0.318,0.318,0.318,0.3185,0.319,0.319,0.319,0.32,0.32,0.32,0.32,0.32,0.321,0.321,0.321,0.321,0.321,0.322,0.322,0.3225,0.323,0.323,0.323,0.323,0.324,0.324,0.324,0.324,0.324,0.325,0.325,0.325,0.326,0.326,0.326,0.326,0.326,0.326,0.326,0.327,0.327,0.327,0.327,0.327,0.3275,0.328,0.328,0.329,0.329,0.329,0.329,0.329,0.33,0.33,0.33,0.331,0.331,0.332,0.332,0.332,0.332,0.333,0.333,0.3335,0.334,0.335,0.335,0.335,0.336,0.336,0.338,0.338,0.3385,0.339,0.34,0.342,0.343,0.344,0.345,0.345,0.347,0.348,0.349,0.349,0.3495,0.35,0.351,0.352,0.354,0.355,0.356,0.3575,0.359,0.36,0.361,0.362,0.363,0.363,0.363,0.364,0.364,0.365,0.366,0.366,0.366,0.367,0.368,0.369,0.37,0.371,0.372,0.373,0.0,0.0,0.0,0.0,0.0,0.0,0.0,0.0,0.0,0.0,0.0,0.0,0.0,0.0,0.402,0.402,0.402,0.402,0.402,0.402,0.402,0.402,0.402,0.402,0.401,0.401,0.401,0.4,0.4,0.399,0.399,0.399,0.398,0.398,0.398,0.398,0.397,0.397,0.397,0.397,0.397,0.397,0.396,0.396,0.396,0.396,0.396,0.396,0.396,0.396,0.396,0.396,0.396,0.395,0.395,0.394,0.393,0.393,0.392,0.3915,0.0,0.0,0.0,0.389,0.389,0.388,0.388,0.388,0.388,0.387,0.387,0.386,0.386,0.385,0.385,0.385,0.385,0.385,0.385,0.385,0.384,0.384,0.384,0.384,0.384,0.384,0.383,0.383,0.382,0.382,0.382,0.381,0.381,0.381,0.38,0.38,0.38,0.379,0.378,0.378,0.377,0.377,0.377,0.377,0.377,0.376,0.376,0.375,0.375,0.374,0.374,0.373,0.373,0.373,0.373,0.373,0.373,0.373,0.373,0.373,0.373,0.373,0.372,0.372,0.372,0.371,0.371,0.371,0.37,0.37,0.37,0.369,0.369,0.369,0.368,0.367,0.367,0.366,0.366,0.366,0.366,0.366,0.365,0.365,0.365,0.365,0.365,0.364,0.364,0.364,0.364,0.364,0.364,0.364,0.0,0.0,0.0,0.0,0.0,0.0,0.0,0.0,0.0,0.0,0.0,0.0,0.0,0.0,0.0,0.0
0.0,0.0,0.0,0.0,0.0,0.0,0.0,0.0,0.0,0.0,0.0,0.0,0.0,0.0,0.0,0.0,0.0,0.0,0.0,0.0,0.0,0.0,0.0,0.0,0.595,0.592,0.591,0.59,0.588,0.587,0.586,0.586,0.584,0.583,0.583,0.582,0.582,0.582,0.581,0.581,0.58,0.578,0.576,0.575,0.575,0.573,0.573,0.573,0.573,0.572,0.572,0.571,0.571,0.571,0.57,0.569,0.567,0.566,0.566,0.565,0.565,0.564,0.564,0.563,0.563,0.562,0.561,0.56,0.559,0.558,0.557,0.556,0.556,0.555,0.555,0.555,0.554,0.553,0.552,0.551,0.55,0.549,0.549,0.548,0.548,0.548,0.547,0.547,0.547,0.546,0.545,0.545,0.544,0.543,0.542,0.542,0.541,0.541,0.54,0.539,0.539,0.539,0.539,0.538,0.537,0.537,0.536,0.535,0.534,0.534,0.533,0.533,0.532,0.532,0.532,0.531,0.531,0.531,0.531,0.531,0.531,0.53,0.53,0.529,0.529,0.528,0.527,0.526,0.525,0.524,0.524,0.523,0.523,0.523,0.522,0.522,0.521,0.52,0.519,0.518,0.518,0.517,0.517,0.516,0.516,0.516,0.516,0.516,0.516,0.516,0.516,0.515,0.515,0.514,0.514,0.512,0.511,0.51,0.509,0.508,0.508,0.507,0.506,0.505,0.504,0.503,0.503,0.503,0.502,0.502,0.502,0.502,0.501,0.501,0.5,0.5,0.499,0.498,0.497,0.496,0.496,0.496,0.495,0.495,0.495,0.494,0.494,0.494,0.493,0.492,0.492,0.491,0.491,0.491,0.49,0.491,0.49,0.0,0.0,0.0,0.0,0.0,0.0,0.0,0.0,0.0,0.0,0.0,0.0,0.0,0.0,0.0,0.0,0.0,0.0,0.315,0.315,0.315,0.315,0.315,0.315,0.314,0.314,0.313,0.313,0.312,0.312,0.312,0.311,0.311,0.31,0.31,0.31,0.31,0.309,0.309,0.309,0.309,0.309,0.309,0.309,0.309,0.309,0.309,0.309,0.309,0.309,0.31,0.31,0.31,0.31,0.31,0.31,0.31,0.31,0.31,0.311,0.311,0.311,0.312,0.312,0.312,0.312,0.313,0.313,0.313,0.313625,0.314,0.314,0.315,0.315,0.315,0.315,0.315,0.315,0.316,0.316,0.316,0.316,0.316,0.316,0.316,0.316,0.316,0.317,0.317,0.317,0.317,0.3175,0.318,0.318,0.318,0.318,0.318,0.318,0.319,0.319,0.319,0.32,0.32,0.32,0.32,0.32,0.321,0.321,0.321,0.321,0.321,0.322,0.322,0.3225,0.323,0.323,0.323,0.323,0.324,0.324,0.324,0.324,0.325,0.325,0.325,0.325,0.326,0.326,0.326,0.326,0.326,0.326,0.326,0.327,0.327,0.327,0.327,0.3275,0.328,0.328,0.328,0.329,0.329,0.329,0.329,0.329,0.33,0.33,0.331,0.331,0.331,0.332,0.332,0.332,0.332,0.3325,0.333,0.3335,0.334,0.335,0.335,0.335,0.336,0.336,0.337,0.338,0.3385,0.339,0.34,0.341,0.342,0.34325000000000006,0.344,0.345,0.347,0.348,0.349,0.34950000000000003,0.35,0.351,0.351,0.351,0.353,0.354,0.355,0.356,0.3575,0.359,0.36,0.361,0.362,0.363,0.363,0.364,0.365,0.365,0.366,0.366,0.366,0.367,0.36749999999999994,0.368,0.369,0.37,0.371,0.372,0.373,0.374,0.3745,0.375,0.0,0.0,0.0,0.0,0.0,0.0,0.0,0.0,0.0,0.402,0.402,0.402,0.402,0.402,0.402,0.402,0.402,0.401,0.401,0.401,0.401,0.4,0.4,0.4,0.399,0.399,0.398,0.398,0.398,0.397,0.397,0.397,0.397,0.396,0.396,0.396,0.395,0.395,0.395,0.394,0.395,0.395,0.395,0.394,0.394,0.394,0.394,0.394,0.394,0.394,0.394,0.393,0.393,0.392,0.391,0.391,0.39,0.389,0.389,0.388,0.388,0.387,0.387,0.387,0.386,0.386,0.386,0.385,0.385,0.385,0.385,0.385,0.384,0.384,0.384,0.383,0.383,0.383,0.383,0.383,0.383,0.383,0.383,0.382,0.382,0.382,0.381,0.381,0.381,0.381,0.38,0.379,0.378,0.378,0.378,0.377,0.377,0.377,0.377,0.376,0.376,0.375,0.375,0.374,0.374,0.373,0.373,0.373,0.373,0.373,0.373,0.373,0.373,0.373,0.372,0.372,0.372,0.372,0.371,0.371,0.371,0.371,0.37,0.37,0.37,0.369,0.369,0.369,0.368,0.368,0.367,0.367,0.366,0.366,0.366,0.365,0.365,0.365,0.364,0.364,0.364,0.364,0.364,0.363,0.363,0.363,0.363,0.363,0.363,0.363,0.363,0.0,0.0,0.0,0.0,0.0,0.0,0.0,0.0,0.0,0.0,0.0,0.0,0.0,0.0,0.0,0.0
0.0,0.0,0.0,0.0,0.0,0.0,0.0,0.0,0.0,0.0,0.0,0.0,0.0,0.0,0.0,0.0,0.0,0.0,0.0,0.0,0.0,0.0,0.0,0.0,0.59,0.589,0.587,0.585,0.584,0.583,0.582,0.582,0.582,0.582,0.581,0.581,0.58,0.579,0.579,0.577,0.575,0.575,0.574,0.573,0.573,0.572,0.572,0.571,0.571,0.571,0.57,0.57,0.569,0.568,0.566,0.566,0.565,0.565,0.564,0.564,0.563,0.563,0.562,0.561,0.56,0.559,0.558,0.557,0.556,0.556,0.555,0.555,0.555,0.554,0.553,0.552,0.551,0.55,0.549,0.548,0.548,0.547,0.547,0.547,0.547,0.546,0.546,0.545,0.544,0.543,0.542,0.542,0.541,0.54,0.54,0.539,0.539,0.539,0.539,0.538,0.538,0.537,0.537,0.536,0.535,0.534,0.533,0.533,0.532,0.532,0.531,0.531,0.531,0.531,0.531,0.53,0.53,0.53,0.529,0.529,0.528,0.527,0.527,0.526,0.526,0.525,0.524,0.524,0.523,0.523,0.522,0.522,0.521,0.52,0.519,0.519,0.518,0.517,0.517,0.516,0.516,0.516,0.516,0.515,0.515,0.515,0.515,0.514,0.514,0.514,0.513,0.513,0.512,0.511,0.51,0.509,0.509,0.508,0.507,0.506,0.505,0.504,0.503,0.503,0.502,0.502,0.502,0.502,0.502,0.501,0.501,0.5,0.499,0.499,0.498,0.497,0.497,0.496,0.496,0.495,0.495,0.495,0.494,0.493,0.493,0.492,0.491,0.491,0.49,0.49,0.49,0.489,0.489,0.489,0.489,0.489,0.0,0.0,0.0,0.0,0.0,0.0,0.0,0.0,0.0,0.0,0.0,0.0,0.0,0.0,0.0,0.0,0.0,0.0,0.0,0.315,0.315,0.315,0.315,0.315,0.314,0.314,0.314,0.313,0.312,0.312,0.312,0.311,0.31,0.31,0.31,0.31,0.309,0.309,0.309,0.309,0.309,0.309,0.309,0.309,0.309,0.309,0.309,0.309,0.309,0.309,0.309,0.309,0.31,0.31,0.31,0.31,0.31,0.31,0.31,0.311,0.311,0.311,0.311,0.312,0.312,0.312,0.312,0.313,0.313,0.3135,0.314,0.314,0.315,0.315,0.315,0.315,0.315,0.316,0.316,0.316,0.316,0.316,0.316,0.316,0.316,0.316,0.316,0.317,0.317,0.317,0.317,0.317,0.317625,0.318,0.318,0.318,0.318,0.318,0.318,0.319,0.319,0.32,0.32,0.32,0.32,0.32,0.321,0.321,0.321,0.321,0.321,0.322,0.322,0.3225,0.323,0.323,0.323,0.323,0.324,0.324,0.324,0.324,0.325,0.325,0.325,0.326,0.326,0.326,0.326,0.326,0.326,0.326,0.327,0.327,0.327,0.327,0.3275,0.328,0.328,0.328,0.328,0.329,0.329,0.329,0.329,0.329,0.33,0.33,0.331,0.331,0.331,0.332,0.332,0.332,0.3325,0.333,0.333,0.333,0.334,0.335,0.335,0.335,0.336,0.336,0.337,0.338,0.0,0.0,0.0,0.0,0.342,0.34299999999999997,0.344,0.345,0.346,0.348,0.348,0.349,0.35,0.35,0.351,0.351,0.351,0.353,0.354,0.355,0.356,0.0,0.359,0.36,0.361,0.362,0.364,0.364,0.364,0.365,0.366,0.366,0.366,0.367,0.36749999999999994,0.368,0.369,0.369,0.371,0.372,0.373,0.3735,0.374,0.375,0.0,0.0,0.0,0.0,0.0,0.0,0.0,0.0,0.401,0.401,0.401,0.4015000000000001,0.402,0.401,0.401,0.401,0.401,0.4,0.4,0.4,0.399,0.399,0.399,0.399,0.398,0.398,0.398,0.398,0.397,0.397,0.397,0.396,0.396,0.396,0.395,0.394,0.394,0.394,0.394,0.394,0.394,0.394,0.394,0.394,0.393,0.393,0.393,0.393,0.393,0.393,0.393,0.393,0.392,0.391,0.39,0.389,0.389,0.389,0.387,0.387,0.386,0.386,0.386,0.386,0.385,0.385,0.385,0.385,0.385,0.385,0.384,0.383,0.383,0.383,0.382,0.382,0.382,0.382,0.382,0.382,0.382,0.382,0.382,0.382,0.381,0.381,0.381,0.381,0.381,0.38,0.379,0.379,0.378,0.378,0.377,0.377,0.377,0.377,0.376,0.376,0.375,0.375,0.374,0.373,0.373,0.373,0.373,0.373,0.372,0.372,0.372,0.371,0.371,0.371,0.371,0.371,0.371,0.37,0.37,0.37,0.37,0.37,0.37,0.37,0.369,0.369,0.369,0.369,0.368,0.367,0.367,0.366,0.366,0.366,0.365,0.365,0.364,0.364,0.363,0.363,0.363,0.363,0.363,0.363,0.362,0.362,0.362,0.362,0.362,0.362,0.362,0.362,0.0,0.0,0.0,0.0,0.0,0.0,0.0,0.0,0.0,0.0,0.0,0.0,0.0,0.0,0.0,0.0
0.0,0.0,0.0,0.0,0.0,0.0,0.0,0.0,0.0,0.0,0.0,0.0,0.0,0.0,0.0,0.0,0.0,0.0,0.0,0.0,0.0,0.0,0.0,0.584,0.584,0.583,0.582,0.582,0.581,0.581,0.581,0.581,0.58,0.58,0.579,0.578,0.576,0.575,0.574,0.574,0.573,0.572,0.571,0.571,0.571,0.57,0.569,0.569,0.568,0.567,0.567,0.566,0.566,0.565,0.565,0.564,0.563,0.563,0.562,0.562,0.561,0.56,0.559,0.558,0.557,0.556,0.556,0.556,0.555,0.555,0.554,0.554,0.553,0.552,0.55,0.549,0.548,0.548,0.547,0.547,0.547,0.546,0.545,0.545,0.544,0.544,0.543,0.542,0.541,0.54,0.54,0.539,0.539,0.539,0.539,0.538,0.538,0.537,0.537,0.536,0.536,0.535,0.534,0.533,0.533,0.532,0.532,0.531,0.531,0.53,0.53,0.53,0.529,0.529,0.528,0.528,0.527,0.527,0.526,0.525,0.525,0.524,0.524,0.524,0.524,0.523,0.523,0.522,0.522,0.521,0.52,0.519,0.518,0.518,0.517,0.517,0.516,0.516,0.515,0.515,0.515,0.514,0.514,0.513,0.513,0.513,0.512,0.512,0.511,0.511,0.51,0.51,0.509,0.509,0.509,0.507,0.506,0.505,0.504,0.503,0.502,0.502,0.502,0.502,0.502,0.501,0.501,0.5,0.499,0.499,0.498,0.497,0.497,0.496,0.496,0.496,0.495,0.495,0.495,0.494,0.493,0.493,0.491,0.491,0.49,0.49,0.489,0.489,0.489,0.489,0.488,0.488,0.488,0.488,0.488,0.0,0.0,0.0,0.0,0.0,0.0,0.0,0.0,0.0,0.0,0.0,0.0,0.0,0.0,0.0,0.0,0.0,0.0,0.0,0.0,0.315,0.315,0.315,0.315,0.315,0.314,0.314,0.314,0.313,0.312,0.312,0.311,0.311,0.31,0.31,0.31,0.31,0.309,0.309,0.309,0.309,0.309,0.309,0.309,0.309,0.309,0.309,0.309,0.309,0.309,0.309,0.309,0.309,0.31,0.31,0.31,0.31,0.31,0.31,0.31,0.311,0.311,0.311,0.312,0.312,0.312,0.312,0.313,0.313,0.313,0.313625,0.314,0.314,0.315,0.315,0.315,0.315,0.315,0.316,0.316,0.316,0.316,0.316,0.316,0.316,0.316,0.317,0.317,0.317,0.317,0.317,0.317,0.3175,0.318,0.318,0.318,0.318,0.318,0.319,0.319,0.319,0.319,0.32,0.32,0.32,0.32,0.321,0.321,0.321,0.321,0.321,0.322,0.322,0.3225,0.323,0.323,0.323,0.323,0.324,0.324,0.324,0.324,0.325,0.325,0.325,0.326,0.326,0.326,0.326,0.326,0.326,0.326,0.327,0.327,0.327,0.327,0.3275,0.328,0.328,0.328,0.329,0.329,0.329,0.329,0.329,0.329,0.33,0.33,0.33,0.331,0.332,0.332,0.332,0.332,0.3325,0.333,0.333,0.333,0.334,0.335,0.335,0.335,0.336,0.336,0.337,0.338,0.3385,0.0,0.0,0.0,0.0,0.342,0.34349999999999997,0.345,0.345,0.347,0.348,0.349,0.34950000000000003,0.35,0.351,0.351,0.352,0.352,0.353,0.35424999999999995,0.355,0.357,0.358,0.359,0.36,0.361,0.362,0.364,0.365,0.365,0.0,0.0,0.0,0.367,0.3675,0.368,0.369,0.369,0.37,0.371,0.373,0.373,0.3735,0.374,0.0,0.0,0.0,0.0,0.0,0.0,0.0,0.398,0.399,0.399,0.4,0.4,0.401,0.4,0.4,0.4,0.4,0.399,0.399,0.399,0.398,0.398,0.398,0.398,0.398,0.397,0.397,0.397,0.397,0.396,0.396,0.395,0.394,0.394,0.394,0.394,0.393,0.393,0.393,0.393,0.393,0.393,0.393,0.393,0.393,0.393,0.393,0.392,0.392,0.392,0.392,0.391,0.391,0.39,0.389,0.389,0.389,0.387,0.386,0.385,0.385,0.385,0.385,0.385,0.385,0.385,0.385,0.385,0.384,0.384,0.384,0.38275000000000003,0.382,0.382,0.381,0.381,0.381,0.381,0.381,0.381,0.381,0.381,0.381,0.381,0.381,0.381,0.381,0.381,0.38,0.38,0.379,0.378,0.378,0.377,0.377,0.377,0.377,0.376,0.376,0.375,0.374,0.374,0.373,0.373,0.373,0.373,0.372,0.371,0.37,0.37,0.37,0.37,0.37,0.37,0.37,0.37,0.37,0.369,0.369,0.369,0.369,0.369,0.369,0.369,0.369,0.369,0.368,0.367,0.367,0.366,0.366,0.366,0.366,0.365,0.365,0.364,0.363,0.363,0.362,0.362,0.362,0.362,0.362,0.362,0.362,0.362,0.362,0.362,0.362,0.362,0.362,0.362,0.362,0.0,0.0,0.0,0.0,0.0,0.0,0.0,0.0,0.0,0.0,0.0,0.0,0.0,0.0,0.0,0.0
0.0,0.0,0.0,0.0,0.0,0.0,0.0,0.0,0.0,0.0,0.0,0.0,0.0,0.0,0.0,0.0,0.0,0.0,0.0,0.0,0.0,0.0,0.0,0.581,0.581,0.58,0.58,0.58,0.579,0.578,0.578,0.577,0.577,0.576,0.575,0.574,0.574,0.573,0.573,0.573,0.571,0.57,0.569,0.568,0.567,0.566,0.566,0.566,0.565,0.565,0.565,0.564,0.564,0.564,0.563,0.562,0.561,0.56,0.559,0.558,0.558,0.557,0.557,0.556,0.556,0.555,0.555,0.554,0.553,0.553,0.551,0.551,0.55,0.549,0.548,0.548,0.547,0.547,0.546,0.544,0.544,0.543,0.543,0.542,0.542,0.541,0.54,0.54,0.539,0.539,0.539,0.538,0.538,0.537,0.536,0.536,0.535,0.535,0.534,0.534,0.533,0.533,0.533,0.532,0.531,0.531,0.531,0.53,0.528,0.528,0.527,0.526,0.526,0.525,0.525,0.525,0.524,0.524,0.524,0.524,0.523,0.523,0.523,0.522,0.522,0.521,0.52,0.519,0.519,0.518,0.517,0.517,0.516,0.516,0.516,0.516,0.514,0.514,0.513,0.513,0.512,0.511,0.511,0.511,0.51,0.51,0.51,0.51,0.509,0.509,0.509,0.509,0.507,0.506,0.505,0.504,0.503,0.502,0.502,0.502,0.502,0.501,0.501,0.501,0.5,0.5,0.498,0.497,0.497,0.496,0.496,0.496,0.495,0.495,0.495,0.495,0.494,0.493,0.493,0.492,0.49,0.49,0.489,0.489,0.489,0.489,0.488,0.488,0.488,0.488,0.488,0.488,0.487,0.487,0.4865,0.0,0.0,0.0,0.0,0.0,0.0,0.0,0.0,0.0,0.0,0.0,0.0,0.0,0.0,0.0,0.0,0.0,0.0,0.0,0.0,0.315,0.315,0.315,0.315,0.314,0.314,0.314,0.313,0.312,0.312,0.312,0.311,0.31,0.31,0.31,0.31,0.309,0.309,0.309,0.309,0.309,0.309,0.309,0.309,0.309,0.309,0.309,0.309,0.309,0.309,0.309,0.309,0.309,0.31,0.31,0.31,0.31,0.31,0.31,0.311,0.311,0.311,0.312,0.312,0.312,0.312,0.312,0.313,0.313,0.3135,0.314,0.314,0.315,0.315,0.315,0.315,0.316,0.316,0.316,0.316,0.316,0.316,0.316,0.316,0.317,0.317,0.317,0.317,0.317,0.317,0.317,0.3175,0.318,0.318,0.318,0.318,0.318,0.318,0.319,0.319,0.319,0.32,0.32,0.32,0.32,0.321,0.321,0.321,0.321,0.321,0.322,0.322,0.3225,0.323,0.323,0.323,0.323,0.324,0.324,0.324,0.325,0.325,0.325,0.325,0.326,0.326,0.326,0.326,0.326,0.326,0.326,0.327,0.327,0.327,0.3275,0.328,0.328,0.328,0.329,0.329,0.329,0.329,0.329,0.329,0.33,0.33,0.33,0.331,0.331,0.332,0.332,0.332,0.332,0.3325,0.333,0.333,0.334,0.334,0.335,0.335,0.335,0.336,0.337,0.337,0.338,0.3385,0.339,0.339,0.0,0.0,0.342,0.34299999999999997,0.344,0.345,0.347,0.348,0.0,0.349,0.35,0.351,0.351,0.352,0.352,0.353,0.354,0.355,0.355,0.357,0.358,0.36,0.36075,0.362,0.0,0.0,0.0,0.366,0.0,0.0,0.0,0.0,0.0,0.0,0.385,0.3845,0.385,0.385,0.386,0.3855,0.38575000000000004,0.0,0.0,0.0,0.0,0.395,0.0,0.0,0.398,0.398,0.398,0.399,0.399,0.399,0.399,0.399,0.399,0.399,0.398,0.398,0.398,0.398,0.398,0.397,0.397,0.397,0.397,0.396,0.396,0.395,0.395,0.394,0.394,0.394,0.394,0.393,0.393,0.393,0.393,0.393,0.392,0.392,0.392,0.392,0.392,0.392,0.391,0.391,0.391,0.391,0.39,0.39,0.39,0.389,0.389,0.389,0.388,0.388,0.386,0.386,0.385,0.385,0.385,0.385,0.385,0.385,0.384,0.384,0.384,0.384,0.382,0.382,0.382,0.381,0.381,0.381,0.381,0.381,0.381,0.381,0.381,0.381,0.381,0.381,0.381,0.381,0.381,0.381,0.38,0.38,0.379,0.379,0.378,0.377,0.377,0.377,0.377,0.377,0.376,0.376,0.375,0.374,0.3735,0.373,0.373,0.372,0.372,0.371,0.37,0.37,0.37,0.369,0.369,0.369,0.369,0.369,0.369,0.369,0.369,0.369,0.369,0.368,0.368,0.368,0.368,0.368,0.367,0.367,0.366,0.366,0.366,0.366,0.365,0.365,0.365,0.364,0.363,0.362,0.362,0.362,0.362,0.362,0.361,0.361,0.361,0.361,0.361,0.361,0.361,0.361,0.361,0.361,0.361,0.361,0.361,0.361,0.0,0.0,0.0,0.0,0.0,0.0,0.0,0.0,0.0,0.0,0.0,0.0,0.0,0.0,0.0
0.0,0.0,0.0,0.0,0.0,0.0,0.0,0.0,0.0,0.0,0.0,0.0,0.0,0.0,0.0,0.0,0.0,0.0,0.0,0.0,0.0,0.0,0.576,0.576,0.576,0.575,0.576,0.576,0.575,0.575,0.575,0.574,0.574,0.573,0.573,0.573,0.572,0.571,0.571,0.57,0.569,0.567,0.566,0.565,0.565,0.565,0.564,0.564,0.564,0.564,0.563,0.563,0.562,0.561,0.559,0.559,0.558,0.557,0.557,0.556,0.556,0.556,0.555,0.555,0.555,0.554,0.553,0.552,0.551,0.55,0.549,0.548,0.548,0.547,0.547,0.547,0.546,0.544,0.543,0.542,0.541,0.54,0.54,0.54,0.54,0.539,0.539,0.539,0.538,0.537,0.536,0.535,0.534,0.533,0.533,0.533,0.533,0.533,0.532,0.532,0.532,0.531,0.531,0.531,0.53,0.53,0.527,0.527,0.526,0.525,0.525,0.524,0.524,0.524,0.523,0.523,0.523,0.523,0.523,0.522,0.521,0.521,0.52,0.519,0.519,0.518,0.517,0.517,0.516,0.516,0.516,0.516,0.515,0.515,0.514,0.513,0.512,0.511,0.51,0.51,0.51,0.509,0.509,0.509,0.509,0.509,0.509,0.509,0.508,0.508,0.506,0.505,0.504,0.503,0.503,0.502,0.502,0.502,0.501,0.501,0.5,0.5,0.499,0.498,0.497,0.497,0.496,0.496,0.495,0.495,0.495,0.495,0.495,0.494,0.494,0.493,0.492,0.49,0.489,0.489,0.489,0.488,0.488,0.488,0.488,0.487,0.487,0.487,0.487,0.486,0.486,0.486,0.485,0.485,0.485,0.485,0.485,0.0,0.0,0.0,0.0,0.0,0.0,0.0,0.0,0.0,0.0,0.0,0.0,0.0,0.0,0.32,0.0,0.0,0.0,0.315,0.315,0.315,0.315,0.314,0.314,0.314,0.313,0.312,0.312,0.311,0.311,0.31,0.31,0.31,0.309,0.309,0.309,0.309,0.309,0.309,0.309,0.309,0.309,0.309,0.309,0.309,0.309,0.309,0.309,0.309,0.309,0.309,0.31,0.31,0.31,0.31,0.31,0.31,0.311,0.311,0.312,0.312,0.312,0.312,0.312,0.313,0.313,0.313,0.313625,0.314,0.314,0.315,0.315,0.315,0.315,0.316,0.316,0.316,0.317,0.317,0.317,0.317,0.317,0.317,0.317,0.317,0.317,0.317,0.317,0.3175,0.318,0.318,0.318,0.318,0.318,0.318,0.319,0.319,0.319,0.32,0.32,0.32,0.32,0.321,0.321,0.321,0.321,0.321,0.322,0.322,0.3225,0.323,0.323,0.323,0.323,0.323,0.324,0.324,0.324,0.325,0.325,0.325,0.326,0.326,0.326,0.326,0.326,0.326,0.326,0.327,0.327,0.327,0.3275,0.328,0.328,0.328,0.329,0.329,0.329,0.329,0.329,0.33,0.33,0.33,0.33,0.331,0.331,0.332,0.332,0.332,0.3325,0.333,0.333,0.334,0.334,0.335,0.335,0.335,0.335,0.336,0.337,0.338,0.338,0.338,0.338625,0.339,0.34,0.341,0.342,0.34299999999999997,0.344,0.345,0.346,0.348,0.348,0.3485,0.349,0.351,0.351,0.352,0.353,0.353,0.354,0.0,0.0,0.0,0.0,0.0,0.0,0.361,0.362,0.0,0.0,0.0,0.0,0.0,0.0,0.0,0.0,0.0,0.0,0.401,0.4,0.4,0.399,0.399,0.398,0.398,0.398,0.398,0.3975,0.397,0.397,0.397,0.397,0.397,0.398,0.398,0.398,0.398,0.398,0.398,0.398,0.398,0.398,0.398,0.398,0.397,0.397,0.397,0.397,0.396,0.396,0.395,0.394,0.394,0.394,0.394,0.393,0.393,0.393,0.393,0.393,0.392,0.392,0.392,0.391,0.391,0.391,0.391,0.391,0.39,0.39,0.39,0.39,0.389,0.389,0.389,0.389,0.389,0.388,0.388,0.386,0.386,0.385,0.385,0.385,0.385,0.385,0.385,0.384,0.384,0.384,0.383,0.383,0.382,0.382,0.381,0.381,0.381,0.381,0.381,0.38,0.38,0.38,0.38,0.38,0.38,0.38,0.38,0.38,0.38,0.38,0.38,0.379,0.379,0.378,0.378,0.377,0.377,0.377,0.377,0.377,0.376,0.376,0.375,0.374,0.373,0.373,0.373,0.373,0.372,0.371,0.37,0.369,0.369,0.369,0.369,0.369,0.369,0.369,0.368,0.368,0.368,0.368,0.367,0.367,0.367,0.367,0.367,0.366,0.366,0.366,0.366,0.366,0.366,0.365,0.365,0.365,0.364,0.364,0.363,0.362,0.362,0.362,0.362,0.361,0.361,0.361,0.36,0.36,0.36,0.36,0.36,0.36,0.36,0.36,0.36,0.36,0.36,0.36,0.36,0.36,0.0,0.0,0.0,0.0,0.0,0.0,0.0,0.0,0.0,0.0,0.0,0.0,0.0,0.0,0.0
0.0,0.0,0.0,0.0,0.0,0.0,0.0,0.0,0.0,0.0,0.0,0.0,0.0,0.0,0.0,0.0,0.0,0.0,0.0,0.0,0.0,0.0,0.574,0.574,0.574,0.574,0.574,0.573,0.573,0.573,0.573,0.573,0.573,0.572,0.572,0.571,0.57,0.569,0.567,0.566,0.566,0.565,0.565,0.564,0.564,0.563,0.563,0.563,0.562,0.561,0.561,0.559,0.558,0.558,0.557,0.556,0.556,0.556,0.555,0.555,0.555,0.555,0.554,0.553,0.551,0.551,0.549,0.549,0.548,0.548,0.547,0.547,0.547,0.546,0.545,0.543,0.542,0.541,0.54,0.54,0.539,0.539,0.539,0.539,0.538,0.538,0.537,0.535,0.535,0.534,0.533,0.532,0.532,0.531,0.531,0.531,0.531,0.531,0.531,0.531,0.531,0.53,0.53,0.528,0.527,0.526,0.525,0.524,0.524,0.523,0.523,0.523,0.523,0.522,0.522,0.522,0.521,0.52,0.519,0.519,0.518,0.517,0.517,0.517,0.516,0.516,0.516,0.516,0.515,0.515,0.514,0.513,0.512,0.511,0.511,0.51,0.509,0.509,0.509,0.509,0.509,0.508,0.508,0.508,0.507,0.507,0.507,0.506,0.506,0.504,0.504,0.503,0.502,0.502,0.502,0.501,0.5,0.5,0.5,0.499,0.499,0.497,0.496,0.496,0.496,0.495,0.495,0.495,0.495,0.494,0.494,0.494,0.493,0.492,0.491,0.49,0.489,0.489,0.488,0.488,0.488,0.487,0.487,0.487,0.487,0.486,0.486,0.485,0.485,0.485,0.485,0.485,0.484,0.484,0.484,0.484,0.484,0.0,0.0,0.0,0.0,0.0,0.0,0.0,0.0,0.0,0.0,0.0,0.0,0.0,0.32,0.32,0.0,0.0,0.316,0.315,0.315,0.315,0.315,0.314,0.314,0.314,0.312,0.312,0.311,0.311,0.31,0.31,0.31,0.309,0.309,0.309,0.309,0.309,0.309,0.309,0.309,0.309,0.309,0.309,0.309,0.309,0.309,0.309,0.309,0.309,0.309,0.31,0.31,0.31,0.31,0.31,0.31,0.311,0.311,0.311,0.312,0.312,0.312,0.312,0.312,0.313,0.313,0.3135,0.314,0.314,0.314,0.315,0.315,0.315,0.315,0.316,0.316,0.316,0.317,0.317,0.317,0.317,0.317,0.317,0.317,0.317,0.317,0.317,0.3175,0.318,0.318,0.318,0.318,0.318,0.318,0.319,0.319,0.32,0.32,0.32,0.32,0.32,0.321,0.321,0.321,0.321,0.321,0.322,0.322,0.322,0.322625,0.323,0.323,0.323,0.323,0.324,0.324,0.324,0.325,0.325,0.326,0.326,0.326,0.326,0.326,0.326,0.326,0.327,0.327,0.327,0.3275,0.328,0.328,0.328,0.329,0.329,0.329,0.329,0.329,0.33,0.33,0.33,0.33,0.331,0.331,0.331,0.332,0.332,0.332,0.3325,0.333,0.333,0.334,0.334,0.335,0.335,0.335,0.335,0.336,0.337,0.338,0.338,0.3385,0.339,0.339,0.34,0.341,0.342,0.343,0.34375,0.345,0.346,0.348,0.0,0.3485,0.34924999999999995,0.35006249999999994,0.351,0.352,0.354,0.354,0.3545,0.355,0.0,0.0,0.0,0.0,0.0,0.0,0.0,0.0,0.0,0.0,0.0,0.0,0.0,0.0,0.0,0.0,0.0,0.401,0.401,0.4,0.399,0.399,0.398,0.398,0.398,0.398,0.398,0.397,0.397,0.397,0.397,0.397,0.397,0.397,0.397,0.398,0.398,0.398,0.398,0.398,0.398,0.397,0.397,0.397,0.397,0.396,0.395,0.394,0.394,0.394,0.394,0.393,0.393,0.393,0.393,0.393,0.393,0.393,0.392,0.392,0.391,0.391,0.39,0.39,0.39,0.389,0.389,0.389,0.389,0.389,0.389,0.389,0.389,0.388,0.388,0.388,0.386,0.386,0.385,0.385,0.385,0.385,0.384,0.384,0.384,0.384,0.383,0.383,0.382,0.382,0.381,0.3815,0.381,0.381,0.381,0.381,0.38,0.38,0.38,0.38,0.379,0.379,0.379,0.379,0.378,0.378,0.378,0.378,0.378,0.378,0.378,0.377,0.377,0.377,0.377,0.377,0.377,0.376,0.376,0.376,0.375,0.374,0.373,0.373,0.373,0.373,0.372,0.371,0.37,0.369,0.369,0.369,0.368,0.368,0.368,0.367,0.367,0.367,0.367,0.366,0.366,0.366,0.366,0.366,0.366,0.366,0.366,0.366,0.366,0.366,0.365,0.365,0.364,0.364,0.364,0.363,0.363,0.362,0.362,0.362,0.362,0.361,0.361,0.36,0.36,0.359,0.359,0.359,0.359,0.359,0.359,0.359,0.359,0.359,0.359,0.359,0.359,0.359,0.359,0.0,0.0,0.0,0.0,0.0,0.0,0.0,0.0,0.0,0.0,0.0,0.0,0.0,0.0,0.0,0.0
0.0,0.0,0.0,0.0,0.0,0.0,0.0,0.0,0.0,0.0,0.0,0.0,0.0,0.0,0.0,0.0,0.0,0.0,0.0,0.0,0.0,0.573,0.573,0.573,0.573,0.573,0.572,0.572,0.572,0.572,0.571,0.571,0.571,0.57,0.569,0.567,0.566,0.566,0.565,0.565,0.564,0.564,0.563,0.563,0.562,0.562,0.562,0.56,0.559,0.558,0.557,0.556,0.556,0.556,0.555,0.555,0.555,0.554,0.554,0.553,0.553,0.551,0.55,0.549,0.549,0.548,0.547,0.547,0.547,0.546,0.546,0.545,0.544,0.542,0.541,0.54,0.54,0.539,0.539,0.539,0.538,0.538,0.538,0.537,0.536,0.536,0.533,0.533,0.532,0.531,0.531,0.531,0.531,0.531,0.53,0.53,0.53,0.53,0.529,0.529,0.528,0.527,0.526,0.525,0.525,0.524,0.523,0.523,0.523,0.522,0.522,0.521,0.521,0.519,0.519,0.518,0.518,0.517,0.517,0.517,0.516,0.516,0.516,0.516,0.515,0.515,0.514,0.513,0.512,0.511,0.51,0.51,0.509,0.509,0.509,0.509,0.509,0.508,0.508,0.507,0.507,0.507,0.506,0.505,0.504,0.504,0.504,0.504,0.503,0.502,0.502,0.502,0.501,0.501,0.5,0.499,0.497,0.497,0.497,0.496,0.496,0.495,0.495,0.495,0.495,0.494,0.494,0.493,0.493,0.492,0.492,0.492,0.491,0.489,0.489,0.488,0.488,0.488,0.487,0.486,0.486,0.485,0.485,0.485,0.485,0.484,0.484,0.483,0.483,0.483,0.483,0.483,0.482,0.48275,0.483,0.483,0.0,0.0,0.0,0.0,0.0,0.0,0.0,0.0,0.0,0.0,0.0,0.0,0.0,0.0,0.319,0.318,0.0,0.0,0.316,0.315,0.315,0.315,0.314,0.314,0.314,0.313,0.312,0.312,0.311,0.31,0.31,0.31,0.309,0.309,0.309,0.309,0.309,0.309,0.309,0.309,0.309,0.309,0.309,0.309,0.309,0.309,0.309,0.309,0.309,0.309,0.309,0.31,0.31,0.31,0.31,0.31,0.31,0.311,0.311,0.312,0.312,0.312,0.312,0.312,0.313,0.313,0.313,0.3135,0.314,0.314,0.315,0.315,0.315,0.315,0.315,0.316,0.316,0.317,0.317,0.317,0.317,0.317,0.317,0.317,0.317,0.317,0.317,0.3175,0.318,0.318,0.318,0.318,0.318,0.318,0.319,0.319,0.32,0.32,0.32,0.32,0.321,0.321,0.321,0.321,0.321,0.321,0.322,0.322,0.3225,0.323,0.323,0.323,0.323,0.324,0.324,0.324,0.324,0.325,0.325,0.326,0.326,0.326,0.326,0.326,0.326,0.327,0.327,0.327,0.327,0.3275,0.328,0.328,0.329,0.329,0.329,0.329,0.329,0.329,0.33,0.33,0.33,0.331,0.331,0.331,0.332,0.332,0.332,0.332,0.3325,0.333,0.333,0.334,0.334,0.335,0.335,0.335,0.336,0.336,0.337,0.337,0.338,0.3385,0.339,0.339,0.34,0.341,0.342,0.342,0.34299999999999997,0.344,0.345,0.347,0.348,0.3485,0.349,0.35,0.351,0.352,0.354,0.3545,0.355,0.0,0.0,0.0,0.359,0.359,0.36,0.361,0.362,0.0,0.0,0.0,0.0,0.0,0.0,0.0,0.0,0.0,0.4,0.4,0.4,0.399,0.399,0.39875000000000005,0.399,0.398,0.398,0.398,0.398,0.397,0.397,0.397,0.397,0.397,0.397,0.397,0.397,0.397,0.397,0.397,0.397,0.397,0.397,0.397,0.396,0.395,0.395,0.394,0.394,0.394,0.394,0.393,0.393,0.393,0.393,0.392,0.392,0.392,0.392,0.391,0.391,0.39,0.39,0.39,0.389,0.389,0.389,0.389,0.389,0.389,0.389,0.389,0.388,0.388,0.388,0.388,0.386,0.386,0.385,0.385,0.385,0.384,0.384,0.384,0.383,0.383,0.382,0.382,0.382,0.382,0.381,0.381,0.381,0.381,0.381,0.38,0.38,0.38,0.38,0.38,0.379,0.379,0.378,0.378,0.378,0.378,0.377,0.377,0.377,0.377,0.377,0.377,0.377,0.377,0.377,0.377,0.376,0.376,0.376,0.376,0.375,0.375,0.374,0.373,0.373,0.373,0.373,0.372,0.371,0.37,0.369,0.369,0.369,0.368,0.368,0.367,0.367,0.366,0.366,0.366,0.366,0.366,0.366,0.366,0.366,0.365,0.365,0.365,0.365,0.365,0.365,0.364,0.364,0.364,0.364,0.363,0.363,0.362,0.362,0.362,0.362,0.362,0.361,0.36,0.36,0.359,0.359,0.359,0.359,0.359,0.358,0.3585,0.359,0.359,0.358,0.358,0.358,0.358,0.358,0.358,0.358,0.358,0.0,0.0,0.0,0.0,0.0,0.0,0.0,0.0,0.0,0.0,0.0,0.0,0.0,0.0,0.0,0.0
0.0,0.0,0.0,0.0,0.0,0.0,0.0,0.0,0.0,0.0,0.0,0.0,0.0,0.0,0.0,0.0,0.0,0.0,0.0,0.0,0.0,0.572,0.572,0.572,0.572,0.571,0.571,0.571,0.57,0.57,0.568,0.567,0.566,0.566,0.566,0.565,0.565,0.564,0.564,0.564,0.563,0.563,0.562,0.561,0.56,0.559,0.558,0.557,0.556,0.556,0.555,0.555,0.555,0.554,0.554,0.553,0.553,0.552,0.55,0.549,0.549,0.548,0.548,0.548,0.547,0.547,0.546,0.545,0.544,0.543,0.542,0.541,0.54,0.54,0.539,0.539,0.538,0.538,0.538,0.537,0.537,0.536,0.535,0.535,0.533,0.532,0.531,0.531,0.531,0.53,0.53,0.529,0.528,0.528,0.528,0.527,0.527,0.526,0.526,0.526,0.525,0.525,0.524,0.524,0.523,0.523,0.522,0.522,0.521,0.519,0.518,0.518,0.517,0.517,0.517,0.516,0.516,0.516,0.516,0.516,0.515,0.514,0.514,0.514,0.513,0.511,0.51,0.51,0.509,0.509,0.509,0.509,0.508,0.508,0.507,0.507,0.507,0.506,0.505,0.504,0.504,0.504,0.503,0.502,0.502,0.502,0.502,0.502,0.502,0.501,0.5,0.5,0.499,0.498,0.496,0.496,0.496,0.495,0.495,0.495,0.495,0.494,0.494,0.493,0.492,0.492,0.491,0.491,0.49,0.49,0.489,0.489,0.489,0.488,0.488,0.487,0.487,0.485,0.485,0.484,0.484,0.483,0.483,0.483,0.483,0.483,0.482,0.482,0.482,0.482,0.482,0.482,0.482,0.482,0.482,0.0,0.0,0.0,0.0,0.0,0.0,0.0,0.0,0.0,0.0,0.0,0.0,0.0,0.0,0.0,0.0,0.318,0.317,0.317,0.316,0.315,0.315,0.315,0.315,0.314,0.313,0.313,0.312,0.311,0.31,0.31,0.31,0.309,0.309,0.309,0.309,0.309,0.308,0.308,0.308,0.308,0.308,0.308,0.3085,0.309,0.309,0.309,0.309,0.309,0.309,0.309,0.31,0.31,0.31,0.31,0.31,0.31,0.311,0.311,0.311,0.312,0.312,0.312,0.312,0.313,0.313,0.313,0.313,0.313625,0.314,0.314,0.315,0.315,0.315,0.315,0.315,0.316,0.316,0.317,0.317,0.317,0.317,0.317,0.317,0.317,0.317,0.317,0.317,0.317625,0.318,0.318,0.318,0.318,0.318,0.318,0.319,0.319,0.32,0.32,0.32,0.321,0.321,0.321,0.321,0.321,0.322,0.322,0.322,0.3225,0.323,0.323,0.323,0.323,0.323,0.324,0.324,0.324,0.325,0.325,0.326,0.326,0.326,0.326,0.326,0.326,0.327,0.327,0.327,0.3275,0.328,0.328,0.328,0.329,0.329,0.329,0.329,0.33,0.33,0.33,0.33,0.331,0.331,0.331,0.332,0.332,0.332,0.332,0.3325,0.333,0.333,0.334,0.334,0.335,0.335,0.335,0.335,0.336,0.336,0.337,0.3375,0.338,0.3385,0.339,0.339,0.34,0.341,0.342,0.342,0.343,0.34375,0.345,0.346,0.347,0.348,0.348625,0.349,0.351,0.352,0.353,0.35424999999999995,0.355,0.0,0.0,0.0,0.359,0.36,0.3605,0.361,0.3615,0.0,0.0,0.0,0.0,0.0,0.0,0.0,0.0,0.399,0.399,0.399,0.399,0.399,0.399,0.399,0.398,0.398,0.398,0.398,0.397,0.397,0.397,0.397,0.397,0.396,0.396,0.396,0.396,0.396,0.396,0.396,0.396,0.396,0.396,0.396,0.394,0.394,0.394,0.394,0.393,0.393,0.393,0.393,0.393,0.392,0.392,0.391,0.391,0.391,0.39,0.39,0.39,0.389,0.389,0.389,0.389,0.389,0.389,0.389,0.388,0.389,0.388,0.388,0.388,0.387,0.386,0.386,0.385,0.385,0.385,0.384,0.384,0.384,0.383,0.382,0.382,0.382,0.381,0.381,0.381,0.381,0.381,0.381,0.38,0.38,0.379,0.379,0.378,0.378,0.378,0.378,0.378,0.378,0.378,0.377,0.377,0.377,0.377,0.376,0.376,0.376,0.376,0.375,0.375,0.375,0.375,0.375,0.375,0.374,0.374,0.374,0.374,0.373,0.373,0.373,0.373,0.373,0.372,0.372,0.371,0.37,0.37,0.369,0.368,0.367,0.367,0.366,0.366,0.366,0.366,0.366,0.366,0.366,0.365,0.365,0.365,0.365,0.364,0.364,0.364,0.364,0.364,0.363,0.363,0.363,0.362,0.362,0.362,0.362,0.362,0.361,0.361,0.361,0.36,0.36,0.359,0.359,0.359,0.358,0.358,0.358,0.358,0.358,0.358,0.358,0.358,0.358,0.358,0.358,0.358,0.358,0.358,0.0,0.0,0.0,0.0,0.0,0.0,0.0,0.0,0.0,0.0,0.0,0.0,0.0,0.0,0.0,0.0,0.0,0.0
0.0,0.0,0.0,0.0,0.0,0.0,0.0,0.0,0.0,0.0,0.0,0.0,0.0,0.0,0.0,0.0,0.0,0.0,0.0,0.0,0.0,0.571,0.571,0.57,0.57,0.569,0.567,0.566,0.566,0.566,0.565,0.565,0.565,0.564,0.564,0.564,0.563,0.563,0.563,0.562,0.562,0.561,0.56,0.558,0.557,0.556,0.556,0.555,0.555,0.555,0.554,0.553,0.552,0.551,0.549,0.549,0.549,0.548,0.548,0.547,0.547,0.547,0.547,0.546,0.546,0.544,0.543,0.541,0.54,0.54,0.54,0.539,0.539,0.538,0.538,0.537,0.536,0.536,0.535,0.534,0.534,0.533,0.532,0.532,0.531,0.531,0.53,0.529,0.528,0.527,0.527,0.526,0.526,0.525,0.525,0.525,0.525,0.524,0.524,0.524,0.523,0.523,0.523,0.523,0.522,0.521,0.519,0.519,0.517,0.517,0.516,0.516,0.516,0.516,0.516,0.515,0.515,0.514,0.514,0.514,0.513,0.512,0.511,0.51,0.51,0.509,0.509,0.509,0.508,0.508,0.507,0.507,0.506,0.505,0.505,0.504,0.504,0.503,0.503,0.502,0.502,0.502,0.502,0.502,0.501,0.501,0.5,0.5,0.499,0.498,0.497,0.496,0.496,0.495,0.495,0.495,0.495,0.495,0.494,0.493,0.493,0.492,0.491,0.49,0.49,0.489,0.489,0.489,0.489,0.488,0.488,0.488,0.487,0.487,0.486,0.485,0.484,0.483,0.483,0.482,0.482,0.482,0.482,0.482,0.482,0.481,0.481,0.481,0.481,0.481,0.481,0.481,0.481,0.0,0.0,0.0,0.0,0.0,0.0,0.0,0.0,0.0,0.0,0.0,0.0,0.0,0.0,0.0,0.0,0.0,0.0,0.317,0.317,0.317,0.315,0.315,0.315,0.315,0.315,0.314,0.313,0.313,0.312,0.311,0.31,0.31,0.31,0.309,0.309,0.309,0.308,0.308,0.308,0.308,0.308,0.308,0.308,0.308,0.3085,0.309,0.309,0.309,0.309,0.309,0.309,0.31,0.31,0.31,0.31,0.31,0.31,0.31,0.311,0.311,0.312,0.312,0.312,0.312,0.313,0.313,0.313,0.313,0.3135,0.314,0.314,0.314,0.315,0.315,0.315,0.315,0.315,0.316,0.316,0.316,0.317,0.317,0.317,0.317,0.317,0.317,0.3175,0.318,0.318,0.318,0.318,0.318,0.318,0.318,0.318,0.319,0.319,0.32,0.32,0.32,0.321,0.321,0.321,0.321,0.321,0.322,0.322,0.322,0.3225,0.323,0.323,0.323,0.323,0.324,0.324,0.324,0.324,0.325,0.325,0.326,0.326,0.326,0.326,0.326,0.327,0.327,0.327,0.327,0.3275,0.328,0.328,0.329,0.329,0.329,0.329,0.329,0.33,0.33,0.33,0.331,0.331,0.332,0.332,0.332,0.332,0.3325,0.333,0.333,0.333,0.334,0.334,0.335,0.335,0.335,0.335,0.336,0.336,0.336,0.337,0.3375,0.338,0.338,0.339,0.339,0.341,0.341,0.342,0.342,0.343,0.3435,0.344,0.345,0.346,0.348,0.3485,0.349,0.351,0.352,0.353,0.354,0.355,0.0,0.0,0.0,0.359,0.36,0.361,0.362,0.362,0.362,0.0,0.0,0.0,0.0,0.0,0.0,0.0,0.0,0.0,0.3985,0.399,0.399,0.399,0.399,0.398,0.398,0.398,0.398,0.397,0.397,0.397,0.397,0.396,0.396,0.395,0.395,0.395,0.395,0.395,0.395,0.395,0.394,0.394,0.394,0.394,0.39325000000000004,0.393,0.393,0.393,0.392,0.392,0.392,0.391,0.391,0.391,0.391,0.39,0.389,0.389,0.389,0.389,0.389,0.389,0.389,0.389,0.388,0.388,0.388,0.388,0.388,0.388,0.388,0.387,0.386,0.385,0.385,0.385,0.385,0.384,0.384,0.383,0.382,0.382,0.382,0.381,0.381,0.381,0.381,0.381,0.381,0.38,0.38,0.379,0.379,0.378,0.378,0.377,0.377,0.377,0.377,0.377,0.377,0.377,0.377,0.376,0.376,0.375,0.375,0.374,0.374,0.374,0.373,0.373,0.373,0.373,0.373,0.373,0.373,0.373,0.373,0.373,0.373,0.373,0.373,0.372,0.372,0.371,0.371,0.37,0.37,0.369,0.369,0.368,0.367,0.366,0.366,0.366,0.366,0.365,0.365,0.365,0.365,0.364,0.364,0.364,0.364,0.364,0.363,0.363,0.363,0.363,0.363,0.362,0.362,0.362,0.362,0.361,0.361,0.361,0.36,0.36,0.36,0.359,0.359,0.359,0.358,0.358,0.358,0.358,0.357,0.357,0.357,0.357,0.357,0.357,0.357,0.357,0.357,0.357,0.356,0.356,0.3565,0.0,0.0,0.0,0.0,0.0,0.0,0.0,0.0,0.0,0.0,0.0,0.0,0.0,0.0,0.0,0.0,0.0,0.0
0.0,0.0,0.0,0.0,0.0,0.0,0.0,0.0,0.0,0.0,0.0,0.0,0.0,0.0,0.0,0.0,0.0,0.0,0.0,0.0,0.0,0.0,0.568,0.566,0.566,0.565,0.565,0.565,0.564,0.564,0.564,0.564,0.563,0.563,0.563,0.562,0.561,0.561,0.56,0.559,0.558,0.557,0.556,0.556,0.555,0.555,0.554,0.554,0.552,0.551,0.55,0.549,0.548,0.547,0.547,0.547,0.547,0.547,0.547,0.546,0.546,0.545,0.544,0.544,0.542,0.54,0.54,0.539,0.539,0.539,0.538,0.537,0.536,0.536,0.535,0.534,0.534,0.533,0.532,0.532,0.532,0.531,0.531,0.531,0.53,0.529,0.528,0.526,0.525,0.525,0.524,0.524,0.524,0.524,0.524,0.523,0.523,0.523,0.523,0.523,0.522,0.522,0.521,0.52,0.519,0.517,0.516,0.516,0.516,0.516,0.515,0.515,0.514,0.514,0.514,0.513,0.512,0.511,0.511,0.511,0.51,0.509,0.509,0.509,0.509,0.508,0.508,0.507,0.507,0.506,0.505,0.504,0.504,0.503,0.503,0.502,0.502,0.502,0.502,0.502,0.501,0.501,0.5,0.5,0.499,0.498,0.498,0.497,0.496,0.0,0.0,0.495,0.495,0.494,0.494,0.494,0.493,0.493,0.492,0.491,0.49,0.489,0.489,0.489,0.488,0.488,0.488,0.487,0.487,0.487,0.487,0.486,0.485,0.484,0.484,0.483,0.483,0.482,0.482,0.482,0.482,0.481,0.481,0.481,0.481,0.48,0.48,0.479,0.479,0.479,0.479,0.479,0.0,0.0,0.0,0.0,0.0,0.0,0.0,0.0,0.0,0.0,0.0,0.0,0.0,0.0,0.0,0.0,0.0,0.0,0.317,0.317,0.317,0.316,0.315,0.315,0.315,0.315,0.315,0.314,0.313,0.312,0.311,0.31,0.31,0.309,0.309,0.309,0.308,0.308,0.308,0.308,0.308,0.308,0.308,0.308,0.308,0.308,0.3085,0.309,0.309,0.309,0.309,0.309,0.309,0.31,0.31,0.31,0.31,0.31,0.31,0.311,0.311,0.312,0.312,0.312,0.312,0.312,0.313,0.313,0.313,0.313,0.3135,0.314,0.314,0.314,0.315,0.315,0.315,0.315,0.315,0.316,0.316,0.316,0.317,0.317,0.317,0.317,0.317,0.3175,0.318,0.318,0.318,0.318,0.318,0.318,0.318,0.318,0.318,0.319,0.319,0.32,0.32,0.321,0.321,0.321,0.321,0.321,0.322,0.322,0.3225,0.323,0.323,0.323,0.323,0.323,0.324,0.324,0.324,0.324,0.325,0.325,0.326,0.326,0.326,0.326,0.327,0.327,0.327,0.327,0.327,0.3275,0.328,0.328,0.329,0.329,0.329,0.329,0.33,0.33,0.33,0.331,0.331,0.332,0.332,0.332,0.332,0.3325,0.333,0.333,0.333,0.334,0.334,0.335,0.335,0.335,0.335,0.336,0.336,0.336,0.337,0.337,0.3375,0.338,0.339,0.339,0.34,0.341,0.341,0.342,0.343,0.34324999999999994,0.344,0.344,0.345,0.346,0.348,0.3485,0.349,0.351,0.352,0.353,0.354,0.355,0.357,0.358,0.359,0.36,0.36025,0.361,0.362,0.363,0.363,0.364,0.0,0.0,0.0,0.0,0.0,0.0,0.0,0.0,0.0,0.398,0.398,0.398,0.398,0.398,0.398,0.398,0.397,0.397,0.397,0.397,0.396,0.396,0.395,0.395,0.394,0.394,0.394,0.394,0.394,0.394,0.394,0.393,0.393,0.393,0.393,0.392,0.392,0.392,0.391,0.391,0.391,0.39,0.39,0.39,0.389,0.389,0.389,0.389,0.389,0.389,0.388,0.388,0.388,0.388,0.387,0.387,0.386,0.386,0.386,0.386,0.386,0.386,0.386,0.385,0.385,0.384,0.384,0.383,0.383,0.382,0.382,0.381,0.381,0.381,0.381,0.38,0.38,0.38,0.38,0.379,0.378,0.378,0.378,0.377,0.377,0.377,0.377,0.377,0.377,0.377,0.376,0.376,0.376,0.376,0.375,0.374,0.374,0.373,0.373,0.373,0.373,0.373,0.372,0.372,0.371,0.372,0.371,0.371,0.0,0.0,0.0,0.371,0.371,0.37,0.37,0.37,0.37,0.369,0.369,0.369,0.368,0.367,0.366,0.366,0.366,0.365,0.365,0.365,0.364,0.364,0.364,0.363,0.363,0.363,0.363,0.363,0.362,0.362,0.362,0.362,0.362,0.362,0.362,0.362,0.361,0.36,0.36,0.359,0.359,0.359,0.359,0.359,0.359,0.358,0.358,0.358,0.357,0.357,0.357,0.356,0.356,0.356,0.356,0.356,0.356,0.356,0.356,0.355,0.355,0.355,0.355,0.355,0.0,0.0,0.0,0.0,0.0,0.0,0.0,0.0,0.0,0.0,0.0,0.0,0.0,0.0,0.0,0.0,0.0,0.0
0.0,0.0,0.0,0.0,0.0,0.0,0.0,0.0,0.0,0.0,0.0,0.0,0.0,0.0,0.0,0.0,0.0,0.0,0.0,0.0,0.0,0.0,0.565,0.565,0.565,0.564,0.564,0.563,0.563,0.563,0.562,0.562,0.561,0.561,0.56,0.559,0.558,0.557,0.556,0.556,0.556,0.555,0.555,0.554,0.553,0.552,0.551,0.549,0.548,0.547,0.547,0.547,0.546,0.546,0.545,0.545,0.544,0.544,0.543,0.543,0.542,0.542,0.541,0.54,0.539,0.539,0.538,0.538,0.537,0.536,0.535,0.534,0.533,0.533,0.532,0.532,0.531,0.531,0.531,0.531,0.531,0.53,0.529,0.528,0.527,0.526,0.525,0.524,0.523,0.523,0.523,0.523,0.523,0.523,0.523,0.522,0.522,0.522,0.522,0.521,0.52,0.518,0.517,0.516,0.516,0.516,0.515,0.515,0.514,0.514,0.513,0.512,0.511,0.511,0.511,0.51,0.51,0.509,0.509,0.509,0.509,0.509,0.508,0.508,0.507,0.507,0.505,0.505,0.504,0.503,0.503,0.502,0.502,0.502,0.502,0.502,0.501,0.501,0.5,0.5,0.499,0.499,0.498,0.497,0.496,0.496,0.496,0.495,0.495,0.0,0.0,0.493,0.493,0.492,0.492,0.491,0.491,0.49,0.489,0.489,0.489,0.488,0.487,0.487,0.487,0.486,0.486,0.485,0.485,0.485,0.484,0.484,0.483,0.482,0.482,0.482,0.482,0.481,0.48,0.48,0.48,0.48,0.48,0.479,0.478,0.478,0.477,0.477,0.477,0.477,0.477,0.477,0.0,0.0,0.0,0.0,0.0,0.0,0.0,0.0,0.0,0.0,0.0,0.0,0.0,0.0,0.0,0.0,0.0,0.317,0.317,0.317,0.316,0.316,0.315,0.315,0.315,0.315,0.314,0.314,0.313,0.312,0.311,0.31,0.31,0.309,0.309,0.308,0.308,0.308,0.308,0.308,0.308,0.308,0.308,0.308,0.308,0.308,0.3085,0.309,0.309,0.309,0.309,0.309,0.31,0.31,0.31,0.31,0.31,0.31,0.311,0.311,0.311,0.312,0.312,0.312,0.312,0.313,0.313,0.313,0.313,0.313,0.313625,0.314,0.314,0.314,0.315,0.315,0.315,0.315,0.315,0.316,0.316,0.316,0.317,0.317,0.317,0.317,0.3175,0.318,0.318,0.318,0.318,0.318,0.318,0.318,0.318,0.318,0.319,0.319,0.319,0.32,0.32,0.321,0.321,0.321,0.322,0.322,0.322,0.3225,0.323,0.323,0.323,0.323,0.323,0.323,0.324,0.324,0.324,0.325,0.325,0.326,0.326,0.326,0.326,0.327,0.327,0.327,0.327,0.3275,0.328,0.328,0.328,0.329,0.329,0.329,0.329,0.33,0.33,0.331,0.331,0.332,0.332,0.332,0.332,0.3325,0.333,0.333,0.333,0.334,0.335,0.335,0.335,0.335,0.336,0.336,0.336,0.336,0.337,0.337,0.3375,0.338,0.338,0.339,0.339,0.34,0.341,0.341,0.342,0.343,0.34375,0.344,0.345,0.345,0.346,0.348,0.0,0.0,0.0,0.352,0.353,0.354,0.355,0.356,0.358,0.359,0.36,0.36074999999999996,0.361,0.362,0.363,0.364,0.364,0.0,0.0,0.0,0.0,0.0,0.0,0.0,0.0,0.398,0.398,0.398,0.398,0.398,0.398,0.398,0.398,0.397,0.397,0.397,0.396,0.396,0.396,0.394,0.394,0.394,0.394,0.394,0.393,0.393,0.393,0.393,0.393,0.393,0.392,0.392,0.391,0.391,0.39,0.39,0.39,0.389,0.389,0.389,0.389,0.389,0.389,0.389,0.388,0.388,0.388,0.388,0.387,0.387,0.386,0.386,0.386,0.386,0.386,0.385,0.385,0.385,0.385,0.385,0.385,0.0,0.0,0.383,0.382,0.381,0.381,0.381,0.381,0.381,0.38,0.38,0.379,0.379,0.379,0.378,0.378,0.378,0.377,0.377,0.377,0.377,0.377,0.376,0.376,0.376,0.376,0.375,0.375,0.375,0.374,0.374,0.373,0.373,0.373,0.373,0.372,0.371,0.371,0.37,0.37,0.37,0.37,0.37,0.37,0.369,0.0,0.0,0.0,0.369,0.369,0.369,0.369,0.369,0.369,0.368,0.368,0.367,0.367,0.366,0.366,0.366,0.365,0.365,0.364,0.364,0.363,0.363,0.363,0.362,0.362,0.362,0.362,0.362,0.362,0.362,0.362,0.362,0.362,0.362,0.36,0.36,0.359,0.359,0.359,0.359,0.358,0.358,0.358,0.358,0.358,0.357,0.357,0.356,0.356,0.356,0.356,0.355,0.355,0.355,0.355,0.355,0.355,0.355,0.355,0.355,0.355,0.355,0.354,0.354,0.354,0.0,0.0,0.0,0.0,0.0,0.0,0.0,0.0,0.0,0.0,0.0,0.0,0.0,0.0,0.0,0.0,0.0
0.0,0.0,0.0,0.0,0.0,0.0,0.0,0.0,0.0,0.0,0.0,0.0,0.0,0.0,0.0,0.0,0.0,0.0,0.0,0.0,0.0,0.0,0.0,0.5635,0.563,0.563,0.563,0.561,0.561,0.561,0.56,0.559,0.559,0.558,0.557,0.556,0.556,0.556,0.555,0.555,0.555,0.554,0.553,0.551,0.55,0.549,0.548,0.547,0.547,0.546,0.545,0.544,0.543,0.542,0.542,0.542,0.541,0.54,0.54,0.54,0.54,0.539,0.539,0.538,0.537,0.537,0.536,0.535,0.534,0.533,0.532,0.532,0.532,0.531,0.531,0.53,0.53,0.529,0.529,0.528,0.528,0.527,0.526,0.525,0.524,0.524,0.523,0.523,0.522,0.522,0.521,0.521,0.521,0.521,0.52,0.519,0.519,0.519,0.518,0.517,0.517,0.516,0.516,0.515,0.514,0.513,0.512,0.512,0.511,0.511,0.51,0.509,0.509,0.509,0.509,0.509,0.508,0.508,0.508,0.508,0.508,0.507,0.507,0.506,0.505,0.504,0.504,0.503,0.502,0.502,0.502,0.501,0.501,0.5,0.5,0.5,0.499,0.499,0.498,0.497,0.497,0.496,0.496,0.495,0.495,0.495,0.494,0.493,0.493,0.492,0.491,0.491,0.49,0.49,0.49,0.489,0.489,0.489,0.488,0.487,0.487,0.486,0.485,0.485,0.484,0.484,0.483,0.483,0.483,0.483,0.482,0.482,0.482,0.481,0.481,0.481,0.479,0.478,0.478,0.478,0.478,0.478,0.478,0.477,0.476,0.476,0.476,0.476,0.476,0.476,0.476,0.476,0.0,0.0,0.0,0.0,0.0,0.0,0.0,0.0,0.0,0.0,0.0,0.0,0.0,0.32,0.0,0.0,0.318,0.317,0.317,0.317,0.316,0.316,0.315,0.315,0.315,0.315,0.314,0.313,0.312,0.312,0.31,0.31,0.31,0.309,0.309,0.308,0.308,0.308,0.308,0.308,0.308,0.308,0.308,0.308,0.308,0.308,0.3085,0.309,0.309,0.309,0.309,0.309,0.31,0.31,0.31,0.31,0.31,0.31,0.311,0.311,0.311,0.312,0.312,0.312,0.312,0.313,0.313,0.313,0.313,0.3135,0.314,0.314,0.314,0.315,0.315,0.315,0.315,0.315,0.315,0.316,0.316,0.316,0.317,0.317,0.317,0.3175,0.318,0.318,0.318,0.318,0.318,0.318,0.318,0.318,0.318,0.319,0.319,0.319,0.32,0.32,0.32,0.321,0.321,0.321,0.322,0.322,0.3225,0.323,0.323,0.323,0.323,0.323,0.324,0.324,0.324,0.325,0.325,0.325,0.326,0.326,0.326,0.327,0.327,0.327,0.327,0.3275,0.328,0.328,0.328,0.329,0.329,0.329,0.329,0.33,0.33,0.33,0.331,0.331,0.332,0.332,0.332,0.3325,0.333,0.333,0.333,0.334,0.335,0.335,0.335,0.335,0.335,0.336,0.336,0.337,0.337,0.337,0.3375,0.338,0.338,0.338,0.339,0.339,0.34,0.341,0.342,0.342,0.343,0.34375,0.345,0.34524999999999995,0.346,0.346,0.348,0.0,0.0,0.0,0.0,0.0,0.0,0.355,0.357,0.35775,0.359,0.36,0.361,0.362,0.362,0.362,0.363,0.364,0.0,0.0,0.0,0.0,0.0,0.0,0.0,0.0,0.397,0.397,0.397,0.397,0.397,0.397,0.397,0.397,0.397,0.397,0.397,0.396,0.395,0.395,0.394,0.394,0.393,0.393,0.393,0.393,0.393,0.393,0.392,0.392,0.392,0.391,0.391,0.39,0.39,0.389,0.389,0.389,0.389,0.389,0.388,0.388,0.388,0.388,0.388,0.388,0.387,0.387,0.386,0.386,0.386,0.385,0.385,0.385,0.385,0.385,0.385,0.385,0.384,0.384,0.384,0.383,0.0,0.0,0.0,0.381,0.381,0.381,0.38,0.38,0.379,0.379,0.378,0.378,0.378,0.377,0.377,0.377,0.377,0.377,0.37625,0.376,0.376,0.375,0.375,0.374,0.374,0.374,0.374,0.374,0.373,0.373,0.373,0.373,0.373,0.372,0.371,0.37,0.37,0.37,0.37,0.369,0.369,0.369,0.369,0.369,0.369,0.369,0.369,0.369,0.368,0.368,0.368,0.368,0.368,0.368,0.367,0.367,0.366,0.366,0.366,0.366,0.365,0.365,0.363,0.363,0.363,0.362,0.362,0.362,0.362,0.362,0.362,0.362,0.362,0.361,0.361,0.361,0.361,0.36,0.36,0.36,0.359,0.359,0.359,0.359,0.358,0.358,0.358,0.358,0.357,0.357,0.356,0.356,0.355,0.355,0.355,0.355,0.355,0.355,0.355,0.355,0.355,0.355,0.355,0.354,0.354,0.354,0.354,0.353,0.353,0.353,0.353,0.0,0.0,0.0,0.0,0.0,0.0,0.0,0.0,0.0,0.0,0.0,0.0,0.0,0.0,0.0,0.0,0.0
0.0,0.0,0.0,0.0,0.0,0.0,0.0,0.0,0.0,0.0,0.0,0.0,0.0,0.0,0.0,0.0,0.0,0.0,0.0,0.0,0.0,0.0,0.0,0.562,0.561,0.561,0.56,0.559,0.559,0.558,0.558,0.557,0.556,0.556,0.555,0.555,0.555,0.555,0.554,0.553,0.552,0.551,0.549,0.549,0.548,0.547,0.546,0.545,0.544,0.543,0.542,0.541,0.54,0.54,0.54,0.539,0.539,0.539,0.538,0.538,0.538,0.537,0.536,0.535,0.535,0.534,0.533,0.532,0.532,0.531,0.531,0.531,0.53,0.529,0.529,0.528,0.527,0.526,0.526,0.525,0.525,0.524,0.524,0.523,0.522,0.522,0.521,0.521,0.519,0.519,0.519,0.518,0.518,0.517,0.517,0.517,0.517,0.516,0.516,0.516,0.515,0.514,0.513,0.512,0.511,0.51,0.51,0.509,0.509,0.509,0.509,0.509,0.508,0.508,0.508,0.507,0.507,0.507,0.507,0.506,0.506,0.505,0.504,0.504,0.503,0.502,0.502,0.502,0.501,0.5,0.5,0.499,0.499,0.499,0.498,0.498,0.497,0.497,0.496,0.496,0.495,0.495,0.495,0.494,0.493,0.492,0.491,0.491,0.49,0.489,0.489,0.489,0.489,0.488,0.488,0.488,0.488,0.487,0.486,0.485,0.484,0.483,0.483,0.483,0.482,0.482,0.482,0.482,0.482,0.482,0.482,0.481,0.481,0.479,0.478,0.478,0.477,0.477,0.476,0.476,0.476,0.476,0.476,0.476,0.476,0.475,0.475,0.475,0.475,0.475,0.475,0.4745,0.0,0.0,0.0,0.0,0.0,0.0,0.0,0.0,0.0,0.0,0.0,0.0,0.0,0.0,0.0,0.0,0.318,0.317,0.317,0.317,0.316,0.316,0.315,0.315,0.315,0.315,0.314,0.313,0.312,0.311,0.31,0.31,0.309,0.309,0.309,0.308,0.308,0.308,0.308,0.308,0.308,0.308,0.308,0.308,0.308,0.308,0.3085,0.309,0.309,0.309,0.309,0.309,0.31,0.31,0.31,0.31,0.31,0.311,0.311,0.311,0.312,0.312,0.312,0.312,0.312,0.313,0.313,0.313,0.3135,0.314,0.314,0.314,0.314,0.315,0.315,0.315,0.315,0.315,0.315,0.316,0.316,0.316,0.317,0.317,0.317,0.3175,0.318,0.318,0.318,0.318,0.318,0.318,0.318,0.318,0.318,0.319,0.319,0.32,0.32,0.32,0.321,0.321,0.321,0.322,0.322,0.3225,0.323,0.323,0.323,0.323,0.324,0.324,0.324,0.324,0.325,0.325,0.326,0.326,0.326,0.326,0.327,0.327,0.327,0.3275,0.328,0.328,0.328,0.329,0.329,0.329,0.329,0.329,0.33,0.33,0.331,0.331,0.332,0.332,0.332,0.332,0.3325,0.333,0.333,0.333,0.334,0.335,0.335,0.335,0.335,0.336,0.336,0.336,0.337,0.3375,0.338,0.338,0.338,0.338,0.338,0.339,0.339,0.34,0.341,0.342,0.342,0.343,0.3435,0.344,0.345,0.346,0.347,0.348,0.348,0.0,0.0,0.0,0.0,0.0,0.0,0.357,0.359,0.359,0.36,0.361,0.362,0.362,0.363,0.363,0.364,0.364,0.0,0.0,0.0,0.0,0.0,0.0,0.396,0.396,0.396,0.397,0.397,0.397,0.397,0.397,0.397,0.397,0.396,0.396,0.395,0.394,0.394,0.393,0.393,0.393,0.393,0.392,0.392,0.392,0.392,0.391,0.391,0.391,0.39,0.39,0.389,0.389,0.389,0.389,0.388,0.388,0.388,0.387,0.387,0.387,0.387,0.386,0.386,0.386,0.386,0.386,0.385,0.385,0.385,0.385,0.384,0.384,0.384,0.384,0.383,0.383,0.383,0.382,0.382,0.381,0.0,0.0,0.0,0.38,0.38,0.379,0.378,0.378,0.377,0.377,0.377,0.377,0.377,0.377,0.377,0.376,0.376,0.376,0.375,0.374,0.374,0.374,0.373,0.373,0.373,0.373,0.373,0.373,0.373,0.373,0.372,0.372,0.37,0.37,0.37,0.369,0.369,0.369,0.369,0.369,0.369,0.369,0.368,0.368,0.367,0.367,0.367,0.366,0.366,0.366,0.366,0.366,0.366,0.366,0.366,0.366,0.366,0.365,0.365,0.365,0.363,0.363,0.362,0.362,0.362,0.362,0.362,0.362,0.362,0.361,0.361,0.361,0.361,0.36,0.36,0.36,0.36,0.359,0.359,0.359,0.359,0.358,0.358,0.358,0.358,0.358,0.357,0.356,0.356,0.356,0.355,0.355,0.355,0.355,0.355,0.355,0.355,0.354,0.354,0.354,0.354,0.354,0.354,0.354,0.353,0.353,0.352,0.352,0.352,0.352,0.352,0.0,0.0,0.0,0.0,0.0,0.0,0.0,0.0,0.0,0.0,0.0,0.0,0.0,0.0,0.0,0.0,0.0
0.0,0.0,0.0,0.0,0.0,0.0,0.0,0.0,0.0,0.0,0.0,0.0,0.0,0.0,0.0,0.0,0.0,0.0,0.0,0.0,0.0,0.0,0.559,0.559,0.559,0.558,0.558,0.557,0.556,0.556,0.555,0.555,0.555,0.555,0.554,0.554,0.553,0.552,0.551,0.55,0.549,0.548,0.547,0.547,0.546,0.544,0.543,0.542,0.541,0.54,0.539,0.539,0.539,0.538,0.538,0.537,0.537,0.536,0.536,0.536,0.535,0.534,0.533,0.532,0.532,0.531,0.531,0.531,0.53,0.529,0.529,0.528,0.527,0.526,0.526,0.525,0.525,0.524,0.524,0.524,0.523,0.523,0.523,0.521,0.52,0.519,0.519,0.518,0.517,0.517,0.517,0.516,0.516,0.516,0.516,0.516,0.515,0.514,0.514,0.513,0.511,0.511,0.51,0.509,0.509,0.509,0.509,0.508,0.508,0.508,0.507,0.507,0.506,0.506,0.505,0.505,0.505,0.505,0.504,0.504,0.503,0.503,0.502,0.502,0.502,0.502,0.5,0.5,0.499,0.499,0.498,0.497,0.497,0.496,0.496,0.496,0.496,0.495,0.495,0.495,0.494,0.493,0.492,0.491,0.49,0.489,0.489,0.489,0.488,0.488,0.488,0.488,0.487,0.487,0.486,0.485,0.485,0.484,0.483,0.482,0.482,0.482,0.482,0.482,0.481,0.481,0.481,0.481,0.481,0.48,0.479,0.478,0.478,0.477,0.477,0.476,0.476,0.476,0.476,0.475,0.475,0.475,0.475,0.474,0.474,0.474,0.474,0.473,0.473,0.473,0.473,0.473,0.0,0.0,0.0,0.0,0.0,0.0,0.0,0.0,0.0,0.0,0.0,0.0,0.0,0.0,0.0,0.318,0.317,0.317,0.317,0.316,0.316,0.315,0.315,0.315,0.315,0.315,0.314,0.313,0.312,0.31,0.31,0.31,0.309,0.309,0.309,0.308,0.308,0.308,0.308,0.308,0.308,0.308,0.308,0.308,0.308,0.308,0.3085,0.309,0.309,0.309,0.309,0.31,0.31,0.31,0.31,0.31,0.31,0.311,0.311,0.312,0.312,0.312,0.312,0.312,0.312,0.313,0.313,0.313,0.3135,0.314,0.314,0.314,0.314,0.315,0.315,0.315,0.315,0.315,0.315,0.316,0.316,0.316,0.317,0.317,0.317,0.317625,0.318,0.318,0.318,0.318,0.318,0.318,0.318,0.319,0.319,0.319,0.32,0.32,0.32,0.321,0.321,0.321,0.322,0.322,0.3225,0.323,0.323,0.323,0.323,0.324,0.324,0.324,0.324,0.325,0.326,0.326,0.326,0.326,0.326,0.327,0.327,0.327,0.3275,0.328,0.328,0.329,0.329,0.329,0.329,0.329,0.33,0.33,0.33,0.331,0.331,0.332,0.332,0.332,0.3325,0.333,0.333,0.333,0.334,0.334,0.335,0.335,0.335,0.336,0.336,0.336,0.337,0.337,0.3375,0.338,0.338,0.338,0.339,0.339,0.339,0.34,0.341,0.341,0.342,0.342,0.343,0.34375,0.344,0.345,0.346,0.348,0.348,0.3485,0.349,0.35,0.351,0.353,0.354,0.355,0.356,0.358,0.359,0.36,0.361,0.362,0.362,0.363,0.364,0.364,0.365,0.0,0.0,0.0,0.0,0.0,0.0,0.0,0.395,0.395,0.395,0.396,0.396,0.395,0.396,0.396,0.396,0.395,0.395,0.394,0.394,0.393,0.393,0.393,0.392,0.392,0.391,0.391,0.391,0.391,0.39,0.39,0.39,0.389,0.389,0.389,0.389,0.389,0.388,0.387,0.387,0.386,0.386,0.386,0.386,0.385,0.385,0.385,0.385,0.385,0.385,0.385,0.385,0.384,0.383,0.383,0.382,0.382,0.382,0.382,0.381,0.381,0.381,0.381,0.381,0.381,0.38,0.38,0.378,0.378,0.377,0.377,0.377,0.377,0.377,0.377,0.376,0.376,0.376,0.375,0.375,0.374,0.374,0.373,0.373,0.373,0.373,0.373,0.373,0.373,0.373,0.372,0.372,0.372,0.371,0.371,0.37,0.37,0.37,0.369,0.369,0.369,0.369,0.368,0.368,0.368,0.367,0.367,0.366,0.366,0.366,0.366,0.366,0.366,0.365,0.365,0.365,0.365,0.365,0.365,0.365,0.365,0.364,0.364,0.364,0.363,0.362,0.362,0.362,0.362,0.361,0.361,0.361,0.361,0.36,0.36,0.36,0.36,0.359,0.359,0.359,0.359,0.359,0.359,0.358,0.358,0.358,0.35775,0.358,0.357,0.357,0.356,0.356,0.355,0.355,0.355,0.355,0.355,0.354,0.354,0.354,0.354,0.354,0.353,0.353,0.353,0.353,0.353,0.352,0.352,0.352,0.352,0.352,0.352,0.351,0.351,0.351,0.0,0.0,0.0,0.0,0.0,0.0,0.0,0.0,0.0,0.0,0.0,0.0,0.0,0.0,0.0,0.0,0.0
0.0,0.0,0.0,0.0,0.0,0.0,0.0,0.0,0.0,0.0,0.0,0.0,0.0,0.0,0.0,0.0,0.0,0.0,0.0,0.0,0.0,0.0,0.557,0.557,0.557,0.556,0.556,0.556,0.555,0.555,0.554,0.554,0.553,0.552,0.551,0.55,0.55,0.549,0.548,0.548,0.547,0.547,0.545,0.544,0.542,0.541,0.54,0.539,0.539,0.539,0.538,0.537,0.536,0.535,0.535,0.534,0.534,0.533,0.533,0.533,0.532,0.532,0.531,0.531,0.531,0.53,0.528,0.528,0.527,0.526,0.525,0.525,0.524,0.524,0.524,0.523,0.523,0.523,0.523,0.522,0.522,0.52,0.519,0.518,0.518,0.517,0.517,0.516,0.516,0.516,0.516,0.516,0.515,0.515,0.514,0.513,0.512,0.5115000000000001,0.511,0.51,0.509,0.509,0.509,0.508,0.508,0.508,0.507,0.506,0.506,0.505,0.505,0.504,0.504,0.504,0.503,0.503,0.503,0.503,0.502,0.502,0.502,0.502,0.501,0.501,0.5,0.499,0.498,0.497,0.497,0.496,0.496,0.496,0.495,0.495,0.495,0.495,0.495,0.494,0.493,0.492,0.491,0.49,0.489,0.489,0.488,0.488,0.488,0.488,0.487,0.487,0.486,0.485,0.485,0.485,0.484,0.483,0.483,0.482,0.482,0.482,0.481,0.481,0.481,0.481,0.48,0.48,0.479,0.478,0.478,0.477,0.477,0.477,0.476,0.476,0.476,0.475,0.475,0.475,0.474,0.474,0.474,0.473,0.473,0.472,0.472,0.472,0.471,0.471,0.471,0.471,0.0,0.0,0.0,0.0,0.0,0.0,0.0,0.0,0.0,0.0,0.0,0.0,0.0,0.0,0.325,0.0,0.0,0.318,0.318,0.317,0.317,0.316,0.316,0.315,0.315,0.315,0.315,0.314,0.313,0.312,0.311,0.31,0.31,0.309,0.309,0.309,0.308,0.308,0.308,0.308,0.308,0.308,0.308,0.308,0.308,0.308,0.308,0.308,0.308625,0.309,0.309,0.309,0.309,0.31,0.31,0.31,0.31,0.31,0.311,0.311,0.312,0.312,0.312,0.312,0.312,0.312,0.313,0.313,0.313,0.313,0.313625,0.314,0.314,0.314,0.315,0.315,0.315,0.315,0.315,0.315,0.315,0.316,0.316,0.316,0.317,0.317,0.3175,0.318,0.318,0.318,0.318,0.318,0.318,0.318,0.319,0.319,0.319,0.32,0.32,0.32,0.321,0.321,0.321,0.322,0.322,0.3225,0.323,0.323,0.323,0.323,0.324,0.324,0.324,0.325,0.325,0.326,0.326,0.326,0.326,0.327,0.327,0.327,0.3275,0.328,0.328,0.328,0.329,0.329,0.329,0.329,0.329,0.33,0.33,0.33,0.331,0.332,0.332,0.332,0.332,0.3325,0.333,0.333,0.334,0.334,0.335,0.335,0.335,0.335,0.336,0.336,0.337,0.337,0.3375,0.338,0.338,0.338,0.339,0.339,0.339,0.339,0.34,0.341,0.341,0.342,0.343,0.34324999999999994,0.344,0.345,0.345,0.346,0.347,0.348,0.3485,0.349,0.35,0.351,0.352,0.354,0.3545,0.355,0.357,0.359,0.36,0.36075,0.362,0.362,0.363,0.364,0.365,0.366,0.0,0.0,0.0,0.0,0.0,0.0,0.0,0.0,0.394,0.394,0.394,0.394,0.394,0.394,0.394,0.394,0.394,0.394,0.394,0.393,0.393,0.393,0.392,0.391,0.391,0.39,0.39,0.39,0.389,0.389,0.389,0.389,0.389,0.389,0.389,0.388,0.388,0.387,0.386,0.386,0.386,0.385,0.385,0.385,0.385,0.385,0.385,0.384,0.385,0.384,0.384,0.383,0.382,0.382,0.381,0.381,0.381,0.381,0.381,0.381,0.381,0.381,0.38,0.38,0.379,0.378,0.378,0.377,0.377,0.377,0.377,0.377,0.377,0.376,0.376,0.376,0.375,0.375,0.374,0.374,0.373,0.373,0.373,0.373,0.373,0.373,0.372,0.372,0.372,0.372,0.371,0.371,0.371,0.37,0.37,0.37,0.369,0.369,0.369,0.369,0.368,0.368,0.368,0.367,0.367,0.366,0.366,0.366,0.366,0.366,0.365,0.365,0.365,0.365,0.364,0.364,0.364,0.364,0.364,0.364,0.363,0.363,0.362,0.362,0.362,0.362,0.362,0.361,0.361,0.361,0.36,0.36,0.36,0.359,0.359,0.359,0.359,0.359,0.359,0.358,0.358,0.358,0.358,0.358,0.358,0.357,0.357,0.357,0.356,0.356,0.355,0.355,0.355,0.355,0.355,0.354,0.354,0.354,0.353,0.353,0.353,0.353,0.352,0.352,0.352,0.352,0.352,0.352,0.352,0.351,0.351,0.351,0.351,0.351,0.351,0.351,0.0,0.0,0.0,0.0,0.0,0.0,0.0,0.0,0.0,0.0,0.0,0.0,0.0,0.0,0.0,0.0,0.0,0.0
