0,0,0,0,0,0,0,0,0,0,0,0,0,0,0,0,0,0,0,0,0,0,0,0,0,0.72,0.719,0.719,0.719,0.719,0.719,0.718,0.718,0.717,0.717,0.717,0.716,0.715,0.712,0.71,0.708,0.707,0.706,0.706,0.705,0.704,0.702,0.7,0.698,0.695,0.694,0.693,0.693,0.693,0.693,0.692,0.691,0.69,0.69,0.689,0.688,0.687,0.686,0.685,0.682,0.682,0.681,0.681,0.68,0.68,0.68,0.68,0.679,0.679,0.678,0.678,0.678,0.678,0.677,0.676,0.676,0.674,0.673,0.672,0.671,0.67,0.669,0.669,0.668,0.668,0.668,0.668,0.667,0.667,0.667,0.666,0.666,0.666,0.665,0.664,0.661,0.66,0.658,0.658,0.657,0.656,0.655,0.655,0.654,0.654,0.653,0.652,0.65,0.649,0.648,0.647,0.647,0.646,0.645,0.645,0.645,0.644,0.644,0.644,0.644,0.643,0.643,0.642,0.642,0.642,0.64,0.64,0.639,0.638,0.636,0.636,0,0.635,0.634,0.633,0.633,0.632,0.632,0.632,0.631,0.63,0.63,0.629,0.629,0.628,0.628,0.627,0.626,0.625,0.624,0.624,0.623,0.623,0.623,0.622,0.622,0.622,0.621,0.621,0.621,0.62,0.62,0.619,0.618,0.617,0.616,0.615,0.614,0.614,0.613,0.613,0.613,0.612,0.612,0.612,0.612,0.611,0.611,0.611,0.611,0.61,0.609,0.608,0.608,0.607,0.606,0.605,0.605,0.604,0.603,0.603,0.603,0.602,0.602,0.602,0.602,0.602,0.602,0.601,0.601,0.602,0.602,0.602,0,0,0.603,0.603,0,0,0,0,0,0,0,0,0,0,0,0,0,0,0,0,0,0,0,0,0,0,0,0,0,0,0,0,0,0,0.329,0.329,0.329,0.33,0.33,0.33,0.33,0,0.331,0,0.332,0.332,0.332,0.332,0.332,0.333,0.333,0.333,0.333,0.333,0.333,0.334,0.334,0.334,0.335,0.335,0.335,0.335,0.335,0.336,0.336,0.336,0,0.337,0.337,0.338,0.338,0.338,0.338,0.339,0.339,0.339,0.34,0.34,0.341,0.341,0.341,0.341,0,0.342,0.342,0.342,0.342,0.342,0.343,0.343,0.343,0.344,0.344,0.344,0.345,0.345,0.345,0.345,0.345,0.346,0.347,0.347,0,0.348,0.348,0.348,0.349,0.349,0.35,0.351,0.352,0.352,0,0.354,0.354,0.355,0.356,0.357,0.358,0.358,0.358,0,0.359,0.359,0.36,0.361,0.362,0.363,0.364,0,0.365,0.366,0.366,0.367,0.368,0.369,0.369,0.37,0,0.371,0.372,0.373,0.373,0.373,0.374,0.375,0.376,0.376,0.377,0.377,0,0.378,0.379,0.38,0.38,0.381,0.382,0.383,0,0.385,0.385,0.386,0.388,0.389,0.39,0,0.391,0.393,0.393,0.394,0.396,0.397,0,0.399,0.401,0.402,0.403,0.405,0,0.407,0.407,0.409,0.409,0.41,0.411,0.411,0.412,0,0,0,0,0,0,0,0,0,0,0,0,0,0,0,0.495,0.496,0.496,0.496,0.496,0.496,0.496,0.496,0.495,0.495,0.495,0.495,0.494,0.494,0.493,0.492,0.491,0.49,0.489,0.487,0,0.482,0.48,0.48,0.48,0.481,0.482,0.482,0.483,0.485,0.487,0.488,0.489,0.489,0.489,0.489,0.489,0.489,0.489,0.488,0.488,0.488,0.488,0.487,0.487,0.487,0.486,0.486,0.485,0.485,0.483,0.483,0.483,0.482,0.482,0.482,0.482,0.482,0.481,0.481,0.481,0.481,0.48,0.48,0.48,0.479,0.478,0.477,0.477,0.477,0.477,0.476,0.476,0.476,0.476,0.475,0.475,0.475,0.475,0.474,0.474,0.473,0.473,0.473,0.471,0.471,0.471,0.47,0.47,0.47,0.47,0.469,0.469,0.469,0.468,0.467,0.467,0.465,0.464,0.464,0.464,0.464,0.464,0.463,0.463,0.463,0.463,0.462,0.462,0.462,0.461,0.461,0.46,0.46,0.46,0.459,0.459,0.458,0.458,0.458,0.458,0.458,0.458,0.458,0.458,0.458,0.458,0.457,0.457,0.457,0.457,0.457,0.457,0.456,0.456,0.455,0.455,0.454,0.454,0.453,0.453,0.453,0.452,0.452,0.452,0.452,0.452,0.452,0.452,0.452,0.451,0.451,0.451,0.451,0.45,0.449,0.449,0.448,0.448,0.448,0.447,0.447,0.447,0.447,0.446,0.446,0.446,0.446,0.446,0,0,0,0,0,0,0,0,0,0,0,0,0,0,0,0,0,0,0,0,0,0,0,0,0,0,0,0,0,0,0,0,0,0,0,0,0,0,0,0,0,0,0,0,0,0,0,0,0,0,0,0,0,0,0,0,0,0,0,0,0
0,0,0,0,0,0,0,0,0,0,0,0,0,0,0,0,0,0,0,0,0,0,0,0,0,0.719,0.719,0.718,0.717,0.716,0.715,0.714,0.713,0.712,0.71,0.709,0.709,0.708,0.707,0.706,0.706,0.705,0.703,0.702,0.7,0.699,0.698,0.695,0.694,0.693,0.693,0.692,0.691,0.69,0.69,0.688,0.686,0.686,0.684,0.683,0.682,0.681,0.68,0.68,0.68,0.679,0.679,0.678,0.678,0.677,0.677,0.676,0.676,0.675,0.674,0.674,0.673,0.673,0.672,0.67,0.669,0.669,0.669,0.668,0.668,0.668,0.667,0.667,0.666,0.666,0.665,0.664,0.664,0.663,0.663,0.662,0.66,0.659,0.658,0.657,0.657,0.656,0.655,0.655,0.654,0.654,0.653,0.651,0.65,0.647,0.647,0.646,0.645,0.645,0.645,0.644,0.644,0.644,0.644,0.643,0.642,0.642,0.642,0.641,0.64,0.64,0.639,0.638,0.637,0.636,0.635,0.635,0.634,0.634,0.633,0.633,0.633,0.632,0.632,0.631,0.63,0.629,0.628,0.627,0.626,0.625,0.625,0.624,0.624,0.623,0.623,0.623,0.622,0.622,0.622,0.621,0.621,0.621,0.621,0.62,0.62,0.618,0.617,0.617,0.616,0.615,0.614,0.614,0.613,0.613,0.612,0.612,0.611,0.611,0.611,0.611,0.611,0.611,0.61,0.61,0.609,0.608,0.607,0.607,0.606,0.605,0.604,0.603,0.603,0.603,0.602,0.602,0.602,0.602,0.601,0.601,0.601,0.601,0.6,0.6,0.6,0.6,0.6,0.599,0.599,0.6,0.6,0.6,0.601,0,0,0,0,0,0,0,0,0,0,0,0,0,0,0,0,0,0,0,0,0,0,0,0,0,0,0,0,0,0,0,0,0.329,0.329,0.329,0.329,0.329,0.33,0.33,0.33,0.33,0.331,0.331,0.331,0,0.332,0.332,0.332,0.332,0.332,0.332,0.333,0.333,0.333,0.333,0.333,0.334,0.334,0.334,0.335,0.335,0.335,0.335,0.336,0.336,0.336,0,0.337,0.337,0.337,0.338,0.338,0.338,0.339,0.339,0.339,0.34,0.34,0.34,0.341,0.341,0.341,0.341,0,0.342,0.342,0.342,0.342,0.342,0.342,0.343,0.343,0.344,0.344,0.344,0.345,0.345,0.345,0.345,0.346,0.347,0.347,0,0.348,0.348,0.348,0.348,0.349,0.35,0.351,0.352,0,0.353,0.354,0.355,0.355,0.356,0.357,0.358,0.358,0.358,0,0.359,0.36,0.361,0.362,0.362,0.363,0,0.365,0.366,0.366,0.367,0.368,0.369,0.369,0.37,0.37,0,0.371,0.372,0.373,0.373,0.374,0.375,0.376,0.376,0.377,0.377,0,0.378,0.378,0.38,0.38,0.381,0.382,0.383,0,0.385,0.385,0.386,0.388,0.389,0.39,0,0.391,0.393,0.393,0.394,0.396,0,0.398,0.399,0.401,0.402,0.404,0,0.406,0.407,0.407,0.409,0.409,0.41,0.41,0.411,0,0,0,0,0,0,0,0,0,0,0,0,0,0,0,0.495,0.495,0.495,0.495,0.495,0.495,0.495,0.495,0.495,0.495,0.495,0.495,0.494,0.493,0.492,0.492,0.491,0.49,0.489,0.488,0.487,0.485,0.483,0.482,0.482,0.482,0.482,0.482,0.482,0.483,0.484,0.485,0.486,0.487,0.488,0.488,0.488,0.488,0.487,0.487,0.487,0.486,0.486,0.485,0.485,0.485,0.484,0.483,0.482,0.482,0.482,0.482,0.482,0.481,0.481,0.481,0.48,0.48,0.48,0.479,0.479,0.478,0.478,0.478,0.477,0.476,0.476,0.476,0.476,0.476,0.476,0.475,0.475,0.475,0.475,0.474,0.474,0.473,0.472,0.471,0.471,0.47,0.47,0.47,0.469,0,0.469,0.469,0.469,0.468,0.468,0.468,0.468,0.467,0.466,0.465,0.464,0.464,0.463,0.463,0.463,0.463,0.463,0.462,0.462,0.462,0.461,0.461,0.46,0.46,0.459,0.459,0.458,0.458,0.458,0.458,0.458,0.457,0.457,0.457,0.457,0.457,0.457,0.457,0.457,0.457,0.457,0.456,0.456,0.456,0.456,0.455,0.455,0.454,0.454,0.453,0.453,0.453,0.453,0.452,0.452,0.452,0.452,0.452,0.452,0.451,0.451,0.451,0.45,0.45,0.449,0.449,0.449,0.448,0.448,0.447,0.447,0.447,0.447,0.447,0.446,0.446,0.446,0.446,0.445,0.445,0.445,0.445,0.445,0.444,0,0,0,0,0,0,0,0,0,0,0,0,0,0,0,0,0,0,0,0,0,0,0,0,0,0,0,0,0,0,0,0,0,0,0,0,0,0,0,0,0,0,0,0,0,0,0,0,0,0,0,0,0,0,0,0,0,0,0,0,0
0,0,0,0,0,0,0,0,0,0,0,0,0,0,0,0,0,0,0,0,0,0,0,0,0,0,0.716,0,0.713,0.712,0.71,0.708,0.707,0.707,0.706,0.706,0.706,0.704,0.702,0.701,0.7,0.699,0.697,0.696,0.695,0.694,0.694,0.693,0.692,0.692,0.69,0.688,0.687,0.685,0.683,0.682,0.681,0.68,0.68,0.68,0.679,0.678,0.678,0.677,0.676,0.676,0.674,0.674,0.673,0.672,0.672,0.672,0.671,0.671,0.67,0.669,0.669,0.668,0.668,0.668,0.668,0.667,0.666,0.666,0.665,0.664,0.663,0.662,0.661,0.66,0.66,0.658,0.657,0.657,0.657,0.657,0.656,0.655,0.655,0.655,0.654,0.653,0.652,0.651,0.649,0,0.646,0.645,0.645,0.644,0.644,0.644,0.644,0.643,0.643,0.642,0.642,0.641,0.64,0.639,0.639,0.636,0.636,0.635,0.635,0.634,0.634,0.634,0.633,0.633,0.633,0.632,0.632,0.632,0.631,0.631,0.63,0.629,0.628,0.626,0.624,0.624,0.623,0.623,0.622,0.622,0.622,0.622,0.622,0.621,0.621,0.62,0.62,0.62,0.619,0.618,0.616,0.616,0.615,0.615,0.614,0.613,0.613,0.613,0.612,0.612,0.611,0.611,0.611,0.611,0.61,0.61,0.609,0.609,0.608,0.608,0.606,0.606,0.605,0.604,0.603,0.603,0.603,0.602,0.602,0.602,0.601,0.601,0.601,0.601,0.6,0.6,0.6,0.6,0.599,0.599,0.598,0.598,0.598,0.597,0.597,0.597,0.596,0.596,0.596,0.597,0.597,0.597,0.597,0,0,0,0,0,0,0,0,0,0,0,0,0,0,0,0,0,0,0,0,0,0,0,0,0,0,0,0,0,0,0,0.328,0.328,0.329,0.329,0.329,0.329,0.329,0.33,0.33,0.33,0.33,0.33,0.331,0.331,0.331,0.331,0,0.332,0.332,0.332,0.332,0.332,0.333,0.333,0.333,0.333,0.334,0.334,0.334,0.335,0.335,0.335,0.335,0.336,0.336,0.336,0.336,0,0.337,0.337,0.338,0.338,0.338,0.339,0.339,0.339,0.339,0.34,0.34,0.341,0.341,0.341,0.341,0.341,0,0.342,0.342,0.342,0.342,0.342,0.342,0.343,0.343,0.344,0.344,0.345,0.345,0.345,0.345,0.346,0.346,0.347,0,0.348,0.348,0.348,0.349,0.35,0.351,0.351,0.352,0,0.353,0.354,0.355,0.356,0.356,0.357,0.358,0.358,0,0.359,0.359,0.36,0.361,0.362,0.363,0.364,0,0.365,0.366,0.367,0.367,0.369,0.369,0.37,0.37,0,0.371,0.372,0.373,0.373,0.373,0.374,0.375,0.376,0.376,0.377,0.377,0,0.378,0.379,0.38,0.381,0.381,0.383,0,0.384,0.385,0.386,0.388,0.389,0.39,0,0.391,0.392,0.393,0.394,0.397,0,0.398,0.399,0.401,0.402,0.404,0,0.406,0.407,0.407,0.408,0.409,0.409,0.41,0,0,0,0,0,0,0,0,0,0,0,0,0,0,0.494,0.494,0.494,0.495,0,0.495,0.495,0.495,0.495,0.495,0.495,0.495,0.494,0.494,0.493,0.493,0.492,0.491,0.49,0.489,0.489,0.488,0.487,0.485,0.484,0.483,0.482,0.482,0.482,0.482,0.482,0.482,0.483,0.483,0.484,0.485,0.485,0.485,0.485,0.485,0.485,0.484,0.484,0.483,0.483,0.482,0.482,0.482,0.482,0.481,0.481,0.481,0.48,0.48,0.479,0.479,0.478,0.478,0.478,0.477,0.477,0.477,0.477,0.476,0.476,0.476,0.476,0.475,0.475,0.475,0.475,0.474,0.474,0.474,0.474,0.473,0.473,0.472,0.471,0.471,0.47,0.469,0.469,0.469,0.469,0.468,0.468,0.467,0.467,0.466,0.466,0.466,0.465,0.465,0.464,0.464,0.463,0.463,0.463,0.462,0.462,0.461,0.461,0.461,0.46,0.46,0.459,0.459,0.458,0.458,0.458,0.458,0.458,0.458,0.457,0.457,0.457,0.457,0.456,0.456,0.456,0.455,0.455,0.454,0.454,0.455,0.455,0.455,0.454,0.454,0.454,0.454,0.454,0.453,0.453,0.453,0.452,0.452,0.452,0.452,0.452,0.452,0.451,0.451,0.45,0.449,0.448,0.448,0.448,0.448,0.447,0.447,0.447,0.447,0.447,0.447,0.447,0.446,0.446,0.446,0.446,0.445,0.445,0.444,0.444,0.443,0.443,0.442,0.443,0.443,0.442,0.442,0,0,0,0,0,0,0,0,0,0,0,0,0,0,0,0,0,0,0,0,0,0,0,0,0,0,0,0,0,0,0,0,0,0,0,0,0,0,0,0,0,0,0,0,0,0,0,0,0,0,0,0,0,0,0,0,0,0,0,0,0
0,0,0,0,0,0,0,0,0,0,0,0,0,0,0,0,0,0,0,0,0,0,0,0,0,0,0,0.71,0.708,0.707,0.706,0.706,0.704,0.703,0.702,0.7,0.699,0.697,0.695,0.695,0.694,0.693,0.693,0.692,0.692,0.691,0.69,0.689,0.687,0.686,0.684,0.682,0.681,0.68,0.68,0.678,0.678,0.677,0.676,0.676,0.674,0.673,0.673,0.672,0.671,0.67,0.67,0.669,0.669,0.669,0.669,0.668,0.668,0.668,0.668,0.667,0.667,0.666,0.666,0.665,0.664,0.663,0.661,0.66,0.658,0.658,0.657,0.656,0.656,0.655,0.655,0.655,0.655,0.655,0.654,0.654,0.653,0.652,0.651,0.65,0.649,0.647,0.646,0.645,0.644,0.644,0.644,0.643,0.642,0.642,0.641,0.64,0.64,0.639,0.638,0.637,0.636,0.636,0.634,0.634,0.633,0.633,0.633,0.633,0.632,0.632,0.632,0.631,0.631,0.63,0.629,0.629,0.628,0.627,0.625,0.625,0.624,0.624,0.623,0.622,0.622,0.622,0.621,0.621,0.62,0.62,0.62,0.619,0.619,0.618,0.618,0.617,0.615,0.614,0.613,0.613,0.612,0.612,0.612,0.612,0.611,0.611,0.611,0.611,0.61,0.61,0.609,0.608,0.608,0.607,0.607,0.605,0.605,0.604,0.603,0.603,0.602,0.602,0.602,0.601,0.601,0.601,0.601,0.6,0.6,0.599,0.599,0.598,0.597,0.597,0.597,0.596,0.596,0.596,0.595,0.595,0.595,0.595,0.595,0.594,0.594,0.594,0.594,0.594,0.593,0.593,0.594,0.593,0,0,0,0,0,0,0,0,0,0,0,0,0,0,0,0,0,0,0,0,0,0,0,0,0,0,0,0.328,0.328,0.328,0.328,0.328,0.328,0.328,0.328,0.329,0.328,0.329,0.329,0.329,0.329,0.329,0.33,0.33,0.33,0.33,0.33,0.331,0.331,0.331,0,0.332,0.332,0.332,0.332,0.332,0.333,0.333,0.333,0.333,0.334,0.334,0.335,0.335,0.335,0.335,0.335,0.336,0.336,0.336,0,0.337,0.337,0.338,0.338,0.338,0.339,0.339,0.339,0.339,0.34,0.34,0.34,0.341,0.341,0.341,0.341,0.341,0,0.342,0.342,0.342,0.342,0,0.343,0.343,0.344,0.344,0.344,0.345,0.345,0.345,0.346,0.346,0.347,0,0.348,0.348,0.348,0.349,0.35,0.351,0.352,0.352,0,0.354,0.355,0.355,0.356,0.356,0.357,0.358,0.358,0,0.359,0.359,0.361,0.362,0.362,0.364,0,0.365,0.366,0.366,0.368,0.369,0.369,0.369,0.37,0,0.371,0.372,0.373,0.373,0.373,0.374,0.375,0.376,0.376,0.377,0.377,0,0.378,0.379,0.38,0.381,0.381,0.383,0,0.384,0.385,0.386,0.388,0.389,0.39,0,0.391,0.393,0.393,0.395,0.397,0,0.398,0.4,0.402,0.403,0.404,0,0.406,0.407,0.407,0.408,0.408,0.409,0.409,0,0,0,0,0,0,0,0,0,0,0,0,0.492,0.493,0.493,0.493,0.493,0.494,0.494,0.494,0.494,0.494,0.494,0.494,0.494,0.493,0.493,0.493,0.492,0.491,0.49,0.489,0.489,0.489,0.488,0.488,0.487,0.485,0.485,0.484,0.483,0.482,0.482,0.482,0.482,0.482,0.482,0.482,0.482,0.483,0.483,0.483,0.482,0.482,0.482,0.482,0.482,0.482,0.482,0.481,0.481,0.48,0.48,0.479,0.479,0.478,0.478,0.477,0.476,0.476,0.476,0.476,0.476,0.476,0.475,0.475,0.475,0.475,0.475,0.474,0.474,0.473,0.473,0.473,0.473,0.472,0.472,0.472,0.471,0.471,0.471,0.47,0.469,0.469,0.469,0.468,0.468,0.467,0.466,0.465,0.465,0.464,0.464,0.464,0.464,0.463,0.463,0.463,0.463,0.463,0.462,0.462,0.461,0.46,0.46,0.459,0.459,0.458,0.458,0.458,0.458,0.458,0.458,0.457,0.457,0.457,0.457,0.456,0.456,0.456,0.455,0.455,0.454,0.454,0.453,0.453,0.453,0.452,0.453,0.452,0.452,0.452,0.452,0.452,0.452,0.452,0.452,0.452,0.452,0.452,0.452,0.452,0.452,0.451,0.451,0.45,0.448,0.447,0.447,0.447,0.447,0.446,0.446,0.446,0.446,0.446,0.446,0.446,0.446,0.446,0.445,0.445,0.444,0.443,0.443,0.443,0.442,0.442,0.441,0.441,0.441,0.441,0.441,0.441,0.441,0.441,0,0,0,0,0,0,0,0,0,0,0,0,0,0,0,0,0,0,0,0,0,0,0,0,0,0,0,0,0,0,0,0,0,0,0,0,0,0,0,0,0,0,0,0,0,0,0,0,0,0,0,0,0,0,0,0,0,0,0,0,0
0,0,0,0,0,0,0,0,0,0,0,0,0,0,0,0,0,0,0,0,0,0,0,0,0,0,0,0.706,0.705,0.703,0.701,0.699,0.697,0.695,0.695,0.694,0.693,0.693,0.691,0.691,0.69,0.688,0.687,0.686,0.686,0.684,0.684,0.682,0.681,0.68,0.68,0.679,0.677,0.676,0.675,0.674,0.673,0.671,0.671,0.67,0.67,0.669,0.669,0.668,0.668,0.668,0.668,0.667,0.667,0.667,0.666,0.666,0.666,0.665,0.665,0.664,0.663,0.662,0.66,0.66,0.658,0.657,0.657,0.656,0.655,0.655,0.654,0.654,0.653,0.652,0.651,0.65,0.65,0.649,0.649,0.648,0.647,0.646,0.646,0.645,0.644,0.644,0.643,0.642,0.642,0.641,0.64,0.639,0.638,0.637,0.636,0.635,0.635,0.634,0.634,0.633,0.633,0.633,0.632,0.632,0.632,0.631,0.63,0.629,0.629,0.628,0.628,0.627,0.626,0.625,0.625,0.623,0.623,0.622,0.622,0.622,0.622,0.621,0.621,0.62,0.62,0.619,0.619,0.617,0.616,0.616,0.615,0.615,0.614,0.613,0.613,0.612,0.612,0.611,0.611,0.611,0.61,0.61,0.609,0.609,0.608,0.608,0.607,0.607,0.606,0.605,0.603,0.603,0.603,0.602,0.602,0.602,0.602,0.601,0.601,0.601,0.601,0.6,0.599,0.599,0.598,0.598,0.597,0.596,0.596,0.595,0.593,0.593,0.593,0.593,0.592,0.593,0.593,0.593,0.593,0.593,0.593,0.593,0.593,0.592,0.592,0.592,0.592,0.592,0.592,0.592,0.592,0.592,0,0,0,0,0,0,0,0,0,0,0,0,0,0,0,0,0,0,0,0,0,0,0,0,0,0,0.328,0.328,0.328,0.327,0.327,0.328,0.328,0.328,0.328,0.328,0.328,0.329,0.329,0.329,0.329,0.329,0.329,0.329,0.329,0.33,0.33,0.33,0.33,0.331,0.331,0,0.332,0.332,0.332,0.332,0.332,0.333,0.333,0.333,0.333,0.334,0.334,0.335,0.335,0.335,0.335,0.335,0.336,0.336,0.336,0,0.337,0.337,0.338,0.338,0.338,0.339,0.339,0.339,0.339,0.34,0.34,0.34,0.34,0.341,0.341,0.341,0.341,0.341,0,0.342,0.342,0.342,0,0.343,0.343,0.344,0.344,0.344,0.345,0.345,0.345,0.345,0.346,0.347,0.347,0,0.348,0.348,0.349,0.35,0.351,0.352,0.352,0,0.354,0.355,0.355,0.356,0.356,0.357,0.358,0.358,0,0.359,0.36,0.361,0.362,0.363,0.364,0,0.366,0.366,0.367,0.368,0.369,0.369,0.37,0.37,0,0.371,0.372,0.373,0.373,0.374,0.374,0.375,0.376,0.377,0.377,0,0.378,0.379,0.38,0.381,0.381,0.383,0,0.384,0.385,0.386,0.388,0.389,0.39,0,0,0,0.394,0.395,0.397,0,0.398,0.4,0.402,0.403,0.405,0,0.406,0.407,0.407,0.407,0.408,0.408,0.409,0,0,0,0,0,0,0,0,0,0,0,0.491,0.492,0.493,0.493,0.493,0.493,0.493,0.493,0.493,0.493,0.493,0.492,0.492,0.491,0.491,0.491,0.49,0.49,0.49,0.489,0.489,0.488,0.488,0.487,0.487,0.486,0.485,0.484,0.483,0.483,0.482,0.482,0.482,0.482,0.482,0.482,0.482,0.482,0.482,0.482,0.482,0.482,0.481,0.481,0.481,0.48,0.48,0.48,0.479,0.478,0.478,0.477,0.477,0.476,0.476,0.476,0.476,0.475,0.475,0.474,0.474,0.474,0.473,0.473,0.473,0.472,0.472,0.472,0.471,0.471,0.471,0.471,0.471,0.47,0.47,0.47,0.47,0.47,0.47,0.469,0.469,0.468,0.468,0.467,0.466,0.465,0.465,0.464,0.464,0.463,0.463,0.463,0.463,0.463,0.462,0.462,0.462,0.461,0.46,0.46,0.459,0.459,0.458,0.458,0.458,0.458,0.458,0.457,0.457,0.457,0.457,0.456,0.456,0.456,0.455,0.455,0.455,0.454,0.453,0.453,0.453,0.452,0.452,0.452,0.452,0.452,0.452,0.452,0.452,0.452,0.452,0.452,0.452,0.452,0.452,0.452,0.452,0.451,0.451,0.451,0.451,0.451,0.45,0.448,0.447,0.447,0.446,0.446,0.446,0.445,0.445,0.445,0.444,0.444,0.444,0.444,0.443,0.443,0.443,0.442,0.442,0.441,0.441,0.441,0.441,0.441,0.441,0.44,0.44,0.441,0.441,0.441,0.441,0.441,0.441,0,0,0,0,0,0,0,0,0,0,0,0,0,0,0,0,0,0,0,0,0,0,0,0,0,0,0,0,0,0,0,0,0,0,0,0,0,0,0,0,0,0,0,0,0,0,0,0,0,0,0,0,0,0,0,0,0,0,0,0,0
0,0,0,0,0,0,0,0,0,0,0,0,0,0,0,0,0,0,0,0,0,0,0,0,0,0,0,0,0.696,0,0.694,0.693,0.693,0.692,0.692,0.69,0.688,0.686,0.685,0.684,0.683,0.682,0.682,0.681,0.68,0.68,0.68,0.679,0.678,0.678,0.674,0.673,0.671,0.67,0.669,0.669,0.668,0.668,0.668,0.667,0.667,0.667,0.667,0.666,0.666,0.665,0.664,0.664,0.664,0.663,0.663,0.662,0.662,0.661,0.66,0.659,0.658,0.657,0.657,0.656,0.655,0.655,0.653,0.652,0.651,0.65,0.649,0.648,0.647,0.647,0.646,0.646,0.645,0.645,0.645,0.644,0.644,0.644,0.643,0.642,0.641,0.64,0.639,0.638,0.636,0.636,0.635,0.634,0.634,0.633,0.633,0.632,0.632,0.632,0.632,0.631,0.631,0.63,0.629,0.628,0.627,0.626,0.625,0.624,0.624,0.623,0.623,0.622,0.622,0.622,0.622,0.621,0.621,0.62,0.62,0.619,0.619,0.618,0.617,0.616,0.615,0.614,0.614,0.614,0.612,0.612,0.612,0.612,0.611,0.611,0.611,0.61,0.609,0.609,0.608,0.607,0.606,0.605,0.604,0.604,0.603,0.602,0.602,0.602,0.602,0.602,0.601,0.601,0.601,0.601,0.6,0.6,0.6,0.599,0.598,0.598,0.597,0.596,0.595,0.594,0.593,0.593,0.592,0.592,0.592,0.592,0.591,0.591,0.591,0.591,0.591,0.591,0.591,0.591,0.591,0.591,0.591,0.591,0.591,0.591,0.591,0.592,0.592,0.592,0.592,0,0.591,0,0,0,0,0,0,0,0,0,0,0,0,0,0,0,0,0,0,0,0,0,0,0,0,0,0.327,0.327,0.327,0.327,0.327,0.327,0.327,0.327,0.327,0.327,0.328,0.328,0.328,0.328,0.328,0.328,0.329,0.329,0.329,0.329,0.329,0.329,0.329,0.33,0.33,0.33,0.331,0.331,0.331,0,0.332,0.332,0.332,0.332,0.332,0.333,0.333,0.333,0.334,0.334,0.335,0.335,0.335,0.335,0.335,0.336,0.336,0.336,0,0.337,0.337,0.338,0.338,0.338,0.339,0.339,0.339,0.339,0.339,0.34,0.34,0.34,0.341,0.341,0.341,0.341,0.341,0,0.342,0.342,0.342,0,0.343,0.343,0.344,0.344,0.344,0.345,0.345,0.345,0.345,0.346,0.346,0,0.348,0.348,0.349,0.35,0.351,0.351,0.352,0,0.353,0.354,0.355,0.355,0.356,0.356,0.357,0.358,0,0.359,0.359,0.36,0.362,0.362,0.364,0,0.365,0.366,0.366,0.367,0.368,0.369,0.37,0.37,0,0.371,0.372,0.373,0.373,0.374,0.374,0.375,0.376,0.377,0.377,0,0.378,0.379,0.38,0.381,0.381,0.383,0,0.384,0.385,0.386,0.388,0.389,0.39,0,0.391,0.393,0.394,0.396,0.397,0,0.398,0.4,0.402,0.403,0.405,0,0.406,0.407,0.407,0.407,0.407,0.408,0,0,0,0,0,0,0,0,0,0,0,0,0.491,0.491,0.491,0.491,0.491,0.491,0.491,0.491,0.491,0.49,0.49,0.489,0.489,0.489,0.489,0.489,0.489,0.488,0.488,0.488,0.487,0.487,0.486,0.485,0.485,0.484,0.483,0.483,0.482,0.482,0.482,0.482,0.482,0.481,0.481,0.481,0.481,0.481,0.481,0.48,0.48,0.479,0.479,0.478,0.478,0.477,0.477,0.477,0.477,0.476,0.476,0.476,0.475,0.475,0.475,0.474,0.473,0.472,0.472,0.471,0.471,0.471,0.47,0.47,0.47,0.47,0.47,0.47,0.469,0.469,0.469,0.469,0.469,0.469,0.469,0.469,0.468,0.468,0.468,0.467,0.466,0.465,0.465,0.464,0.464,0.464,0.463,0.463,0.463,0.462,0.462,0.461,0.461,0.46,0.46,0.46,0.459,0.459,0.459,0.458,0.458,0.458,0.458,0.457,0.457,0.457,0.456,0.456,0.455,0.455,0.455,0.454,0.454,0.454,0.453,0.453,0.453,0.453,0.452,0.452,0.452,0.452,0.452,0.451,0.451,0.451,0.451,0.451,0.451,0.451,0.45,0.45,0.451,0.451,0.451,0.451,0.45,0.45,0.45,0.45,0.449,0.447,0.447,0.446,0.446,0.445,0.444,0.444,0.443,0.443,0.442,0.442,0.442,0.441,0.441,0.441,0.441,0.441,0.441,0.441,0.441,0.441,0.44,0.44,0.44,0.44,0.439,0.438,0.439,0.439,0.439,0.439,0.44,0.44,0.44,0,0,0,0,0,0,0,0,0,0,0,0,0,0,0,0,0,0,0,0,0,0,0,0,0,0,0,0,0,0,0,0,0,0,0,0,0,0,0,0,0,0,0,0,0,0,0,0,0,0,0,0,0,0,0,0,0,0,0,0,0
0,0,0,0,0,0,0,0,0,0,0,0,0,0,0,0,0,0,0,0,0,0,0,0,0,0,0,0,0.692,0.691,0.69,0.688,0.686,0.684,0.683,0.682,0.681,0.68,0.68,0.68,0.68,0.68,0.679,0.678,0.678,0.677,0.674,0.673,0.672,0,0,0.668,0.668,0.667,0.667,0.666,0.666,0.665,0.664,0.663,0.663,0.662,0.661,0.661,0.66,0.66,0.66,0.659,0.658,0.658,0.658,0.657,0.657,0.657,0.656,0.655,0.655,0.655,0.654,0.654,0.651,0.649,0.648,0.647,0.646,0.645,0.645,0.645,0.644,0.644,0.644,0.644,0.643,0.642,0.641,0.64,0.64,0.639,0.638,0.638,0.636,0.635,0.635,0.634,0.633,0.633,0.633,0.632,0.632,0.631,0.63,0.629,0.629,0.628,0.628,0.627,0.627,0.625,0.624,0.624,0.623,0.623,0.622,0.622,0.622,0.621,0.621,0.62,0.619,0.619,0.618,0.617,0.616,0.615,0.614,0.614,0.614,0.614,0.613,0.612,0.612,0.612,0.611,0.611,0.611,0.61,0.61,0.609,0.609,0.608,0.607,0.606,0.605,0.603,0.603,0.602,0.602,0.601,0.601,0.601,0.601,0.6,0.6,0.6,0.599,0.599,0.598,0.598,0.597,0.597,0.597,0.596,0.595,0.594,0.594,0.593,0.592,0.592,0.592,0.591,0.591,0.591,0.591,0.59,0.589,0.589,0.588,0.588,0.588,0.586,0.586,0.586,0.586,0.586,0.586,0.587,0.587,0.588,0.589,0.589,0.589,0.59,0.591,0.591,0.591,0.591,0,0,0,0,0,0,0,0,0,0,0,0,0,0,0,0,0,0,0,0,0,0,0,0,0,0,0.327,0.327,0.327,0.327,0.327,0.327,0.327,0.327,0.327,0.327,0.327,0.327,0.327,0.328,0.328,0.328,0.328,0.328,0.329,0.329,0.329,0.329,0.329,0.329,0.329,0.33,0.33,0.33,0.331,0.331,0,0.332,0.332,0.332,0.332,0.332,0.333,0.333,0.333,0.334,0.334,0.335,0.335,0.335,0.335,0.335,0.336,0.336,0.336,0,0.337,0.337,0.338,0.338,0.338,0.338,0.339,0.339,0.339,0.339,0.339,0.34,0.34,0.34,0.341,0.341,0.341,0.341,0.342,0.342,0.342,0.342,0.342,0,0.343,0.344,0.344,0.344,0.345,0.345,0.345,0.345,0.346,0.347,0,0.348,0.348,0.349,0.35,0.351,0.351,0.352,0,0.353,0.354,0.355,0.355,0.356,0.356,0.358,0.358,0,0.359,0,0,0,0,0,0.365,0.366,0.366,0.367,0.368,0.369,0.369,0.37,0,0.371,0.372,0.373,0.373,0.373,0.374,0.375,0.376,0.376,0.377,0.377,0,0.378,0.38,0.381,0.381,0.383,0,0.385,0.385,0.387,0.388,0.389,0.39,0,0.392,0.393,0.394,0.396,0.397,0,0.398,0.4,0.402,0.403,0.405,0,0.406,0.406,0.407,0.407,0.407,0,0,0,0,0,0,0,0,0,0,0,0,0,0.491,0.49,0.491,0.49,0.49,0.49,0.49,0.489,0.489,0.489,0.489,0.488,0.488,0.488,0.488,0.488,0.487,0.487,0.486,0.485,0.485,0.484,0.483,0.483,0.483,0.482,0.482,0.482,0.482,0.481,0.481,0.481,0.48,0.48,0.48,0.48,0.479,0.479,0.479,0.478,0.477,0.477,0.476,0.476,0.476,0.476,0.475,0.475,0.475,0.475,0.475,0.474,0.474,0.472,0.472,0.471,0.47,0.47,0.47,0.47,0.47,0.469,0.469,0.469,0.469,0.469,0.468,0.468,0.468,0.468,0.468,0.468,0.467,0.467,0.467,0.466,0.465,0.465,0.465,0.464,0.464,0.464,0.463,0.463,0.463,0.463,0.461,0.461,0.461,0.46,0.46,0.459,0.459,0.459,0.458,0.458,0.458,0.458,0.458,0.457,0.457,0.457,0.456,0.455,0.455,0.454,0.454,0.453,0.453,0.453,0.453,0.453,0.453,0.453,0.452,0.452,0.452,0.452,0.452,0.451,0.451,0.451,0.451,0.45,0.45,0.449,0.449,0.449,0.449,0.449,0.448,0.448,0.449,0.449,0.449,0.449,0.449,0.449,0.448,0.447,0.447,0.446,0.446,0.445,0.443,0.442,0.442,0.441,0.441,0.441,0.441,0.441,0.441,0.44,0.44,0.44,0.44,0.44,0.439,0.439,0.439,0.439,0.438,0.438,0.438,0.437,0.437,0.437,0.437,0.437,0.438,0.438,0.438,0.438,0.438,0,0,0,0,0,0,0,0,0,0,0,0,0,0,0,0,0,0,0,0,0,0,0,0,0,0,0,0,0,0,0,0,0,0,0,0,0,0,0,0,0,0,0,0,0,0,0,0,0,0,0,0,0,0,0,0,0,0,0,0,0
0,0,0,0,0,0,0,0,0,0,0,0,0,0,0,0,0,0,0,0,0,0,0,0,0,0,0,0,0.686,0.685,0.683,0.682,0.681,0.68,0.68,0.68,0.679,0.679,0.678,0.678,0.677,0.676,0.674,0.672,0.671,0.67,0.669,0.669,0.668,0.667,0.666,0.665,0.664,0.662,0.662,0.661,0.658,0.658,0.658,0.658,0.657,0.657,0.657,0.657,0.656,0.656,0.656,0.656,0.655,0.655,0.655,0.655,0.655,0.654,0.654,0.653,0.653,0.65,0.648,0.647,0.646,0.645,0.644,0.644,0.644,0.644,0.643,0.643,0.642,0.641,0.64,0.639,0.638,0.637,0.636,0.635,0.635,0.634,0.634,0.634,0.634,0.633,0.633,0.632,0.632,0.632,0.631,0.629,0.628,0.627,0.626,0.625,0.625,0.624,0.624,0.623,0.623,0.623,0.622,0.622,0.622,0.621,0.62,0.619,0.618,0.617,0.617,0.615,0.615,0.614,0.614,0.613,0.613,0.612,0.612,0.612,0.611,0.611,0.611,0.61,0.61,0.609,0.609,0.608,0.608,0.606,0.605,0.605,0.604,0.603,0.603,0.602,0.602,0.601,0.601,0.6,0.599,0.598,0.598,0.598,0.597,0.596,0.596,0.595,0.594,0.594,0.594,0.593,0.593,0.592,0.592,0.592,0.592,0.592,0.591,0.591,0.59,0.59,0.589,0.588,0.587,0.587,0.586,0.586,0.585,0.584,0.584,0.584,0.584,0.583,0.583,0.583,0.583,0.582,0.582,0.583,0.583,0.584,0,0,0,0,0,0,0.59,0,0,0,0,0,0,0,0,0,0,0,0,0,0,0,0,0,0,0,0,0,0,0,0,0,0,0,0,0.327,0.327,0.327,0.327,0.327,0.327,0.327,0.327,0.327,0.327,0.327,0.327,0.327,0.328,0.328,0.328,0.328,0.328,0.328,0.329,0.329,0.329,0.329,0.329,0.329,0.33,0.33,0.33,0.331,0.331,0.331,0,0.332,0.332,0.332,0.332,0.333,0.333,0.333,0.334,0.334,0.334,0.335,0.335,0.335,0.335,0.335,0.336,0.336,0.336,0,0.337,0.337,0.338,0.338,0.338,0.338,0.339,0.339,0.339,0.339,0.34,0.34,0.34,0.34,0.341,0.341,0.341,0.342,0.342,0.342,0.342,0.342,0,0.343,0.343,0.344,0.344,0.345,0.345,0.345,0.345,0.346,0.347,0,0.348,0.348,0.349,0.35,0.351,0.352,0.352,0,0.353,0.354,0.355,0.355,0.356,0.357,0.358,0.358,0,0,0,0,0,0,0,0.365,0.366,0.366,0.368,0.369,0.369,0.37,0,0.371,0.372,0.373,0.373,0.373,0.374,0.374,0.375,0.376,0.377,0.377,0,0.378,0.38,0.381,0.382,0.383,0,0.385,0.385,0.387,0.388,0.389,0,0.391,0.392,0.393,0.394,0.397,0,0.398,0.398,0.4,0.402,0.403,0,0,0.406,0.406,0.407,0.407,0,0,0,0,0,0,0,0,0,0,0,0,0,0.49,0.489,0.489,0.489,0.489,0.489,0.489,0.488,0.488,0.488,0.488,0.488,0.487,0.487,0.486,0.486,0.485,0.484,0.484,0.483,0.483,0.482,0.482,0.482,0.482,0.482,0.482,0.481,0.481,0.481,0.48,0.48,0.479,0.479,0.478,0.477,0.478,0.477,0.477,0.477,0.476,0.476,0.475,0.475,0.475,0.474,0.474,0.473,0.473,0.472,0.472,0.472,0.471,0.47,0.47,0.47,0.469,0.469,0.469,0.469,0.468,0.468,0.468,0.467,0.467,0.466,0.466,0.466,0.465,0.465,0.465,0.465,0.465,0.465,0.465,0.464,0.464,0.464,0.463,0.463,0.463,0.463,0.462,0.462,0.461,0.46,0.46,0.459,0.459,0.458,0.458,0.458,0.458,0.458,0.458,0.457,0.457,0.457,0.456,0.456,0.455,0.454,0.454,0.453,0.453,0.453,0.452,0.452,0.452,0.452,0.452,0.452,0.452,0.452,0.452,0.452,0.452,0.452,0.451,0.451,0.45,0.449,0.449,0.449,0.448,0.448,0.448,0.448,0.448,0.447,0.447,0.447,0.447,0.447,0.447,0.447,0.447,0.447,0.447,0.446,0.446,0.445,0.444,0.443,0.442,0.441,0.441,0.441,0.44,0.44,0.44,0.439,0.439,0.438,0.438,0,0.438,0.438,0.437,0.437,0.437,0.437,0.437,0.436,0.436,0.436,0.436,0.436,0.436,0.436,0.436,0.436,0.436,0.436,0.437,0,0,0,0,0,0,0,0,0,0,0,0,0,0,0,0,0,0,0,0,0,0,0,0,0,0,0,0,0,0,0,0,0,0,0,0,0,0,0,0,0,0,0,0,0,0,0,0,0,0,0,0,0,0,0,0,0,0,0,0,0,0
0,0,0,0,0,0,0,0,0,0,0,0,0,0,0,0,0,0,0,0,0,0,0,0,0,0,0,0.682,0.681,0.681,0.68,0.68,0.68,0.679,0.678,0.678,0.677,0.677,0.675,0.674,0.673,0.671,0.669,0.669,0.668,0.667,0.667,0.666,0.664,0.662,0.661,0.659,0.657,0.657,0.656,0.655,0.655,0.655,0.655,0.655,0.655,0.655,0.654,0.654,0.654,0.654,0.653,0.653,0.653,0.653,0.652,0.651,0.65,0.65,0.648,0.647,0.646,0.645,0.645,0.644,0.644,0.643,0.642,0.641,0.64,0.64,0.639,0.638,0.636,0.636,0.635,0.634,0.634,0.634,0.633,0.633,0.633,0.632,0.632,0.632,0.632,0.631,0.631,0.63,0.628,0.627,0.625,0.624,0.624,0.623,0.623,0.622,0.622,0.622,0.622,0.621,0.621,0.621,0.62,0.618,0.617,0.616,0.615,0.614,0.614,0.613,0.612,0.612,0.612,0.611,0.611,0.611,0.611,0.61,0.61,0.609,0.609,0.608,0.607,0.606,0.605,0.605,0.604,0.603,0.603,0.602,0.602,0.601,0.601,0.601,0.601,0.6,0.598,0.597,0.596,0.595,0.594,0.594,0.593,0.593,0.593,0.592,0.592,0.592,0.592,0.592,0.591,0.591,0.591,0.591,0.591,0.59,0.589,0.588,0.587,0.586,0.586,0.585,0.584,0.584,0.583,0.583,0.583,0.583,0.582,0.582,0.582,0.582,0.581,0.581,0.581,0.58,0.58,0.58,0.58,0.581,0,0,0,0,0,0,0,0,0,0,0,0,0,0,0,0,0,0,0,0,0,0,0,0,0,0,0,0,0,0,0,0,0,0,0,0,0.326,0.327,0.326,0.326,0.327,0.327,0.327,0.327,0.327,0.327,0.327,0.327,0.327,0.327,0.327,0.327,0.328,0.328,0.328,0.328,0.328,0.328,0.329,0.329,0.329,0.329,0.329,0.329,0.33,0.33,0.33,0.331,0.331,0,0.332,0.332,0.332,0.332,0.333,0.333,0.333,0.334,0.334,0.334,0.335,0.335,0.335,0.335,0.335,0.336,0.336,0.336,0,0.337,0.337,0.338,0.338,0.338,0.338,0.339,0.339,0.339,0.339,0.34,0.34,0.34,0.341,0.341,0.341,0.341,0.342,0.342,0.342,0.342,0.342,0,0.343,0.343,0.344,0.344,0.345,0.345,0.345,0.345,0.346,0.347,0,0.348,0.348,0.349,0.35,0.351,0.352,0.352,0,0.353,0.354,0.355,0.355,0.356,0.357,0.358,0,0.359,0,0,0,0.363,0,0.365,0.366,0.366,0.367,0.368,0.369,0,0,0.371,0.372,0.373,0.373,0.373,0.374,0.374,0.375,0.376,0.377,0.377,0,0.378,0.38,0.381,0.382,0.383,0,0.385,0.386,0.388,0.389,0.389,0,0.391,0.392,0.393,0.395,0.397,0,0.398,0.399,0.4,0.402,0.402,0.404,0,0.406,0,0,0,0,0,0,0,0,0,0,0,0,0,0,0,0,0.489,0.489,0.489,0.489,0.488,0.488,0.488,0.487,0.487,0.487,0.486,0.485,0.485,0.484,0.484,0.483,0.483,0.483,0.482,0.482,0.482,0.482,0.482,0.481,0.481,0.481,0.48,0.479,0.478,0.477,0.477,0.477,0.477,0.476,0.476,0.476,0.476,0.476,0.476,0.475,0.475,0.475,0.474,0.473,0.472,0.471,0.471,0.47,0.47,0.47,0.47,0.47,0.469,0.469,0.469,0.468,0.468,0.468,0.467,0.467,0.466,0.465,0.465,0.464,0.464,0.464,0.464,0.464,0.464,0.464,0.463,0.463,0.463,0.463,0.463,0.463,0.463,0.462,0.461,0.461,0.46,0.459,0.458,0.458,0.458,0.458,0.458,0.458,0.457,0.457,0.457,0.457,0.457,0.456,0.456,0.455,0.454,0.453,0.453,0.453,0.452,0.452,0.452,0.452,0.452,0.452,0.452,0.452,0.451,0.451,0.451,0.451,0.451,0.451,0.451,0.451,0.45,0.449,0.449,0.448,0.448,0.448,0.448,0.447,0.447,0.447,0.447,0.447,0.447,0.447,0.446,0.446,0.446,0.446,0.446,0.446,0.446,0.445,0.444,0.443,0.442,0.441,0.441,0,0.44,0.439,0.438,0.438,0.437,0.437,0.437,0.437,0.436,0.436,0.436,0.436,0.436,0.436,0.436,0.436,0.436,0.436,0.436,0.436,0.435,0.435,0.435,0.435,0.435,0.435,0.435,0.436,0.435,0,0.436,0,0,0,0,0,0,0,0,0,0,0,0,0,0,0,0,0,0,0,0,0,0,0,0,0,0,0,0,0,0,0,0,0,0,0,0,0,0,0,0,0,0,0,0,0,0,0,0,0,0,0,0,0,0,0,0,0,0,0,0,0,0
0,0,0,0,0,0,0,0,0,0,0,0,0,0,0,0,0,0,0,0,0,0,0,0,0,0,0.681,0.68,0.68,0.68,0.679,0.679,0.678,0.677,0.676,0.674,0.674,0.673,0.672,0.67,0.669,0.668,0.668,0.667,0.666,0.665,0.663,0.662,0.66,0.658,0.656,0.655,0.655,0.655,0.654,0.653,0.653,0.652,0.651,0.651,0.65,0.65,0.65,0.649,0.649,0.648,0.648,0.648,0.647,0.647,0.646,0.646,0.645,0.645,0.645,0.644,0.644,0.643,0.642,0.641,0.64,0.639,0.637,0.635,0.634,0.634,0.634,0.633,0.633,0.633,0.633,0.632,0.632,0.632,0.631,0.631,0.63,0.629,0.629,0.629,0.628,0.626,0.625,0.624,0.623,0.623,0.622,0.622,0.622,0.621,0.621,0.62,0.62,0.619,0.619,0.618,0.616,0.615,0.614,0.613,0.613,0.612,0.612,0.612,0.611,0.611,0.611,0.61,0.61,0.609,0.609,0.608,0.608,0.607,0.606,0.606,0.605,0.604,0.603,0.603,0.602,0.602,0.601,0.601,0.601,0.6,0.599,0.599,0.598,0.596,0.595,0.594,0.593,0.593,0.592,0.592,0.592,0.591,0.591,0.591,0.591,0.591,0.59,0.59,0.589,0.589,0.588,0.587,0.587,0.586,0.586,0.585,0.584,0.584,0.583,0.583,0.583,0.582,0.582,0.582,0.582,0.582,0.582,0.581,0.581,0.58,0.58,0.578,0.577,0.576,0.576,0.576,0.576,0,0.576,0.577,0.578,0,0,0,0,0,0,0,0,0,0,0,0,0,0,0,0,0,0,0,0,0,0,0,0,0,0,0,0,0,0,0,0,0.326,0.326,0.326,0.326,0.326,0.326,0.326,0.326,0.326,0.326,0.326,0.326,0.327,0.327,0.327,0.327,0.327,0.327,0.327,0.327,0.327,0.328,0.328,0.328,0.328,0.328,0.328,0.329,0.329,0.329,0.329,0.329,0.33,0.33,0.33,0.331,0.331,0,0.332,0.332,0.332,0.332,0.333,0.333,0.333,0.334,0.334,0.334,0.335,0.335,0.335,0.335,0.335,0.336,0.336,0.336,0,0.337,0.337,0.338,0.338,0.338,0.338,0.339,0.339,0.339,0.339,0.34,0.34,0.34,0.341,0.341,0.341,0.341,0.341,0.342,0.342,0.342,0.342,0.342,0,0.343,0.344,0.344,0.344,0.345,0.345,0.345,0,0,0,0,0,0.349,0.35,0.351,0.352,0.352,0,0.353,0.354,0.355,0.355,0.356,0.357,0.358,0,0.359,0.36,0.362,0.362,0.364,0,0.365,0.366,0.366,0.368,0,0,0,0,0.371,0.372,0.373,0.373,0.374,0.374,0.375,0.376,0.377,0.377,0,0.378,0.38,0.381,0.382,0,0.384,0.385,0.386,0.388,0.389,0.39,0,0.392,0.393,0.394,0.395,0.397,0,0.398,0.398,0,0.401,0.402,0,0,0,0,0,0,0,0,0,0,0,0,0,0,0,0,0,0,0,0.488,0.488,0.488,0.487,0.487,0.486,0.485,0.485,0.484,0.484,0.483,0.483,0,0.482,0.482,0.482,0.482,0.482,0.481,0.481,0.481,0.48,0.48,0.479,0.478,0.477,0.477,0.476,0.476,0.476,0.476,0.475,0.475,0.475,0.475,0.475,0.475,0.474,0.474,0.474,0.473,0.472,0.471,0.47,0.47,0.469,0.469,0.469,0.469,0.469,0.469,0.468,0.468,0.467,0.467,0.466,0.466,0.465,0.464,0.464,0.464,0.464,0.464,0.463,0.463,0.463,0.463,0.463,0.463,0.462,0.462,0.462,0.462,0.462,0.461,0.461,0.46,0.459,0.458,0.458,0.458,0.457,0.457,0.457,0.457,0.457,0.456,0.456,0.456,0.455,0.455,0.454,0.453,0.453,0.453,0.452,0.452,0.452,0.452,0.452,0.451,0.451,0.451,0.451,0.45,0.45,0.449,0.449,0.449,0.449,0.449,0.449,0.449,0.449,0.449,0.448,0.448,0.448,0.447,0.447,0.447,0.447,0.447,0.447,0.447,0.446,0.446,0.446,0.446,0.446,0.444,0.444,0.443,0.443,0.442,0.442,0.442,0.442,0.441,0,0,0.44,0.438,0.437,0.436,0.436,0.436,0.436,0.436,0.436,0.436,0.436,0.436,0.436,0.436,0.436,0.435,0.436,0.435,0.435,0.435,0.435,0.435,0.435,0.435,0.434,0.434,0.434,0.433,0.434,0.434,0.434,0,0,0,0,0,0,0,0,0,0,0,0,0,0,0,0,0,0,0,0,0,0,0,0,0,0,0,0,0,0,0,0,0,0,0,0,0,0,0,0,0,0,0,0,0,0,0,0,0,0,0,0,0,0,0,0,0,0,0,0,0,0,0,0,0
0,0,0,0,0,0,0,0,0,0,0,0,0,0,0,0,0,0,0,0,0,0,0,0,0,0,0,0.679,0.678,0.676,0.676,0.676,0.674,0.672,0.671,0.67,0.67,0.669,0.669,0.668,0.668,0.667,0.666,0.665,0.663,0.661,0.658,0.657,0.655,0.655,0.654,0.653,0.651,0.65,0.649,0.648,0.647,0.646,0.646,0.646,0.646,0.645,0.645,0.645,0.645,0.645,0.644,0.644,0.644,0.644,0.644,0.644,0.643,0.643,0.642,0.641,0.64,0.639,0.638,0.636,0.634,0.633,0.633,0.633,0.632,0.632,0.632,0.632,0.631,0.631,0.63,0.63,0.629,0.628,0.628,0.627,0.625,0.624,0.624,0.623,0.623,0.622,0.622,0.622,0.621,0.621,0.62,0.619,0.618,0.617,0.616,0.614,0.614,0.613,0.613,0.613,0.612,0.612,0.611,0.611,0.611,0.611,0.61,0.609,0.609,0.608,0.607,0.607,0.606,0.605,0.604,0.603,0.603,0.602,0.602,0.602,0.602,0.601,0.601,0.601,0.6,0.599,0.599,0.598,0.598,0.595,0.594,0.594,0.593,0.592,0.592,0.592,0.591,0.591,0.591,0.59,0.589,0.588,0.588,0.588,0.586,0.586,0.586,0.585,0.585,0.584,0.584,0.584,0.583,0.583,0.583,0.582,0.582,0.582,0.581,0.581,0.581,0.581,0.58,0.58,0.579,0.579,0.579,0.577,0.576,0.575,0.574,0.574,0.574,0.573,0.573,0.573,0.573,0.573,0.573,0.573,0.574,0.574,0,0,0,0,0,0,0,0,0,0,0,0,0,0,0,0,0,0,0,0,0,0,0,0,0,0,0,0,0.326,0.326,0.326,0.326,0.326,0.326,0.326,0.326,0.326,0.326,0.326,0.326,0.326,0.326,0.326,0.326,0.326,0,0.327,0.327,0.327,0.327,0.327,0.327,0.327,0.327,0.327,0.328,0.328,0.328,0.328,0.329,0.329,0.329,0.329,0.329,0.33,0.33,0.33,0.331,0.331,0,0.332,0.332,0.332,0.332,0.333,0.333,0.333,0.334,0.334,0.334,0.335,0.335,0.335,0.335,0.335,0.336,0.336,0,0.337,0.337,0.338,0.338,0.338,0.338,0.338,0.339,0.339,0.339,0.339,0.339,0.34,0.34,0.34,0.341,0.341,0.341,0.341,0.342,0.342,0.342,0.342,0.342,0,0.343,0.343,0.344,0.344,0.345,0.345,0,0,0,0,0.348,0.348,0.35,0.35,0.351,0.352,0.352,0,0.354,0.354,0.355,0.355,0.357,0.358,0,0.359,0.36,0.361,0.362,0.364,0,0.365,0.365,0.366,0.367,0.368,0.369,0.37,0,0.371,0.372,0.373,0.373,0.373,0.374,0.375,0.376,0.377,0.377,0,0.378,0.38,0.381,0.382,0,0.384,0.385,0.386,0.388,0.389,0.39,0,0.392,0.393,0.394,0.395,0.397,0,0.398,0,0.399,0.401,0,0,0,0,0,0,0,0,0,0,0,0,0,0,0,0,0,0,0,0,0,0.486,0.485,0,0.484,0.483,0.483,0.482,0.482,0.482,0.482,0.482,0.481,0.481,0.481,0.48,0.48,0.479,0.478,0.478,0.477,0.477,0.476,0.476,0.476,0.475,0.475,0.475,0.474,0.474,0.473,0.473,0.473,0.473,0.472,0.472,0.472,0.471,0.471,0.471,0.47,0.47,0.469,0.469,0.469,0.468,0.468,0.468,0.467,0.467,0.467,0.466,0.465,0.465,0.465,0.464,0.464,0.464,0.463,0.463,0.463,0.463,0.463,0.462,0.462,0.462,0.461,0.461,0.461,0.46,0.46,0.46,0.46,0.46,0.458,0.458,0.458,0.458,0.457,0.457,0.456,0.456,0.455,0.454,0.454,0.454,0.453,0.453,0.453,0.452,0.452,0.452,0.452,0.451,0.451,0.451,0.45,0.45,0.449,0.449,0.449,0.448,0.448,0.448,0.448,0.447,0.447,0.447,0.447,0.447,0.447,0.447,0.447,0.447,0.447,0.447,0.446,0.446,0.446,0.446,0.445,0.445,0.445,0.445,0.444,0.444,0.443,0.443,0.442,0.442,0.441,0.441,0.441,0.441,0.441,0.44,0.44,0.44,0.439,0,0,0.436,0.436,0.436,0.435,0.435,0.435,0.435,0.435,0.435,0.435,0.434,0.434,0.434,0.434,0.434,0.434,0.434,0.434,0.434,0.434,0.434,0.433,0.433,0.433,0.432,0.432,0.432,0.431,0.431,0.431,0.431,0.431,0,0,0,0,0,0,0,0,0,0,0,0,0,0,0,0,0,0,0,0,0,0,0,0,0,0,0,0,0,0,0,0,0,0,0,0,0,0,0,0,0,0,0,0,0,0,0,0,0,0,0,0,0,0,0,0,0,0,0,0,0,0,0,0
0,0,0,0,0,0,0,0,0,0,0,0,0,0,0,0,0,0,0,0,0,0,0,0,0,0,0,0,0.672,0.667,0.666,0.665,0.663,0.662,0.661,0.661,0.66,0.666,0.665,0.664,0.663,0.662,0.66,0.658,0.658,0.657,0.655,0.655,0.654,0.652,0.65,0.649,0.647,0.646,0.645,0.644,0.644,0.644,0.644,0.644,0.644,0.643,0.643,0.643,0.642,0.642,0.642,0.642,0.641,0.641,0.64,0.64,0.639,0.638,0.637,0.636,0.635,0.633,0.633,0.632,0.632,0.631,0.631,0.63,0.629,0.629,0.628,0.628,0.627,0.626,0.626,0.625,0.624,0.623,0.623,0.622,0.622,0.622,0.622,0.621,0.621,0.62,0.619,0.618,0.617,0.616,0.615,0.613,0.613,0.612,0.612,0.611,0.611,0.611,0.611,0.61,0.61,0.609,0.609,0.608,0.607,0.607,0.606,0.605,0.603,0.603,0.602,0.602,0.602,0.602,0.601,0.601,0.601,0.601,0.6,0.6,0.599,0.599,0.598,0.598,0.597,0.595,0.594,0.594,0.593,0.592,0.592,0.592,0.591,0.591,0.59,0.589,0.588,0.588,0.587,0.586,0.584,0.584,0.584,0.583,0.583,0.583,0.582,0.582,0.582,0.582,0.582,0.581,0.581,0.581,0.581,0.58,0.58,0.579,0.579,0.579,0.578,0.577,0.576,0.575,0.575,0.575,0.574,0.573,0.573,0.573,0.573,0.572,0.572,0.572,0.572,0.572,0.572,0.571,0.572,0.572,0.572,0.572,0,0,0,0,0,0,0,0,0,0,0,0,0,0,0,0,0,0,0,0,0,0,0,0,0,0,0,0,0,0.326,0.326,0.326,0.326,0.326,0.326,0.326,0.326,0.326,0.326,0.326,0.326,0.326,0.326,0.326,0.326,0.326,0.326,0,0.327,0.327,0.327,0.327,0.327,0.327,0.327,0.327,0.327,0.328,0.328,0.328,0.328,0.329,0.329,0.329,0.329,0.33,0.33,0.33,0.331,0.331,0,0.332,0.332,0.332,0.332,0.333,0.333,0.333,0.333,0.334,0.334,0.335,0.335,0.335,0.335,0.336,0.336,0.336,0,0.337,0.337,0.338,0.338,0.338,0.338,0.339,0.339,0.339,0.339,0.339,0.339,0.34,0.34,0.34,0.341,0.341,0.341,0.341,0.341,0.342,0.342,0.342,0.342,0,0.343,0.343,0.344,0.344,0.345,0,0.345,0.346,0,0.348,0.348,0.349,0.35,0.351,0.351,0.352,0.353,0,0.354,0.355,0.355,0.356,0.357,0.358,0,0.359,0.361,0.362,0.363,0.364,0,0.365,0.366,0.366,0.367,0.369,0.369,0.37,0,0.371,0.372,0.373,0.373,0.374,0.375,0.376,0.377,0.377,0,0.378,0.38,0.381,0.382,0,0.384,0.385,0.386,0.388,0.389,0.39,0,0.392,0.393,0.394,0.395,0.397,0.397,0,0.398,0.399,0,0,0,0,0,0,0,0,0,0,0,0,0,0,0,0,0,0,0,0,0,0,0.483,0.483,0.483,0.482,0.482,0.482,0.481,0.481,0.481,0.48,0.48,0.479,0.478,0.478,0.477,0.476,0.476,0.476,0.476,0.475,0.475,0.475,0.474,0.474,0.473,0.473,0.472,0.472,0.471,0.471,0.471,0.47,0.47,0.47,0.47,0.469,0.469,0.469,0.469,0.468,0.468,0.468,0.467,0.467,0.467,0.466,0.466,0.465,0.465,0.465,0.464,0.464,0.463,0.463,0.463,0.463,0.463,0.463,0.462,0.461,0.461,0.461,0.46,0.46,0.46,0.46,0.459,0.459,0.459,0.458,0.458,0.458,0.458,0.457,0.457,0.456,0.456,0.455,0.454,0.453,0.453,0.452,0.452,0.452,0.452,0.452,0.452,0.451,0.451,0.451,0.45,0.449,0.449,0.448,0.448,0.448,0.447,0.447,0.447,0.447,0.447,0.447,0.447,0.446,0.446,0.446,0.446,0.446,0.446,0.446,0.446,0.446,0.446,0.446,0.446,0.445,0.445,0.444,0.443,0.442,0.442,0.442,0.442,0.442,0.441,0.441,0.441,0.441,0.44,0.44,0.44,0.439,0.438,0.437,0.437,0.437,0.436,0.436,0.435,0.435,0.435,0.434,0.434,0.433,0.433,0.433,0.433,0.432,0.432,0.432,0.432,0.432,0.432,0.432,0.432,0.432,0.432,0.432,0.432,0.432,0.432,0.432,0.431,0.431,0.431,0.431,0.431,0.431,0.431,0.431,0.431,0,0,0,0,0,0,0,0,0,0,0,0,0,0,0,0,0,0,0,0,0,0,0,0,0,0,0,0,0,0,0,0,0,0,0,0,0,0,0,0,0,0,0,0,0,0,0,0,0,0,0,0,0,0,0,0,0,0,0,0,0,0,0,0,0
0,0,0,0,0,0,0,0,0,0,0,0,0,0,0,0,0,0,0,0,0,0,0,0,0,0,0,0,0,0.662,0.66,0,0,0,0,0,0.655,0.655,0.655,0.655,0.655,0.653,0.651,0.65,0.648,0.647,0.646,0.645,0.644,0.644,0.643,0.642,0.641,0.639,0.638,0.637,0.636,0.636,0.635,0.635,0.635,0.635,0.634,0.634,0.634,0.634,0.634,0.633,0.633,0.633,0.633,0.633,0.632,0.631,0.63,0.629,0.628,0.627,0.625,0.629,0.629,0.628,0.627,0.626,0.625,0.624,0.624,0.624,0.623,0.623,0.622,0.622,0.622,0.621,0.621,0.62,0.619,0.619,0.618,0.617,0.616,0.615,0.614,0.614,0.613,0.612,0.611,0.611,0.611,0.61,0.609,0.609,0.608,0.608,0.607,0.606,0.606,0.604,0.604,0.603,0.602,0.602,0.602,0.601,0.601,0.601,0.6,0.6,0.6,0.599,0.599,0.598,0.598,0.597,0.596,0.595,0.594,0.593,0.593,0.592,0.592,0.592,0.592,0.592,0.591,0.591,0.59,0.589,0.589,0.588,0.586,0.585,0.584,0.583,0.583,0.582,0.582,0.582,0.581,0.581,0.581,0.581,0.58,0.58,0.58,0.579,0.579,0.578,0.578,0.577,0.577,0.575,0.575,0.575,0.575,0.574,0.574,0.574,0.573,0.573,0.573,0.573,0.572,0.571,0.571,0.57,0.57,0.569,0.569,0.569,0.569,0.569,0.57,0.57,0.57,0.57,0.57,0,0,0,0,0,0,0,0,0,0,0,0,0,0,0,0,0,0,0,0,0,0,0,0,0,0,0,0,0.326,0.326,0.326,0.326,0.326,0.325,0,0.326,0.326,0.326,0.326,0.326,0.326,0.326,0.326,0.326,0.326,0.326,0.326,0.326,0.326,0.326,0.326,0.326,0,0.327,0.327,0.327,0.327,0.327,0.327,0.327,0.328,0.328,0.328,0.329,0.329,0.329,0.329,0.33,0.33,0.33,0.331,0.331,0,0.332,0.332,0.332,0.332,0.333,0.333,0.333,0.334,0.334,0.335,0.335,0.335,0.335,0.335,0.336,0.336,0.336,0,0.337,0.337,0.338,0.338,0.338,0.338,0.339,0.339,0.339,0.339,0.339,0.339,0.339,0.34,0.34,0.34,0.341,0.341,0.341,0.341,0.342,0.342,0.342,0.342,0,0.343,0.343,0.344,0.344,0.345,0.345,0.346,0.347,0,0.348,0.348,0.349,0.35,0.351,0.352,0.352,0.353,0,0.354,0.355,0.356,0.357,0.358,0,0.359,0.361,0.362,0.362,0.363,0.364,0,0.365,0.366,0.366,0.368,0.369,0.37,0,0.371,0.372,0.373,0.373,0.374,0.375,0.376,0.377,0.377,0,0.378,0.38,0.381,0.382,0,0.384,0.385,0.386,0.388,0.389,0,0.391,0.392,0.393,0.394,0.395,0.396,0.397,0,0.398,0.399,0,0,0,0,0,0,0.431,0.431,0.431,0.432,0,0,0,0,0,0,0,0,0,0,0,0,0,0,0.482,0.481,0.481,0.48,0.479,0.479,0.478,0.477,0.477,0.476,0.476,0.475,0.475,0.475,0.475,0.474,0.473,0.473,0.473,0.472,0.472,0.471,0.471,0.471,0.47,0.47,0.47,0.469,0.469,0.469,0.469,0.468,0.468,0.467,0.467,0.467,0.466,0.466,0.466,0.465,0.465,0.465,0.464,0.464,0.464,0.464,0.464,0.463,0.463,0.463,0.463,0.462,0.462,0.461,0.461,0.46,0.46,0.459,0.459,0.458,0.458,0.458,0.458,0.458,0.458,0.458,0.457,0.457,0.457,0.457,0.456,0.455,0.454,0.453,0.453,0.453,0.452,0.452,0.452,0.452,0.451,0.451,0.451,0.45,0.45,0.449,0.449,0.448,0.447,0.447,0.447,0.447,0.446,0.446,0.446,0.446,0.446,0.446,0.446,0.446,0.446,0.445,0.445,0.445,0.445,0.445,0.445,0.444,0.444,0.444,0.443,0.443,0.443,0.442,0.441,0.441,0.441,0.441,0.441,0.441,0.44,0.44,0.44,0.439,0.438,0.438,0.437,0.436,0.436,0.436,0.436,0.435,0.435,0.435,0.434,0.433,0.433,0.432,0.432,0.431,0.431,0.431,0.431,0.431,0.431,0.431,0.431,0.431,0.431,0.431,0.431,0.431,0.431,0.431,0.431,0.431,0.431,0.431,0.431,0.431,0.431,0.43,0.43,0.43,0.43,0.43,0.43,0.43,0.43,0.429,0,0,0,0,0,0,0,0,0,0,0,0,0,0,0,0,0,0,0,0,0,0,0,0,0,0,0,0,0,0,0,0,0,0,0,0,0,0,0,0,0,0,0,0,0,0,0,0,0,0,0,0,0,0,0,0,0,0,0,0,0,0,0,0
0,0,0,0,0,0,0,0,0,0,0,0,0,0,0,0,0,0,0,0,0,0,0,0,0,0,0,0,0,0,0.655,0.654,0.653,0,0.65,0.65,0.65,0.649,0.649,0.648,0.647,0.646,0.645,0.645,0.644,0.644,0.643,0.642,0.641,0.64,0.638,0.636,0.635,0.634,0.634,0.633,0.633,0.633,0.633,0.633,0.633,0.633,0.632,0.632,0.632,0.632,0.632,0.632,0.632,0.631,0.629,0.628,0.627,0.626,0.624,0.624,0.623,0.623,0.622,0.622,0.622,0.621,0.621,0.62,0.619,0.619,0.618,0.617,0.617,0.616,0.615,0.614,0.614,0.613,0.612,0.612,0.612,0.611,0.611,0.611,0.609,0.608,0.608,0.607,0.606,0.605,0.609,0.608,0.607,0.606,0.605,0.604,0.603,0.603,0.603,0.602,0.602,0.601,0.601,0.601,0.6,0.6,0.599,0.599,0.598,0.597,0.597,0.596,0.595,0.594,0.594,0.593,0.593,0.592,0.592,0.592,0.592,0.591,0.591,0.591,0.59,0.59,0.589,0.589,0.588,0.587,0.586,0.586,0.585,0.584,0.583,0.582,0.582,0.581,0.581,0.58,0.579,0.579,0.579,0.578,0.577,0.576,0.576,0.575,0.575,0.575,0.575,0.574,0.574,0.573,0.573,0.573,0.573,0.573,0.573,0.573,0.572,0.572,0.572,0.571,0.57,0.57,0,0.567,0.566,0.566,0.566,0.566,0.566,0.566,0.566,0.567,0.567,0,0,0,0,0,0,0,0,0,0,0,0,0,0,0,0,0,0,0,0,0,0,0,0,0,0,0,0,0,0,0,0.325,0.325,0.325,0.325,0.325,0.325,0.325,0.325,0.325,0.325,0,0.326,0.325,0,0.326,0.326,0.326,0.326,0.326,0.326,0.326,0.326,0.326,0.326,0.326,0.326,0.326,0.326,0,0.327,0.327,0.327,0.327,0.327,0.328,0.328,0.328,0.329,0.329,0.329,0.329,0.33,0.33,0.33,0.331,0.331,0,0.332,0.332,0.332,0.332,0.333,0.333,0.333,0.334,0.334,0.335,0.335,0.335,0.335,0.335,0.336,0.336,0,0.337,0.337,0.338,0.338,0.338,0.338,0.338,0.338,0.339,0.339,0.339,0.339,0.339,0.339,0.34,0.34,0.34,0.341,0.341,0.341,0.341,0.342,0.342,0.342,0.342,0,0.343,0.343,0.344,0.344,0.345,0.345,0.346,0,0.348,0.348,0.349,0.349,0.351,0.351,0.352,0.352,0.353,0,0.355,0.355,0.357,0.358,0,0.359,0.36,0.361,0.362,0.363,0.364,0,0.365,0.366,0.366,0.367,0.369,0.369,0.37,0,0.371,0.373,0.373,0.374,0.375,0.376,0.377,0.377,0,0.378,0,0.381,0.382,0,0.384,0.385,0.387,0.389,0.389,0,0.391,0.392,0.393,0.394,0.395,0.396,0.397,0,0.398,0,0,0,0,0,0,0.431,0.431,0.431,0,0.432,0,0,0,0,0,0,0,0,0,0,0,0,0.48,0.48,0.479,0.479,0.478,0.477,0.477,0.476,0.476,0.475,0.475,0.474,0.474,0.473,0.473,0.472,0.472,0.471,0.471,0.471,0.47,0.47,0.47,0.47,0.469,0.469,0.469,0.469,0.468,0.468,0.468,0.467,0.467,0.466,0.465,0.465,0.464,0.464,0.464,0.464,0.464,0.463,0.463,0.463,0.463,0.463,0.463,0.463,0.462,0.462,0.462,0.461,0.461,0.46,0.46,0.46,0.459,0.459,0.458,0.458,0.458,0.458,0.457,0.457,0.457,0.457,0.456,0.456,0.455,0.455,0.454,0.453,0.453,0.452,0.452,0.452,0.452,0.452,0.451,0.45,0.449,0.449,0.449,0.449,0.448,0.448,0.447,0.447,0.447,0.447,0.446,0.446,0.445,0.444,0.444,0.444,0.444,0.443,0.443,0.443,0.443,0.443,0.443,0.442,0.442,0.442,0.442,0.442,0.442,0.442,0.441,0.441,0.441,0.441,0.441,0.44,0.44,0.439,0.439,0.438,0.438,0.438,0.437,0.437,0.436,0.436,0.436,0.436,0.435,0.435,0.435,0.435,0.435,0.433,0.433,0.432,0.432,0.431,0.431,0.431,0.43,0.43,0.43,0.43,0.43,0.43,0.43,0.43,0.43,0.43,0.43,0.43,0.43,0.43,0.43,0.43,0.43,0.43,0.43,0.43,0.429,0.429,0.429,0.429,0.428,0.427,0.427,0.427,0.427,0.427,0.426,0,0,0,0,0,0,0,0,0,0,0,0,0,0,0,0,0,0,0,0,0,0,0,0,0,0,0,0,0,0,0,0,0,0,0,0,0,0,0,0,0,0,0,0,0,0,0,0,0,0,0,0,0,0,0,0,0,0,0,0,0,0,0,0,0
0,0,0,0,0,0,0,0,0,0,0,0,0,0,0,0,0,0,0,0,0,0,0,0,0,0,0,0,0,0.651,0.65,0.647,0.646,0.646,0.645,0.645,0.644,0.644,0.644,0.644,0.644,0.643,0.642,0.641,0.64,0.64,0.636,0.635,0.635,0.634,0.633,0.633,0.633,0.632,0.632,0.632,0.631,0.631,0.631,0.63,0.63,0.63,0.63,0.63,0.629,0.629,0.628,0.628,0.627,0.626,0.625,0.624,0.623,0.622,0.622,0.622,0.621,0.621,0.62,0.619,0.618,0.617,0.616,0.615,0.614,0.614,0.613,0.613,0.612,0.612,0.612,0.611,0.611,0.611,0.61,0.61,0.608,0.608,0.606,0.605,0.604,0.603,0.603,0.602,0.602,0.602,0.601,0.601,0.601,0.6,0.6,0.599,0.598,0.598,0.597,0.596,0.595,0.594,0.594,0.593,0.593,0.592,0.592,0.592,0.592,0.591,0.591,0.592,0.592,0.592,0.591,0.591,0.591,0.59,0.59,0.589,0.589,0.588,0.587,0.587,0.586,0.586,0.585,0.584,0.584,0.583,0.583,0.582,0.582,0.581,0.581,0.58,0.579,0.579,0.577,0.576,0.575,0.575,0.574,0.574,0.574,0.573,0.573,0.573,0.573,0.573,0.572,0.572,0.572,0.572,0.572,0.571,0.571,0.571,0.571,0.57,0.569,0.568,0.567,0.566,0.566,0.565,0.565,0.564,0.564,0.564,0.564,0.564,0.564,0.565,0.565,0,0,0,0,0,0,0,0,0,0,0,0,0,0,0,0,0,0,0,0,0,0,0,0,0,0,0,0,0,0,0,0.325,0.325,0.325,0.325,0.325,0.325,0.325,0.325,0.325,0.325,0.325,0.325,0.325,0.325,0.325,0.325,0.325,0.325,0.325,0.325,0.326,0.326,0.326,0.326,0.326,0.326,0.326,0.326,0.326,0.326,0.326,0.326,0,0.327,0.327,0.327,0.327,0.327,0.328,0.328,0.329,0.329,0.329,0.329,0.33,0.33,0.33,0.331,0,0.332,0.332,0.332,0.332,0.333,0.333,0.333,0.333,0.334,0.334,0.335,0.335,0.335,0.335,0.336,0.336,0.336,0,0.337,0.337,0.338,0.338,0.338,0.338,0.338,0.338,0.339,0.339,0.339,0.339,0.339,0.339,0.34,0.34,0.34,0.341,0.341,0.341,0.341,0.342,0.342,0.342,0,0.343,0.343,0.344,0.344,0.345,0.345,0.346,0.347,0,0.348,0.348,0.349,0.35,0.351,0.351,0.352,0.353,0,0.354,0.355,0.356,0.358,0.358,0,0.36,0.361,0.362,0.363,0.364,0,0.365,0.366,0.366,0.367,0.368,0.369,0.37,0,0.371,0.372,0.373,0.374,0.375,0.376,0.377,0.377,0,0.378,0.38,0.381,0.382,0,0.384,0.385,0.386,0.388,0.389,0,0.391,0.392,0.393,0.394,0.395,0.396,0,0,0,0,0,0,0,0,0,0.431,0.431,0.431,0.431,0.432,0.432,0,0.433,0,0,0,0,0,0,0,0,0.476,0,0.476,0.476,0.476,0.476,0.475,0.475,0.475,0.474,0.473,0.473,0.472,0.471,0.471,0.47,0.47,0.47,0.47,0.47,0.47,0.469,0.469,0.469,0.469,0.468,0.468,0.467,0.467,0.466,0.465,0.465,0.465,0.465,0.464,0.464,0.463,0.463,0.463,0.463,0.463,0.463,0.462,0.462,0.462,0.462,0.461,0.46,0.46,0.46,0.459,0.459,0.459,0.458,0.458,0.458,0.458,0.458,0.458,0.457,0.457,0.457,0.457,0.456,0.455,0.454,0.454,0.453,0.453,0.453,0.452,0.452,0.452,0.452,0.451,0.451,0.451,0.449,0.449,0.448,0.448,0.447,0.447,0.447,0.447,0.447,0.446,0.446,0.446,0.446,0.445,0.444,0.443,0.442,0.442,0.442,0.442,0.442,0.441,0.441,0.441,0.441,0.441,0.441,0.441,0.441,0.441,0.441,0.441,0.441,0.441,0.44,0.44,0.44,0.439,0.438,0.438,0.437,0.437,0.437,0.436,0.436,0.436,0.436,0.436,0.435,0.435,0.434,0.434,0.433,0.433,0.433,0.433,0.432,0.432,0.431,0.431,0.431,0.431,0.43,0.43,0.43,0.429,0.429,0.429,0.429,0.429,0.429,0.428,0.429,0.428,0.429,0.428,0.428,0.428,0.428,0.428,0.428,0.428,0.428,0.427,0.427,0.426,0.426,0.426,0.425,0.425,0.425,0.425,0.425,0.425,0.425,0,0,0,0,0,0,0,0,0,0,0,0,0,0,0,0,0,0,0,0,0,0,0,0,0,0,0,0,0,0,0,0,0,0,0,0,0,0,0,0,0,0,0,0,0,0,0,0,0,0,0,0,0,0,0,0,0,0,0,0,0,0,0,0,0
0,0,0,0,0,0,0,0,0,0,0,0,0,0,0,0,0,0,0,0,0,0,0,0,0,0,0,0,0.645,0.645,0.644,0.644,0.644,0.643,0.642,0.64,0.64,0.639,0.639,0.638,0.638,0.636,0.635,0.634,0.634,0.633,0.633,0.632,0.632,0.632,0.631,0.63,0.63,0.629,0.629,0.628,0.628,0.627,0.627,0.627,0.627,0.626,0.626,0.626,0.625,0.625,0.624,0.624,0.623,0.623,0.622,0.622,0.621,0.62,0.619,0.618,0.617,0.615,0.614,0.614,0.613,0.612,0.612,0.612,0.611,0.611,0.611,0.611,0.61,0.61,0.609,0.608,0.608,0.606,0.605,0.604,0.603,0.603,0.602,0.602,0.601,0.601,0.601,0.6,0.6,0.599,0.598,0.598,0.597,0.596,0.595,0.594,0.594,0.593,0.593,0.592,0.592,0.592,0.592,0.591,0.591,0.591,0.59,0.59,0.588,0.588,0.587,0.586,0.586,0.585,0.584,0.584,0.583,0.583,0.582,0.582,0.582,0.582,0.581,0.581,0.581,0.58,0.582,0.582,0.582,0.581,0.581,0.581,0.58,0.579,0.578,0.576,0.576,0.575,0.574,0.573,0.573,0.573,0.573,0.572,0.571,0.571,0.571,0.571,0.57,0.57,0.57,0.57,0.569,0.569,0.569,0.568,0.568,0.567,0.566,0.566,0.565,0.565,0.564,0.564,0.563,0.563,0.562,0.561,0.561,0.561,0.561,0.562,0,0,0,0,0,0,0,0,0,0,0,0,0,0,0,0,0,0,0,0,0,0,0,0,0,0,0,0,0,0,0,0,0,0,0.325,0.325,0.325,0.324,0.324,0.324,0.324,0.325,0.325,0.324,0.325,0.325,0.324,0.324,0.325,0.324,0.325,0.325,0.325,0.325,0.325,0.325,0.325,0.326,0.326,0.326,0.326,0.326,0.326,0.326,0.326,0.326,0.326,0,0.327,0.327,0.327,0.327,0.328,0.328,0.328,0.329,0.329,0.329,0.329,0.33,0.33,0.331,0.331,0,0.332,0.332,0.332,0.332,0.333,0.333,0.333,0.334,0.334,0.334,0.335,0.335,0.335,0.335,0.336,0.336,0.336,0,0.337,0.337,0.338,0.338,0.338,0.338,0.338,0.338,0.339,0.339,0.339,0.339,0.339,0.339,0.34,0.34,0.34,0.341,0.341,0.341,0.341,0.342,0.342,0.342,0,0.343,0.344,0.344,0.345,0.345,0.346,0.347,0,0.348,0.348,0.348,0.349,0.35,0.351,0.352,0.352,0.353,0,0.355,0.355,0.357,0.358,0,0.359,0.361,0.362,0.362,0.363,0.364,0,0.365,0.366,0.366,0.368,0.369,0.369,0.37,0,0.372,0.373,0.373,0.374,0.376,0.377,0.377,0,0.378,0.38,0.381,0.382,0,0.385,0.385,0.386,0.388,0.389,0,0.391,0.392,0.393,0.394,0,0,0,0,0,0,0,0,0,0,0,0.431,0.431,0.431,0.431,0.432,0.433,0.433,0.434,0,0,0,0,0,0,0,0,0,0,0.475,0.474,0.474,0.474,0.473,0.472,0.472,0.471,0.47,0.47,0.47,0,0,0.469,0.469,0.469,0.469,0.469,0.468,0.468,0.467,0.467,0.467,0.466,0.465,0.465,0.464,0.464,0.464,0.464,0.464,0.463,0.463,0.463,0.463,0.463,0.462,0.462,0.461,0.46,0.46,0.459,0.459,0.459,0.459,0.458,0.458,0.458,0.458,0.458,0.458,0.457,0.457,0.457,0.457,0.457,0.456,0.455,0.455,0.454,0.454,0.453,0.453,0.452,0.452,0.452,0.452,0.452,0.451,0.451,0.451,0.45,0.449,0.448,0.448,0.448,0.447,0.447,0.447,0.446,0.446,0.446,0.446,0.445,0.445,0.444,0.443,0.442,0.442,0.442,0.441,0.441,0.441,0.441,0.441,0.441,0.44,0.44,0.44,0.44,0.44,0.44,0.44,0.439,0.439,0.439,0.439,0.438,0.438,0.438,0.437,0.437,0.436,0,0,0,0.435,0.435,0.435,0.435,0.435,0.434,0.433,0,0,0.432,0.431,0.431,0.431,0.431,0.431,0.431,0.431,0.431,0.43,0.43,0.43,0.429,0.428,0.428,0.428,0.428,0.428,0.427,0.427,0.427,0.427,0.427,0.427,0.427,0.427,0.426,0.426,0.426,0.426,0.426,0.425,0.425,0.425,0.425,0.425,0.424,0.424,0,0,0,0,0,0,0,0,0,0,0,0,0,0,0,0,0,0,0,0,0,0,0,0,0,0,0,0,0,0,0,0,0,0,0,0,0,0,0,0,0,0,0,0,0,0,0,0,0,0,0,0,0,0,0,0,0,0,0,0,0,0,0,0,0,0,0,0,0,0,0,0
0,0,0,0,0,0,0,0,0,0,0,0,0,0,0,0,0,0,0,0,0,0,0,0,0,0,0,0,0,0.643,0.641,0.64,0.64,0.639,0.637,0.635,0.635,0.634,0.633,0.633,0.633,0.632,0.632,0.632,0.631,0.63,0.63,0.629,0.628,0.628,0.627,0.626,0.625,0.625,0.624,0.624,0.624,0.623,0.623,0.623,0.623,0.623,0.623,0.623,0.622,0.622,0.622,0.622,0.621,0.621,0.62,0.619,0.617,0.614,0.614,0.613,0.612,0.612,0.612,0.611,0.611,0.611,0.61,0.609,0.609,0.608,0.608,0.606,0.606,0.604,0.603,0.603,0.602,0.602,0.601,0.601,0.601,0.6,0.6,0.599,0.598,0.598,0.597,0.596,0.595,0.594,0.594,0.593,0.593,0.592,0.592,0.592,0.591,0.591,0.591,0.59,0.59,0.589,0.589,0.589,0.587,0.587,0.586,0.586,0.584,0.584,0.583,0.583,0.583,0.582,0.582,0.582,0.581,0.581,0.581,0.58,0.579,0.578,0.578,0.576,0.576,0.575,0.575,0.575,0.575,0.574,0.574,0.574,0.573,0.573,0.573,0.572,0.572,0.571,0.57,0.572,0.571,0.57,0.57,0.569,0.568,0.567,0.567,0.567,0.566,0.566,0.566,0.566,0.566,0.565,0.565,0.565,0.565,0.564,0.564,0.564,0.563,0.562,0.561,0.561,0.559,0.559,0.558,0.557,0.556,0.556,0.557,0.557,0,0,0,0,0,0,0,0,0,0,0,0,0,0,0,0,0,0,0,0,0,0,0,0,0,0,0,0,0,0,0,0,0.326,0.325,0.325,0.325,0.324,0.324,0.324,0.324,0.324,0.324,0.324,0.324,0.324,0.324,0.324,0.324,0.324,0.324,0.324,0.324,0.324,0.324,0.325,0.325,0.325,0.325,0.325,0.325,0.325,0.326,0.326,0.326,0.326,0.326,0.326,0.326,0,0.327,0.327,0.327,0.327,0.328,0.328,0.328,0.329,0.329,0.329,0.33,0.33,0.33,0.331,0.331,0,0.332,0.332,0.332,0.332,0.333,0.333,0.333,0.334,0.334,0.335,0.335,0.335,0.335,0.336,0.336,0.336,0,0.337,0.337,0.337,0.338,0.338,0.338,0.338,0.338,0.338,0.339,0.339,0.339,0.339,0.339,0.339,0.34,0.34,0.341,0.341,0.341,0.341,0.342,0.342,0.342,0,0.343,0.344,0.344,0.345,0.345,0.345,0.346,0.347,0,0.348,0.348,0.349,0.35,0.351,0.351,0.352,0.352,0,0.354,0.355,0.356,0.358,0,0.359,0.36,0.361,0.362,0.363,0.364,0,0.365,0.365,0.366,0.367,0.368,0.369,0.37,0,0.371,0.373,0.373,0.374,0.376,0.377,0.377,0,0.378,0.38,0.381,0.382,0,0.384,0.385,0.387,0.389,0.39,0,0.391,0.393,0.393,0.394,0,0,0,0,0,0,0,0,0,0,0.431,0.431,0.431,0.431,0.431,0.432,0.433,0.433,0.434,0.434,0,0,0,0,0,0,0.47,0,0,0.47,0.47,0.47,0.47,0.47,0.47,0.469,0.469,0.469,0.468,0.468,0.467,0.466,0.466,0.466,0.466,0.466,0.466,0.465,0.465,0.465,0.464,0.464,0.464,0.464,0.464,0.463,0.463,0.463,0.463,0.463,0.463,0.462,0.462,0.461,0.46,0.46,0.459,0.459,0.458,0.458,0.458,0.458,0.457,0.457,0.457,0.457,0.457,0.457,0.457,0.456,0.456,0.456,0.455,0.454,0.454,0.453,0.453,0.453,0.452,0.452,0.452,0.452,0.452,0.451,0.451,0.451,0.45,0.448,0.448,0.448,0.447,0.447,0.447,0.447,0.446,0.446,0.446,0.446,0.445,0.445,0.444,0.442,0.442,0.442,0.441,0.441,0.441,0.441,0.441,0.441,0.44,0.44,0.44,0.439,0.439,0.439,0.438,0.438,0.437,0.437,0.437,0.437,0.437,0.437,0.437,0.437,0.436,0.436,0.436,0.436,0.436,0.435,0.435,0.434,0.433,0.433,0.432,0.432,0.432,0.431,0.431,0.431,0.431,0.431,0.431,0.43,0.43,0.431,0.43,0.43,0.43,0.43,0.429,0.429,0.429,0.428,0.427,0.427,0.427,0.426,0.426,0.426,0.426,0.426,0.426,0.426,0.426,0.426,0.426,0.425,0.425,0.425,0.425,0.425,0.424,0.424,0.423,0.422,0.422,0.422,0.421,0.421,0,0,0,0.42,0,0,0,0,0,0,0,0,0,0,0,0,0,0,0,0,0,0,0,0,0,0,0,0,0,0,0,0,0,0,0,0,0,0,0,0,0,0,0,0,0,0,0,0,0,0,0,0,0,0,0,0,0,0,0,0,0,0,0,0,0,0,0,0,0,0,0,0
0,0,0,0,0,0,0,0,0,0,0,0,0,0,0,0,0,0,0,0,0,0,0,0,0,0,0,0,0,0,0.64,0.64,0.638,0.635,0.634,0.632,0.632,0.631,0.631,0.63,0.629,0.628,0.628,0.627,0.626,0.626,0.625,0.624,0.624,0.623,0.623,0.623,0.622,0.622,0.622,0.622,0.622,0.622,0.621,0.621,0.621,0.621,0.621,0.621,0.621,0.62,0.62,0.619,0.618,0.616,0.615,0.613,0.612,0.612,0.611,0.611,0.611,0.61,0.609,0.609,0.608,0.607,0.606,0.605,0.603,0.603,0.603,0.602,0.602,0.601,0.601,0.601,0.6,0.6,0.599,0.598,0.598,0.597,0.595,0.595,0.593,0.593,0.592,0.592,0.592,0.592,0.592,0.591,0.591,0.591,0.59,0.589,0.589,0.588,0.587,0.586,0.586,0.585,0.584,0.584,0.584,0.583,0.583,0.583,0.582,0.582,0.582,0.581,0.581,0.58,0.58,0.579,0.578,0.576,0.575,0.575,0.574,0.574,0.574,0.573,0.573,0.573,0.573,0.573,0.573,0.573,0.572,0.572,0.571,0.571,0.57,0.569,0.567,0.566,0.565,0.565,0.565,0.564,0.564,0.564,0.564,0.563,0.563,0.563,0.563,0.564,0.564,0.564,0.564,0.564,0.564,0.563,0.563,0.563,0.561,0.56,0.559,0.558,0.557,0.557,0.556,0.556,0.556,0.555,0.555,0.555,0.555,0,0,0,0,0,0,0,0,0,0,0,0,0,0,0,0,0,0,0,0,0,0,0,0,0,0,0,0,0,0,0,0,0,0,0.325,0.325,0.325,0.324,0.324,0.324,0.324,0.324,0.324,0.324,0.324,0.324,0.324,0.324,0.324,0.324,0.324,0.324,0.324,0.324,0.324,0.324,0.324,0.324,0.324,0.325,0.325,0.325,0.325,0.325,0.326,0.326,0.326,0.326,0.326,0.326,0,0.327,0.327,0.327,0.327,0.328,0.328,0.329,0.329,0.329,0.329,0.33,0.33,0.331,0.331,0,0.332,0.332,0.332,0.332,0.333,0.333,0.333,0.334,0.334,0.334,0.335,0.335,0.335,0.335,0.336,0.336,0,0.337,0.337,0.337,0.338,0.338,0.338,0.338,0.338,0.338,0.338,0.338,0.339,0.339,0.339,0.339,0.339,0.34,0.34,0.341,0.341,0.341,0.342,0.342,0.342,0,0.343,0.343,0.344,0.344,0.345,0.345,0.346,0.347,0,0.348,0.348,0.349,0.35,0.351,0.351,0.352,0.352,0.353,0,0.355,0.355,0.357,0.358,0,0.359,0.361,0.362,0.362,0.363,0.364,0,0.365,0.366,0.367,0.368,0.369,0.37,0,0.371,0.373,0.373,0.374,0.376,0.377,0.377,0,0.378,0.38,0.381,0.383,0,0.385,0.386,0.387,0.389,0.39,0,0,0.392,0.393,0,0,0,0,0,0,0,0,0,0,0.43,0.431,0.431,0.431,0.431,0.431,0.432,0.433,0.433,0.434,0.434,0,0,0,0,0,0,0.468,0,0,0,0.469,0,0,0.468,0.468,0.467,0.467,0.465,0.465,0.464,0.464,0.464,0.464,0.464,0.464,0.464,0.464,0.464,0.463,0.463,0.463,0.463,0.463,0.463,0.463,0.462,0.462,0.461,0.461,0.46,0.46,0.46,0.459,0.458,0.458,0.458,0.458,0.458,0.457,0.457,0.457,0.456,0.456,0.456,0.455,0.455,0.454,0.454,0.453,0.453,0.453,0.453,0.453,0.453,0.452,0.452,0,0.452,0.452,0.451,0.451,0.451,0.45,0.449,0.449,0.448,0.447,0.447,0.447,0.447,0.446,0.446,0.446,0.446,0.445,0.444,0.443,0.443,0.442,0.441,0.441,0.441,0.441,0.441,0.44,0.44,0.44,0.439,0.439,0.439,0.438,0.438,0.437,0.436,0.436,0.436,0.436,0.436,0.436,0.436,0.436,0.436,0.436,0.436,0.436,0.436,0.435,0.435,0.435,0.434,0.434,0.432,0.431,0.431,0.431,0.431,0.431,0.431,0.431,0.43,0.43,0.43,0.43,0.43,0.429,0.429,0.429,0.429,0.429,0.429,0.428,0.428,0.427,0.427,0.427,0.426,0.426,0.426,0.426,0.425,0.425,0.425,0.425,0.425,0.425,0.425,0.425,0.425,0.424,0.424,0.423,0.423,0.422,0.422,0.421,0,0.421,0.421,0.42,0.42,0.42,0.42,0.419,0.418,0.418,0.418,0.418,0,0,0,0,0,0,0,0,0,0,0,0,0,0,0,0,0,0,0,0,0,0,0,0,0,0,0,0,0,0,0,0,0,0,0,0,0,0,0,0,0,0,0,0,0,0,0,0,0,0,0,0,0,0,0,0,0,0,0,0,0,0,0,0,0,0,0
0,0,0,0,0,0,0,0,0,0,0,0,0,0,0,0,0,0,0,0,0,0,0,0,0,0,0,0,0,0,0,0,0,0,0.63,0.629,0.628,0.626,0.625,0.624,0.624,0.623,0.623,0.623,0.623,0.622,0.622,0.622,0.622,0.621,0.621,0.621,0.62,0.62,0.619,0.619,0.619,0.618,0.618,0.618,0.617,0.617,0.617,0.616,0.616,0.615,0.614,0.614,0.612,0.612,0.611,0.611,0.61,0.609,0.608,0.608,0.607,0.607,0.606,0.604,0.603,0.603,0.602,0.602,0.601,0.601,0.601,0.6,0.599,0.599,0.598,0.598,0.597,0.596,0.595,0.594,0.592,0.592,0.592,0.592,0.591,0.591,0.591,0.591,0.59,0.59,0.589,0.588,0.587,0.586,0.586,0.585,0.584,0.583,0.583,0.583,0.583,0.582,0.582,0.582,0.582,0.582,0.581,0.581,0.581,0.58,0.579,0.578,0.577,0.575,0.575,0.574,0.574,0.573,0.573,0.573,0.573,0.572,0.572,0.572,0.571,0.571,0.571,0.571,0.57,0.57,0.57,0.569,0.567,0.566,0.566,0.565,0.565,0.564,0.564,0.563,0.563,0.563,0.562,0.562,0.562,0.561,0.561,0.561,0.561,0.559,0.559,0.559,0.558,0.557,0.556,0.556,0.556,0.555,0.557,0.556,0.556,0.556,0.555,0.555,0.555,0.555,0.554,0.554,0.554,0.554,0.554,0,0,0,0,0,0,0,0,0,0,0,0,0,0,0,0,0,0,0,0,0,0,0,0,0,0,0,0,0,0,0,0.326,0.326,0.326,0.325,0.325,0.324,0.324,0.324,0.324,0.324,0.324,0.324,0.324,0.323,0.323,0.323,0.323,0.323,0.323,0.323,0.323,0.324,0.324,0.324,0.324,0.324,0.324,0.324,0.324,0.324,0.324,0.325,0.325,0.325,0.326,0.326,0.326,0.326,0.326,0.326,0,0.327,0.327,0.327,0.328,0.328,0.328,0.329,0.329,0.329,0.329,0.33,0.33,0.331,0.331,0,0.332,0.332,0.332,0.333,0.333,0.333,0.333,0.334,0.334,0.335,0.335,0.335,0.335,0.336,0.336,0.336,0,0.337,0.337,0.337,0.338,0.338,0.338,0.338,0.338,0.338,0.338,0.339,0.339,0.339,0.339,0.339,0.34,0.34,0.341,0.341,0.341,0.342,0.342,0.342,0,0.343,0.343,0.344,0.344,0.345,0.345,0.346,0.347,0,0.348,0.348,0.348,0.349,0.35,0.351,0.351,0.352,0.353,0,0.354,0.355,0.356,0.358,0,0.359,0.36,0.362,0.362,0.363,0.364,0,0.365,0.366,0.366,0.368,0.369,0.37,0,0.371,0.373,0.373,0.374,0.376,0.377,0.377,0,0.378,0.38,0.381,0.383,0,0.385,0.385,0.388,0.389,0.39,0,0,0.392,0.393,0,0,0,0,0,0,0,0,0,0.43,0.43,0.431,0.431,0.431,0.431,0.431,0.432,0.433,0.433,0.434,0.435,0,0,0,0,0,0,0.465,0,0,0.465,0.465,0.465,0.465,0.465,0.464,0.464,0.464,0.463,0.463,0.463,0.463,0.463,0.463,0.462,0.462,0.462,0.462,0.462,0.462,0.462,0.462,0.461,0.461,0.461,0.46,0.46,0.459,0.458,0.458,0.458,0.458,0.458,0.458,0.457,0.457,0.457,0.457,0,0.456,0.455,0.455,0.454,0.453,0.453,0.453,0.452,0.452,0.452,0.452,0.452,0.452,0.452,0.452,0.452,0.451,0.451,0.451,0.451,0.45,0.45,0.449,0.449,0.447,0.447,0.447,0.446,0.446,0.446,0.446,0.445,0.445,0.444,0.444,0.443,0.442,0.441,0.441,0.441,0.441,0.44,0.44,0.439,0.439,0.438,0.438,0.438,0.437,0.437,0.437,0.436,0.436,0.436,0.436,0.436,0.435,0.435,0.435,0.435,0.435,0.435,0.434,0.434,0.435,0.435,0.434,0.434,0.433,0.433,0.431,0.431,0.431,0.43,0.43,0.43,0.429,0.429,0.429,0.429,0.429,0.428,0.428,0.428,0.427,0.427,0.427,0.427,0,0.427,0.427,0.427,0.426,0.426,0.426,0.425,0.425,0.425,0.425,0.425,0.425,0.424,0.424,0.424,0.423,0.422,0.422,0.422,0.422,0.422,0.421,0.421,0.421,0.421,0.421,0.42,0.42,0.42,0.419,0.418,0.418,0.417,0.417,0.417,0.417,0.416,0.416,0.416,0.416,0.416,0,0,0,0,0,0,0,0,0,0,0,0,0,0,0,0,0,0,0,0,0,0,0,0,0,0,0,0,0,0,0,0,0,0,0,0,0,0,0,0,0,0,0,0,0,0,0,0,0,0,0,0,0,0,0,0,0,0,0,0,0,0,0,0,0,0
0,0,0,0,0,0,0,0,0,0,0,0,0,0,0,0,0,0,0,0,0,0,0,0,0,0,0,0,0,0,0,0,0,0.627,0.624,0.623,0.623,0.622,0.622,0.622,0.621,0.621,0.621,0.621,0.62,0.62,0.619,0.619,0.618,0.618,0.617,0.616,0.616,0.615,0.615,0.614,0.614,0.614,0.613,0.613,0.613,0.613,0.612,0.612,0.612,0.612,0.611,0.611,0.61,0.609,0.608,0.607,0.605,0.604,0.603,0.603,0.603,0.603,0.602,0.602,0.601,0.601,0.6,0.6,0.599,0.598,0.598,0.597,0.596,0.595,0.594,0.593,0.593,0.592,0.592,0.591,0.591,0.59,0.589,0.589,0.588,0.588,0.587,0.586,0.586,0.585,0.584,0.584,0.583,0.583,0.582,0.582,0.582,0.581,0.581,0.581,0.581,0.581,0.58,0.58,0.58,0.579,0.579,0.578,0.577,0.576,0.574,0.574,0.573,0.573,0.573,0.573,0.572,0.572,0.571,0.57,0.57,0.569,0.568,0.568,0.567,0.566,0.566,0.566,0.566,0.565,0.565,0.565,0.564,0.564,0.564,0.564,0.563,0.563,0.562,0.561,0.561,0.56,0.56,0.559,0.559,0.558,0.558,0.557,0.557,0.556,0.556,0.556,0.556,0.555,0.555,0.555,0.554,0.553,0.553,0.552,0.551,0.55,0.549,0.549,0.549,0.552,0.551,0.551,0.551,0.55,0,0.551,0,0,0,0,0,0,0,0,0,0,0,0,0,0,0,0,0,0,0,0,0,0,0,0,0,0.326,0.326,0.326,0.326,0.326,0.326,0.326,0.326,0.325,0.325,0.324,0.324,0.324,0.324,0.324,0.324,0.323,0.323,0.323,0.323,0.323,0.323,0.323,0.323,0.323,0.323,0.323,0.323,0.323,0.323,0.324,0.324,0.324,0.324,0.324,0.324,0.324,0.324,0.325,0.325,0.326,0.326,0.326,0.326,0.326,0,0.327,0.327,0.327,0.327,0.328,0.328,0.329,0.329,0.329,0.329,0.33,0.33,0.331,0.331,0,0.332,0.332,0.332,0.332,0.333,0.333,0.333,0.334,0.334,0.334,0.335,0.335,0.335,0.335,0.336,0.336,0.336,0,0.337,0.337,0.337,0.338,0.338,0.338,0.338,0.338,0.338,0.338,0.339,0.339,0.339,0.339,0.34,0.34,0.341,0.341,0.341,0.342,0.342,0.342,0,0.343,0.343,0.344,0.344,0.345,0.345,0.346,0.347,0,0.348,0.348,0.348,0.349,0.35,0.351,0.351,0.352,0.352,0.353,0,0.355,0.355,0.357,0.358,0,0.359,0.361,0.362,0.363,0.364,0,0.365,0.366,0.366,0.368,0.369,0.37,0,0.371,0.373,0.373,0.374,0.376,0.377,0.377,0,0.379,0.38,0.381,0.383,0,0.385,0.386,0.388,0.389,0.39,0,0.391,0.392,0.393,0,0,0,0,0,0,0,0,0,0,0.43,0.431,0.431,0.431,0.431,0.432,0.432,0.434,0.435,0.435,0,0,0.438,0,0,0,0.463,0,0.463,0.463,0,0.463,0.463,0.463,0.463,0.463,0.463,0.462,0.462,0.461,0.461,0.461,0.46,0.46,0.46,0.46,0.46,0.46,0.46,0.46,0.459,0.459,0.459,0.458,0.458,0.458,0.458,0.457,0.457,0.457,0.457,0.457,0.456,0.456,0.456,0.455,0.455,0.455,0.454,0.453,0.453,0.452,0.452,0.452,0.452,0.452,0.451,0.451,0.451,0.451,0.451,0.451,0.45,0.45,0.449,0.449,0.449,0.448,0.448,0.448,0.448,0.447,0.447,0.446,0.446,0.446,0.446,0.445,0.444,0.444,0.443,0.442,0.442,0.441,0.441,0.44,0.44,0.439,0.439,0.438,0.437,0,0.436,0.436,0.436,0.436,0.436,0.436,0.436,0.435,0.435,0.435,0.435,0.435,0.434,0.434,0.434,0.434,0.433,0.433,0.432,0.432,0.432,0.432,0.432,0.432,0.431,0.431,0.431,0.431,0.43,0.429,0.429,0.429,0.428,0.427,0.427,0.427,0.427,0.427,0.427,0.426,0.426,0.426,0.426,0.426,0.425,0.426,0.425,0.425,0.425,0.425,0.425,0.425,0.424,0.424,0.424,0.423,0.423,0.422,0.422,0.421,0.421,0.421,0.421,0.421,0.42,0.42,0.42,0.42,0.42,0.42,0.419,0.419,0.418,0.417,0.417,0.417,0.416,0.416,0.416,0.416,0.416,0.416,0.415,0.415,0.415,0.415,0.415,0,0,0,0,0,0,0,0,0,0,0,0,0,0,0,0,0,0,0,0,0,0,0,0,0,0,0,0,0,0,0,0,0,0,0,0,0,0,0,0,0,0,0,0,0,0,0,0,0,0,0,0,0,0,0,0,0,0,0,0,0,0,0,0,0,0
0,0,0,0,0,0,0,0,0,0,0,0,0,0,0,0,0,0,0,0,0,0,0,0,0,0,0,0,0,0,0,0,0,0.622,0.621,0.621,0.62,0.62,0.619,0.619,0.619,0.618,0.617,0.616,0.615,0.615,0.614,0.614,0.614,0.613,0.613,0.613,0.612,0.612,0.612,0.612,0.611,0.611,0.611,0.611,0.611,0.611,0.61,0.609,0.609,0.608,0.608,0.607,0.605,0.604,0.603,0.602,0.602,0.601,0.601,0.601,0.601,0.6,0.6,0.599,0.599,0.598,0.597,0.596,0.595,0.594,0.594,0.593,0.592,0.592,0.592,0.591,0.59,0.59,0.589,0.588,0.587,0.586,0.585,0.584,0.584,0.584,0.583,0.583,0.582,0.582,0.582,0.581,0.581,0.581,0.58,0.58,0.579,0.579,0.578,0.577,0.577,0.577,0.576,0.576,0.575,0.575,0.575,0.574,0.573,0.573,0.573,0.572,0.572,0.571,0.571,0.57,0.57,0.569,0.568,0.566,0.566,0.565,0.565,0.564,0.564,0.564,0.564,0.564,0.564,0.563,0.563,0.563,0.563,0.563,0.562,0.561,0.561,0.56,0.559,0.558,0.558,0.557,0.556,0.556,0.556,0.556,0.556,0.555,0.555,0.555,0.554,0.554,0.553,0.553,0.552,0.551,0.55,0.549,0.548,0.548,0.548,0.547,0.547,0.547,0.547,0.547,0.547,0.547,0.548,0.547,0.548,0.548,0.548,0,0,0,0,0,0,0,0,0,0,0,0,0,0,0,0,0,0,0,0,0,0,0.325,0.325,0.326,0.326,0.326,0.326,0.326,0.326,0.326,0.326,0.325,0.325,0.324,0.324,0.324,0.324,0.323,0.323,0.323,0.323,0.323,0.323,0.323,0.323,0.323,0.323,0.323,0.323,0.323,0.323,0.323,0.323,0.323,0.323,0.323,0.323,0.324,0.324,0.324,0.324,0.324,0.325,0.325,0.326,0.326,0.326,0.326,0.326,0,0.327,0.327,0.327,0.328,0.328,0.328,0.329,0.329,0.329,0.33,0.33,0.33,0.331,0,0.332,0.332,0.332,0.332,0.333,0.333,0.333,0.333,0.334,0.334,0.335,0.335,0.335,0.335,0.335,0.336,0.336,0.336,0,0.337,0.337,0.337,0.338,0.338,0.338,0.338,0.338,0.338,0.339,0.339,0.339,0.339,0.34,0.34,0.341,0.341,0.341,0.342,0.342,0.342,0.342,0,0.343,0.344,0.344,0.345,0.345,0.346,0.347,0,0.348,0.348,0.348,0.349,0.35,0.351,0.351,0.351,0.352,0.353,0,0.354,0.355,0.356,0.358,0,0.359,0.361,0.362,0.363,0.364,0,0.365,0.366,0.366,0.368,0.369,0.37,0,0.371,0.373,0.373,0.374,0.376,0.377,0,0.378,0.379,0.381,0.381,0,0.384,0.385,0.386,0.388,0.389,0.39,0,0.391,0.392,0.393,0.393,0,0,0,0,0,0,0,0,0,0.43,0.431,0.431,0.432,0.432,0.434,0.435,0,0,0,0.439,0,0,0,0,0.458,0.459,0.459,0.46,0.46,0.461,0.46,0.461,0.461,0.461,0.46,0.46,0.46,0.46,0.46,0.459,0.459,0.459,0.459,0.458,0.458,0.458,0.458,0.458,0.458,0.458,0.458,0.457,0.457,0.457,0.457,0.457,0.456,0.455,0.455,0.454,0.454,0.454,0.453,0.453,0.453,0.453,0.452,0.452,0.452,0.451,0.451,0.45,0.45,0.45,0.449,0.448,0.448,0,0.448,0.448,0.447,0.447,0.447,0.447,0.447,0.447,0.447,0.446,0.446,0.446,0.446,0.445,0.445,0.444,0.443,0.443,0.442,0.442,0.441,0.441,0.441,0.44,0.44,0.439,0.438,0.437,0.437,0.436,0.436,0.436,0.436,0.435,0.435,0.435,0.434,0.434,0.434,0.433,0.433,0.433,0.433,0.433,0.432,0.432,0.432,0.432,0.432,0.432,0.431,0.431,0.431,0.431,0.431,0.431,0.43,0.43,0,0.429,0.429,0.428,0.427,0.427,0.427,0.426,0.426,0.426,0.426,0.426,0.426,0.425,0.425,0.425,0.425,0.425,0.425,0.425,0.425,0.424,0.424,0.424,0.423,0.423,0.422,0.421,0.421,0.421,0,0,0,0.42,0.42,0.42,0.42,0.42,0.419,0.419,0.419,0.419,0.418,0.417,0.417,0.416,0.416,0.416,0.416,0.416,0.416,0.415,0.415,0.415,0.415,0.415,0.415,0.415,0.415,0.415,0.415,0.415,0,0,0,0,0,0,0,0,0,0,0,0,0,0,0,0,0,0,0,0,0,0,0,0,0,0,0,0,0,0,0,0,0,0,0,0,0,0,0,0,0,0,0,0,0,0,0,0,0,0,0,0,0,0,0,0,0,0,0,0,0,0,0,0,0,0
0,0,0,0,0,0,0,0,0,0,0,0,0,0,0,0,0,0,0,0,0,0,0,0,0,0,0,0,0,0,0,0,0,0,0.615,0.615,0.615,0.614,0.614,0.614,0.613,0.613,0.613,0.612,0.612,0.612,0.612,0.612,0.611,0.611,0.611,0.611,0.61,0.61,0.61,0.609,0.609,0.609,0.608,0.607,0.607,0.606,0.605,0.605,0.604,0.603,0.603,0.602,0.601,0.601,0.601,0.6,0.599,0.598,0.598,0.597,0.597,0.596,0.595,0.595,0.594,0.594,0.593,0.592,0.592,0.592,0.592,0.591,0.591,0.589,0.589,0.587,0.586,0.586,0.585,0.584,0.583,0.583,0.582,0.582,0.582,0.582,0.581,0.581,0.58,0.58,0.579,0.579,0.578,0.577,0.576,0.575,0.575,0.575,0.574,0.574,0.574,0.574,0.573,0.573,0.573,0.573,0.573,0.572,0.572,0.571,0.571,0.57,0.569,0.568,0.567,0.566,0.566,0.565,0.565,0.564,0.564,0.563,0.563,0.562,0.562,0.561,0.561,0.561,0.56,0.56,0.559,0.559,0.559,0.558,0.558,0.557,0.557,0.556,0.556,0.556,0.555,0.555,0.555,0.555,0.555,0.554,0.554,0.553,0.553,0.551,0.551,0.55,0.549,0.548,0.547,0.547,0.547,0.547,0.547,0.547,0.547,0.547,0.546,0.547,0.547,0.547,0.547,0.547,0.547,0.547,0.547,0,0,0,0,0,0,0,0,0,0,0,0,0,0,0,0,0,0,0,0,0,0,0,0.324,0,0.325,0.325,0.325,0.326,0.326,0.326,0.326,0.326,0.326,0.325,0.325,0.324,0.324,0.324,0.323,0.323,0.323,0.323,0.323,0.323,0.323,0.323,0.322,0.322,0.322,0.323,0.323,0.323,0.323,0.323,0.323,0.323,0.323,0.323,0.323,0.323,0.323,0.324,0.324,0.324,0.325,0.325,0.326,0.326,0.326,0.326,0.326,0,0.327,0.327,0.327,0.327,0.328,0.328,0.329,0.329,0.329,0.329,0.33,0.33,0.331,0.331,0,0.332,0.332,0.332,0.332,0.333,0.333,0.333,0.334,0.334,0.334,0.335,0.335,0.335,0.335,0.336,0.336,0.336,0,0.337,0.337,0.337,0.338,0.338,0.338,0.338,0.338,0.338,0.339,0.339,0.339,0.339,0.34,0.34,0.341,0.341,0.341,0.342,0.342,0.342,0.342,0,0.343,0.343,0.344,0.345,0.345,0.346,0.347,0,0.348,0.348,0.349,0.349,0.35,0.351,0.351,0.351,0.352,0.352,0,0.354,0.355,0.356,0.358,0,0.359,0.36,0.362,0.362,0.364,0,0.365,0.366,0.366,0.368,0.369,0.37,0,0.371,0.373,0.373,0.375,0.376,0.377,0,0.378,0.38,0.381,0.382,0,0.384,0.385,0.386,0.388,0.389,0.39,0,0.391,0.392,0.393,0.393,0,0,0,0,0,0,0,0,0,0,0.431,0.432,0.433,0.435,0.436,0,0,0,0,0.442,0,0,0,0,0,0.458,0.458,0.458,0.458,0.458,0.458,0.458,0.458,0.458,0.458,0.458,0.458,0.458,0.458,0.458,0.458,0.458,0.457,0.457,0.457,0.457,0.457,0.457,0.457,0.456,0.456,0.456,0.455,0.455,0.455,0.454,0.453,0,0.452,0.452,0.452,0.452,0.452,0.452,0.451,0.451,0.451,0.45,0.449,0.448,0.448,0.447,0.447,0.447,0.447,0.447,0.446,0.446,0.446,0.446,0.446,0.446,0.446,0.446,0.446,0.445,0.445,0.444,0.444,0.443,0.443,0.442,0.442,0.441,0.441,0.441,0.441,0.441,0.44,0.44,0,0,0.437,0.436,0.436,0.436,0.436,0.435,0.435,0.435,0.434,0.433,0.433,0.432,0.432,0.431,0.431,0.431,0.431,0.431,0.431,0.431,0.431,0.431,0.431,0.431,0.431,0.431,0.431,0.43,0.43,0.43,0.43,0.429,0.429,0.428,0.428,0.427,0.426,0.426,0.426,0.426,0.426,0.425,0.425,0.425,0.425,0.425,0.425,0.424,0.424,0.423,0.424,0.424,0.423,0.423,0.422,0.422,0.422,0.421,0.421,0.421,0.42,0.42,0.42,0.42,0,0.42,0.419,0.419,0.418,0.418,0.417,0.417,0.417,0.416,0.416,0.416,0.416,0.416,0.416,0.415,0.415,0.415,0.415,0.415,0.415,0.414,0.414,0.414,0.414,0.413,0.414,0.413,0.413,0.413,0.414,0.414,0,0,0,0,0,0,0,0,0,0,0,0,0,0,0,0,0,0,0,0,0,0,0,0,0,0,0,0,0,0,0,0,0,0,0,0,0,0,0,0,0,0,0,0,0,0,0,0,0,0,0,0,0,0,0,0,0,0,0,0,0,0,0,0,0,0
0,0,0,0,0,0,0,0,0,0,0,0,0,0,0,0,0,0,0,0,0,0,0,0,0,0,0,0,0,0,0,0,0.611,0.611,0.611,0.611,0.611,0.611,0.611,0.611,0.611,0.611,0.611,0.611,0.61,0.61,0.61,0.609,0.609,0.609,0.608,0.608,0.607,0.606,0.606,0.605,0.604,0.603,0.603,0.603,0.602,0.602,0.602,0.601,0.601,0.601,0.6,0.6,0.599,0.598,0.596,0.595,0.594,0.594,0.594,0.593,0.593,0.592,0.592,0.592,0.592,0.592,0.591,0.591,0.591,0.59,0.589,0.587,0.586,0.586,0.584,0.584,0.583,0.582,0.582,0.582,0.581,0.581,0.58,0.58,0.579,0.579,0.578,0.577,0.576,0.576,0.575,0.575,0.574,0.574,0.573,0.573,0.573,0.573,0.573,0.572,0.572,0.572,0.572,0.571,0.571,0.571,0.57,0.57,0.569,0.568,0.567,0.566,0.566,0.565,0.565,0.564,0.564,0.563,0.563,0.562,0.561,0.56,0.559,0.559,0.558,0.558,0.557,0.557,0.556,0.556,0.556,0.556,0.556,0.555,0.555,0.555,0.555,0.554,0.554,0.554,0.553,0.552,0.552,0.551,0.551,0.551,0.55,0.549,0.549,0.548,0.547,0.547,0.546,0.546,0.546,0.545,0.544,0.544,0.543,0.544,0.544,0.544,0.545,0.545,0.546,0.546,0.546,0.547,0.547,0.547,0,0,0,0,0,0,0,0,0,0,0,0,0,0,0,0,0,0,0,0,0,0,0,0,0.324,0.324,0,0.325,0.325,0.325,0.326,0.326,0.326,0.326,0.326,0.325,0.325,0.324,0.324,0.324,0.323,0.323,0.323,0.323,0.323,0.322,0.322,0.322,0.322,0.322,0.322,0.322,0.322,0.323,0.323,0.323,0.323,0.323,0.323,0.323,0.323,0.323,0.323,0.323,0.324,0.324,0.324,0.325,0.325,0.326,0.326,0.326,0.326,0,0.327,0.327,0.327,0.327,0.328,0.328,0.328,0.329,0.329,0.329,0.33,0.33,0.33,0.331,0,0.332,0.332,0.332,0.332,0.332,0.333,0.333,0.333,0.334,0.334,0.335,0.335,0.335,0.335,0.336,0.336,0.336,0.336,0,0.337,0.337,0.337,0.338,0.338,0.338,0.338,0.338,0.339,0.339,0.339,0.339,0.34,0.34,0.341,0.341,0.341,0.342,0.342,0.342,0.342,0,0.343,0.343,0.344,0.345,0.345,0.346,0.347,0,0.348,0.348,0.348,0.349,0.35,0.35,0.351,0.351,0.352,0.352,0,0.354,0.355,0.356,0.357,0.358,0,0.36,0.362,0.362,0.363,0,0.365,0.366,0.366,0.368,0.369,0.37,0,0.371,0.373,0.373,0.375,0.376,0.377,0,0.378,0.38,0.381,0.382,0,0.385,0.385,0.387,0.389,0.389,0.39,0,0.391,0.392,0.393,0.393,0.393,0,0,0,0,0,0,0,0,0.431,0.432,0.434,0.436,0.436,0,0,0,0,0,0,0,0,0,0,0.456,0.457,0.457,0.457,0.457,0.457,0.457,0.457,0.457,0.457,0.457,0.457,0.457,0.457,0.457,0.456,0.456,0.455,0.455,0.455,0.455,0.454,0.454,0.454,0.454,0.453,0.453,0.453,0.453,0.453,0.452,0.452,0.452,0.452,0.452,0.451,0.451,0.451,0.45,0.449,0.449,0.448,0.448,0.447,0.447,0.447,0.446,0.446,0.446,0.446,0.445,0.444,0.444,0.444,0.444,0.443,0.443,0.443,0.443,0.443,0.442,0.442,0.442,0.442,0.441,0.441,0.441,0.441,0.441,0.44,0.44,0.438,0.438,0,0.437,0.436,0,0.436,0.436,0.435,0.435,0.434,0.434,0.433,0.432,0.432,0.431,0.431,0.431,0.431,0.431,0.43,0.43,0.43,0.43,0.43,0.43,0.43,0.43,0.43,0.43,0.43,0.43,0.43,0.43,0.429,0.429,0.428,0.428,0.427,0.426,0.426,0.426,0.426,0.425,0.425,0.425,0.425,0.425,0.425,0.424,0.424,0.424,0.423,0.423,0.422,0.422,0.421,0.421,0.421,0.421,0.421,0.421,0.421,0.42,0.42,0.42,0.419,0.419,0.419,0.418,0.418,0.418,0.417,0.417,0.416,0.416,0.416,0.416,0.416,0.415,0.415,0.415,0.415,0.415,0.414,0.414,0.414,0.414,0.414,0.413,0.413,0.413,0.412,0.412,0.412,0.412,0.412,0.412,0.412,0.412,0.412,0.412,0,0,0,0,0,0,0,0,0,0,0,0,0,0,0,0,0,0,0,0,0,0,0,0,0,0,0,0,0,0,0,0,0,0,0,0,0,0,0,0,0,0,0,0,0,0,0,0,0,0,0,0,0,0,0,0,0,0,0,0,0,0,0,0,0,0,0
0,0,0,0,0,0,0,0,0,0,0,0,0,0,0,0,0,0,0,0,0,0,0,0,0,0,0,0,0,0,0,0.608,0.609,0.609,0.609,0.609,0.609,0.609,0.609,0.609,0.608,0.608,0.608,0.608,0.607,0.606,0.606,0.605,0.604,0.604,0.603,0.603,0.603,0.602,0.602,0.602,0.602,0.601,0.601,0.601,0.601,0.6,0.599,0.599,0.598,0.597,0.595,0.594,0.593,0.593,0.592,0.592,0.592,0.592,0.592,0.591,0.591,0.591,0.59,0.59,0.59,0.589,0.589,0.587,0.586,0.586,0.585,0.584,0.583,0.583,0.582,0.582,0.581,0.581,0.58,0.579,0.579,0.577,0.576,0.575,0.575,0.575,0.574,0.574,0.574,0.573,0.573,0.573,0.573,0.572,0.572,0.571,0.571,0.571,0.57,0.569,0.569,0.568,0.568,0.568,0.567,0.566,0.566,0.566,0.565,0.565,0.565,0.564,0.564,0.564,0.563,0.562,0.561,0.56,0.559,0.558,0.557,0.557,0.556,0.556,0.556,0.555,0.555,0.555,0.555,0.555,0.555,0.554,0.554,0.553,0.553,0.552,0.551,0.551,0.55,0.55,0.549,0.549,0.549,0.548,0.548,0.548,0.547,0.547,0.547,0.545,0.544,0.543,0.543,0.542,0.541,0.541,0.541,0.541,0.541,0.541,0.541,0.542,0.542,0.542,0.543,0.544,0.544,0.545,0.546,0,0,0,0,0,0,0,0,0,0,0,0,0,0,0,0,0,0,0,0,0,0,0.323,0.324,0.324,0.324,0.324,0.324,0,0.325,0.325,0.325,0.325,0.326,0.326,0.326,0.325,0.325,0.324,0.324,0.323,0.323,0.323,0.322,0.322,0.322,0.322,0.321,0.321,0.321,0.321,0,0.322,0.322,0.322,0.322,0.323,0.323,0.323,0.323,0.323,0.323,0.323,0.323,0.323,0.324,0.324,0.324,0.325,0.325,0.326,0.326,0.326,0.326,0.326,0,0.327,0.327,0.327,0.328,0.328,0.328,0.328,0.329,0.329,0.329,0.33,0.33,0.331,0.331,0,0.332,0.332,0.332,0.332,0.333,0.333,0.333,0.333,0.334,0.335,0.335,0.335,0.335,0.335,0.336,0.336,0.336,0,0.337,0.337,0.337,0.338,0.338,0.338,0.338,0.338,0.339,0.339,0.339,0.339,0.34,0.34,0.341,0.341,0.341,0.342,0.342,0.342,0.342,0,0.343,0.344,0.344,0.345,0.345,0.346,0.347,0,0.348,0.348,0.348,0.349,0.35,0.35,0.351,0.351,0.352,0.352,0,0.354,0.355,0.355,0.357,0.358,0,0.359,0.361,0.362,0.363,0,0.365,0.366,0.366,0.368,0.369,0.37,0,0.372,0.373,0.374,0.375,0.377,0.377,0,0.379,0.381,0.381,0.383,0,0.385,0.386,0.388,0.389,0.389,0.39,0,0.391,0.392,0.393,0.393,0.393,0,0,0,0,0,0,0,0,0,0,0,0.437,0.44,0.441,0,0,0,0,0,0,0.452,0.453,0.454,0.455,0.455,0.455,0,0.456,0.456,0.456,0.456,0.455,0.455,0.455,0.455,0.455,0.454,0.454,0.453,0.453,0.453,0.453,0.453,0.452,0.452,0.452,0.452,0.452,0.452,0.452,0.452,0.452,0.452,0.452,0.452,0.451,0.45,0.449,0.448,0.448,0.448,0.448,0.447,0.447,0.447,0.446,0.446,0.446,0.446,0.445,0.444,0.444,0.443,0.443,0.442,0.442,0.442,0.442,0.441,0.441,0.441,0.441,0.441,0.441,0.441,0.441,0.44,0.44,0.439,0.439,0.438,0.438,0.437,0.437,0.436,0.436,0.436,0.436,0.435,0.435,0.434,0.434,0.432,0.432,0.431,0.431,0.431,0.431,0.431,0.43,0.43,0.43,0.43,0.429,0.429,0.429,0.428,0.428,0.428,0.428,0.428,0.428,0,0.428,0.428,0.428,0.428,0.427,0.427,0.427,0.426,0.426,0.425,0.425,0.425,0.425,0.425,0.423,0.423,0.424,0.423,0.423,0.423,0.422,0.422,0.422,0.421,0.421,0.421,0.42,0.42,0.42,0.42,0.42,0.419,0.419,0.418,0.418,0.418,0.417,0.417,0.416,0.416,0.416,0.416,0.416,0.416,0.416,0.415,0.415,0.415,0.415,0.415,0.414,0.413,0.413,0.413,0.412,0.412,0.412,0.412,0.412,0.412,0.411,0.411,0.411,0.411,0.411,0.411,0.411,0.411,0.411,0,0,0,0,0,0,0,0,0,0,0,0,0,0,0,0,0,0,0,0,0,0,0,0,0,0,0,0,0,0,0,0,0,0,0,0,0,0,0,0,0,0,0,0,0,0,0,0,0,0,0,0,0,0,0,0,0,0,0,0,0,0,0,0,0,0,0,0,0,0,0
0,0,0,0,0,0,0,0,0,0,0,0,0,0,0,0,0,0,0,0,0,0,0,0,0,0,0,0,0,0,0.603,0.604,0.604,0.604,0.605,0.605,0.605,0.605,0.605,0.605,0.604,0.604,0.603,0.603,0.603,0.602,0.602,0.602,0.601,0.601,0.601,0.601,0.601,0.601,0.6,0.6,0.599,0.599,0.598,0.598,0.597,0.595,0.594,0.593,0.593,0.592,0.592,0.592,0.591,0.591,0.591,0.591,0.59,0.59,0.589,0.589,0.588,0.588,0.587,0.586,0.585,0.584,0.584,0.583,0.583,0.583,0.582,0.582,0.581,0.581,0.58,0.579,0.579,0.576,0.575,0.575,0.574,0.574,0.573,0.573,0.573,0.573,0.573,0.572,0.572,0.572,0.571,0.571,0.57,0.568,0.567,0.567,0.566,0.566,0.565,0.565,0.565,0.565,0.565,0.565,0.564,0.564,0.564,0.564,0.564,0.563,0.563,0.562,0.561,0.56,0.559,0.559,0.558,0.557,0.556,0.556,0.556,0.555,0.555,0.555,0.554,0.554,0.553,0.553,0.552,0.552,0.551,0.55,0.55,0.549,0.549,0,0.548,0.548,0.547,0.547,0.547,0.547,0.547,0.547,0.547,0.546,0.545,0.544,0.543,0.541,0.541,0.54,0.54,0.539,0.539,0.539,0.539,0.539,0.539,0.539,0.539,0.539,0.539,0.54,0.54,0.541,0.541,0.543,0.545,0,0,0,0,0,0,0,0,0,0,0,0,0,0,0,0,0,0,0,0,0,0.323,0.323,0.323,0.323,0.323,0.324,0.324,0.324,0,0.325,0.325,0.325,0,0,0.325,0.325,0.325,0.324,0.324,0.323,0.323,0.323,0.322,0.321,0.321,0.321,0.321,0.321,0.321,0.321,0.321,0.321,0,0.322,0.322,0.322,0.322,0.323,0.323,0.323,0.323,0.323,0.323,0.323,0.324,0.324,0.324,0.325,0.325,0.325,0.326,0.326,0.326,0.326,0.326,0,0.327,0.327,0.327,0.327,0.328,0.328,0.329,0.329,0.329,0.33,0.33,0.33,0.331,0.331,0,0.332,0.332,0.332,0.333,0.333,0.333,0.333,0.334,0.334,0.335,0.335,0.335,0.335,0.336,0.336,0.336,0.336,0,0.337,0.337,0.338,0.338,0.338,0.338,0.338,0.339,0.339,0.339,0.339,0.34,0.34,0.341,0.341,0.341,0.342,0.342,0.342,0.342,0,0.343,0.344,0.344,0.345,0.345,0.346,0.347,0,0.348,0.348,0.348,0.349,0.349,0.35,0.351,0.351,0.352,0.352,0,0.354,0.355,0.355,0.357,0.358,0,0.359,0.361,0.362,0.363,0,0.365,0.366,0.367,0.368,0.369,0.37,0,0.372,0.373,0.374,0.376,0.377,0,0.378,0.38,0.381,0.382,0,0.384,0.385,0.386,0.388,0.389,0.389,0.39,0,0.391,0.392,0,0,0,0,0,0,0,0,0,0,0,0,0,0,0.441,0,0,0,0,0.446,0.447,0.45,0.452,0.452,0.453,0.453,0.453,0.453,0.454,0.454,0.454,0.454,0.454,0.453,0.453,0.453,0.453,0.453,0.452,0.452,0.452,0.452,0.452,0.452,0.452,0.451,0.451,0.451,0.451,0.451,0.451,0.451,0.451,0.45,0.45,0.45,0.449,0.449,0.449,0.448,0.447,0.447,0.447,0.447,0.446,0.446,0.446,0.445,0.444,0.444,0.443,0.442,0.442,0.442,0.441,0.441,0.441,0.441,0.441,0.441,0.441,0.441,0.44,0.44,0.44,0.44,0.44,0.439,0.437,0.437,0.436,0.436,0.436,0.436,0.436,0.436,0.436,0.435,0.435,0.434,0.433,0.433,0.432,0.431,0.431,0.431,0.431,0.431,0.43,0.43,0.43,0.43,0.429,0.429,0.428,0.428,0.427,0.427,0.426,0.426,0.426,0.426,0.426,0.427,0.427,0.427,0.427,0.426,0.426,0.426,0.426,0.426,0.425,0.425,0.425,0.424,0.424,0.423,0.422,0.422,0.422,0.422,0.421,0.421,0.421,0.421,0.421,0.421,0.42,0.42,0.42,0.418,0.418,0.418,0.417,0.417,0.417,0.417,0,0.416,0.416,0.416,0.416,0.416,0.415,0.416,0.415,0.415,0.415,0.415,0.414,0.414,0.414,0.414,0.413,0.413,0.412,0.412,0.411,0.411,0.411,0.411,0.411,0.411,0.411,0.411,0.411,0.411,0.41,0.41,0.41,0.41,0.409,0.41,0.41,0.41,0.41,0.41,0.41,0,0,0,0,0,0,0,0,0,0,0,0,0,0,0,0,0,0,0,0,0,0,0,0,0,0,0,0,0,0,0,0,0,0,0,0,0,0,0,0,0,0,0,0,0,0,0,0,0,0,0,0,0,0,0,0,0,0,0,0,0,0,0,0,0,0,0
0,0,0,0,0,0,0,0,0,0,0,0,0,0,0,0,0,0,0,0,0,0,0,0,0,0,0,0,0,0,0.602,0.602,0.602,0.602,0.602,0.602,0.602,0.602,0.602,0.602,0.602,0.601,0.601,0.601,0.601,0.601,0.6,0.6,0.599,0.599,0.598,0.598,0.597,0.597,0.596,0.595,0.595,0.594,0.593,0.592,0.592,0.592,0.592,0.591,0.591,0.591,0.59,0.589,0.589,0.589,0.588,0.587,0.586,0.586,0.586,0.585,0.584,0.584,0.584,0.583,0.582,0.582,0.582,0.581,0.581,0.581,0.58,0.58,0.579,0.578,0.577,0.575,0.574,0.574,0.573,0.573,0.573,0.572,0.572,0.571,0.571,0.57,0.57,0.569,0.569,0.568,0.566,0.566,0.565,0.565,0.564,0.564,0.564,0.564,0.563,0.563,0.563,0.563,0.563,0.562,0.562,0.561,0.561,0.561,0.56,0.559,0.559,0.558,0.557,0.557,0.556,0.556,0.556,0.555,0.555,0.555,0.554,0.554,0.553,0.551,0.551,0.55,0.549,0.549,0.549,0.548,0.548,0.548,0.547,0.547,0.547,0.547,0.547,0.546,0.546,0.546,0.545,0.545,0.545,0.543,0.542,0.542,0.541,0.54,0.54,0.539,0.539,0.538,0.538,0.538,0.538,0.537,0.537,0.537,0.537,0.537,0.537,0,0,0,0,0,0,0,0,0,0,0,0,0,0,0,0,0,0,0,0,0,0,0,0,0,0,0,0,0.322,0.322,0.322,0.323,0.323,0.323,0.323,0.324,0.324,0.324,0.324,0,0.325,0,0.325,0.325,0.325,0.324,0.324,0.323,0.323,0.322,0.322,0.321,0.321,0.321,0.321,0.321,0.321,0.321,0.321,0.321,0.321,0.321,0,0.322,0.322,0.322,0.322,0.322,0.323,0.323,0.323,0.323,0.323,0.324,0.324,0.324,0.324,0.325,0.325,0.326,0.326,0.326,0.326,0.326,0,0.327,0.327,0.327,0.327,0.328,0.328,0.328,0.329,0.329,0.329,0.33,0.33,0.331,0.331,0,0.332,0.332,0.332,0.332,0.333,0.333,0.333,0.334,0.334,0.335,0.335,0.335,0.335,0.335,0.336,0.336,0.336,0,0.337,0.337,0.337,0.338,0.338,0.338,0.338,0.339,0.339,0.339,0.339,0.34,0.34,0.341,0.341,0.341,0.342,0.342,0.342,0.342,0,0.343,0.344,0.344,0.345,0.345,0.346,0.347,0.347,0,0.348,0.348,0.349,0.349,0.35,0.351,0.351,0.352,0.352,0,0.354,0.355,0.355,0.357,0.358,0,0.359,0.361,0.362,0.363,0,0.365,0.366,0.366,0.368,0.369,0.37,0,0.372,0.373,0.374,0.376,0.377,0,0.378,0.38,0.381,0.383,0,0.384,0.385,0.386,0.388,0.389,0.389,0.39,0,0.391,0.392,0,0,0,0,0,0,0,0,0,0,0,0,0,0,0,0,0,0,0.447,0.447,0.448,0.45,0.452,0.452,0.452,0.452,0.452,0.452,0.452,0.452,0.452,0.452,0.452,0.452,0.452,0.452,0.452,0.452,0.452,0.451,0.451,0.451,0.45,0.45,0.45,0.449,0.449,0.448,0.448,0.448,0.448,0.448,0.448,0.447,0.447,0.447,0.447,0.447,0.447,0.447,0.446,0.446,0.446,0.446,0.445,0.445,0.444,0.442,0.441,0.441,0.441,0.441,0.441,0.441,0.44,0.44,0.44,0.44,0.44,0.439,0.439,0.439,0.439,0.438,0.438,0.437,0.436,0.436,0.436,0.436,0.435,0.435,0.435,0.435,0.435,0.434,0.434,0.432,0.431,0.431,0.431,0.431,0.431,0.43,0.43,0.43,0.43,0.43,0.43,0.429,0.429,0.428,0.428,0.427,0.426,0.426,0.426,0.426,0.425,0.425,0.425,0.425,0.425,0.425,0.425,0.425,0.425,0.425,0.425,0.425,0.425,0.424,0.424,0.422,0.422,0.421,0.421,0.421,0.421,0.421,0.421,0.421,0.42,0.42,0.42,0.42,0.419,0.419,0.417,0.417,0.416,0.416,0.416,0.416,0.416,0.416,0.415,0,0,0.415,0.415,0.415,0.415,0.415,0.414,0.414,0.414,0.414,0.413,0.413,0.412,0.412,0.412,0.412,0.412,0.411,0.411,0.411,0.411,0.411,0.411,0.41,0.41,0.41,0.41,0.409,0.409,0.409,0.409,0.408,0.408,0.408,0.407,0.408,0.407,0.408,0.407,0.407,0,0,0,0,0,0,0,0,0,0,0,0,0,0,0,0,0,0,0,0,0,0,0,0,0,0,0,0,0,0,0,0,0,0,0,0,0,0,0,0,0,0,0,0,0,0,0,0,0,0,0,0,0,0,0,0,0,0,0,0,0,0,0,0,0,0,0,0
0,0,0,0,0,0,0,0,0,0,0,0,0,0,0,0,0,0,0,0,0,0,0,0,0,0,0,0,0,0,0.601,0.601,0.601,0.601,0.601,0.601,0.601,0.601,0.6,0.6,0.599,0.599,0.598,0.598,0.597,0.597,0.596,0.595,0.595,0.595,0.594,0.593,0.593,0.593,0.592,0.592,0.592,0.591,0.591,0.591,0.59,0.589,0.589,0.588,0.587,0.587,0.586,0.586,0.585,0.584,0.584,0.584,0.583,0.583,0.583,0.582,0.582,0.582,0.582,0.581,0.581,0.58,0.579,0.579,0.578,0.577,0.576,0.575,0.574,0.574,0.573,0.573,0.573,0.572,0.572,0.571,0.57,0.57,0.569,0.567,0.566,0.566,0.565,0.565,0.565,0.564,0.564,0.564,0.563,0.563,0.563,0.562,0.562,0.561,0.561,0.56,0.559,0.559,0.559,0.558,0.557,0.557,0.557,0.556,0.556,0.556,0.556,0.556,0.555,0.555,0.555,0.554,0.554,0.553,0.553,0.552,0.55,0.549,0.549,0.548,0.548,0.548,0.548,0.547,0.547,0.547,0.547,0.547,0.546,0.545,0.545,0.544,0.543,0.542,0.542,0.542,0.542,0.541,0.541,0.54,0.54,0.539,0.539,0.539,0.538,0.537,0.536,0.536,0.535,0.534,0.534,0.534,0.534,0.534,0.534,0.534,0.534,0.535,0,0,0,0,0,0,0,0,0,0,0,0,0,0,0,0,0,0,0,0,0,0,0,0,0,0,0,0.321,0.322,0.322,0.322,0.323,0.323,0.323,0.323,0.323,0.323,0.324,0.324,0,0,0.325,0,0,0.324,0,0,0,0,0.321,0.321,0.321,0.32,0.32,0.32,0.321,0.321,0.321,0.321,0.321,0.321,0.321,0.321,0,0.322,0.322,0.322,0.322,0.323,0.323,0.323,0.323,0.323,0.324,0.324,0.324,0.325,0.325,0.325,0.326,0.326,0.326,0.326,0.326,0,0.327,0.327,0.327,0.327,0.328,0.328,0.329,0.329,0.329,0.33,0.33,0.331,0.331,0,0.332,0.332,0.332,0.332,0.333,0.333,0.333,0.334,0.334,0.335,0.335,0.335,0.335,0.335,0.336,0.336,0.336,0.336,0,0.337,0.337,0.338,0.338,0.338,0.338,0.339,0.339,0.339,0.339,0.34,0.34,0.341,0.341,0.341,0.342,0.342,0.342,0.342,0,0.343,0.344,0.344,0.345,0.345,0.346,0.346,0.347,0,0.348,0.348,0.349,0.349,0.35,0.351,0.351,0.352,0.352,0.353,0,0.355,0.355,0.357,0.358,0,0.359,0.361,0.362,0.363,0,0.365,0.366,0.367,0.368,0.369,0.37,0,0.372,0.373,0.375,0.376,0.377,0,0.378,0.38,0.381,0.383,0,0.385,0.385,0.386,0.388,0.389,0.389,0.39,0,0.391,0.391,0.392,0.392,0.393,0,0,0,0,0,0,0,0,0,0,0,0,0,0,0.448,0.449,0.448,0.449,0.451,0.451,0.451,0.451,0.452,0.452,0.452,0.452,0.452,0.452,0.452,0.451,0.451,0.451,0.451,0.45,0.45,0.449,0.449,0.448,0.448,0.447,0.447,0.447,0.447,0.447,0.447,0.446,0.446,0.446,0.446,0.446,0.446,0.446,0.446,0.446,0.446,0.446,0.446,0.444,0.444,0.443,0.442,0.442,0.441,0.441,0.441,0.44,0.44,0.44,0.44,0.439,0.439,0.438,0.438,0.438,0.437,0.437,0.437,0.436,0.436,0.436,0.436,0.436,0.436,0.435,0.435,0.435,0.434,0.433,0.433,0.432,0.432,0.432,0.431,0.431,0.431,0.43,0.43,0.43,0.43,0.43,0.43,0.43,0.429,0.429,0.429,0.428,0.428,0.427,0.427,0.426,0.425,0.425,0.425,0.425,0.425,0.424,0.424,0.424,0.424,0.424,0.424,0.424,0.424,0.424,0.423,0.423,0.422,0.422,0.421,0.421,0.421,0.421,0.42,0.42,0.42,0.42,0.42,0.42,0.42,0.419,0.419,0.418,0.418,0.417,0.416,0.416,0.415,0.415,0.415,0.414,0.414,0.414,0.414,0.413,0.413,0.413,0.413,0.412,0.412,0,0.413,0.413,0.412,0.412,0.412,0.412,0.412,0.411,0.411,0.411,0.411,0.411,0.411,0.41,0.41,0.41,0.409,0.409,0.408,0.408,0.408,0.408,0.407,0.407,0.407,0.407,0.407,0.407,0.407,0.406,0.406,0.406,0.406,0.406,0.406,0,0,0,0,0,0,0,0,0,0,0,0,0,0,0,0,0,0,0,0,0,0,0,0,0,0,0,0,0,0,0,0,0,0,0,0,0,0,0,0,0,0,0,0,0,0,0,0,0,0,0,0,0,0,0,0,0,0,0,0,0,0,0,0,0,0,0,0
0,0,0,0,0,0,0,0,0,0,0,0,0,0,0,0,0,0,0,0,0,0,0,0,0,0,0,0,0,0,0.6,0.6,0.6,0.6,0.599,0.598,0.598,0.598,0.597,0.596,0.595,0.594,0.594,0.593,0.593,0.593,0.592,0.592,0.592,0.592,0.591,0.591,0.591,0.59,0.59,0.589,0.589,0.588,0.588,0.587,0.586,0.585,0.585,0.584,0.584,0.584,0.583,0.583,0.583,0.582,0.582,0.582,0.582,0.581,0.581,0.581,0.58,0.579,0.579,0.578,0.577,0.575,0.575,0.574,0.574,0.573,0.573,0.573,0.572,0.572,0.571,0.571,0.57,0.569,0.568,0.567,0.566,0.566,0.565,0.564,0.564,0.564,0.564,0.563,0.563,0.562,0.562,0.561,0.561,0.56,0.559,0.559,0.558,0.557,0.556,0.556,0.556,0.556,0.556,0.555,0.555,0.555,0.555,0.555,0.555,0.555,0.554,0.554,0.554,0.553,0.552,0.551,0.549,0.549,0.549,0.548,0.548,0.547,0.547,0.547,0.547,0.547,0.547,0.546,0.546,0.545,0.544,0.543,0.542,0.541,0.54,0.54,0.539,0.539,0.539,0.539,0.539,0.539,0.539,0.538,0.538,0.537,0.537,0.536,0.535,0.533,0.533,0.533,0.532,0.532,0.532,0.532,0.532,0.532,0.532,0,0,0.533,0.533,0,0,0,0,0,0,0,0,0,0,0,0,0,0,0,0,0,0,0,0,0,0,0,0.321,0.321,0.321,0.321,0.321,0.322,0.322,0.322,0.322,0.323,0.323,0.323,0.323,0.323,0.323,0,0,0,0,0,0,0,0,0,0,0.32,0.32,0.32,0.32,0.32,0.32,0.32,0.32,0.321,0.321,0.321,0.321,0.321,0.321,0.321,0,0.322,0.322,0.322,0.323,0.323,0.323,0.323,0.323,0.324,0.324,0.324,0.324,0.325,0.325,0.326,0.326,0.326,0.326,0.326,0.326,0,0.327,0.327,0.327,0.328,0.328,0.329,0.329,0.329,0.33,0.33,0.33,0.331,0.331,0,0.332,0.332,0.332,0.333,0.333,0.333,0.334,0.334,0.335,0.335,0.335,0.335,0.335,0.336,0.336,0.336,0.336,0,0.337,0.337,0.338,0.338,0.338,0.338,0.339,0.339,0.339,0.34,0.34,0.34,0.341,0.341,0.341,0.342,0.342,0.342,0,0.343,0.343,0.344,0.344,0.345,0.345,0.346,0.346,0.347,0,0.348,0.348,0.348,0.349,0.35,0.35,0.351,0.352,0.352,0,0.354,0.355,0.355,0.357,0.358,0,0.359,0.361,0.362,0.363,0,0.365,0.366,0.367,0.369,0.369,0.37,0,0.372,0.373,0.375,0.377,0.377,0,0.379,0.381,0.382,0.383,0,0.385,0.385,0.386,0.388,0.389,0.389,0.39,0,0.391,0.391,0.392,0.392,0,0,0,0,0,0,0,0,0,0,0.449,0.449,0,0.449,0.449,0.449,0.449,0.449,0.449,0.45,0.45,0.45,0.451,0.45,0.451,0.451,0.451,0.45,0.45,0.449,0.449,0.449,0.448,0.447,0.447,0.447,0.447,0.447,0.446,0.446,0.446,0.446,0.446,0.446,0.445,0.445,0.445,0.445,0.444,0.444,0.444,0.445,0.445,0.444,0.444,0.444,0.443,0.443,0.442,0.441,0.441,0.441,0.44,0.44,0.44,0.439,0.438,0.438,0.437,0.437,0.436,0.436,0.436,0.436,0.436,0.436,0.436,0.436,0.435,0.435,0.435,0.435,0.434,0.433,0.433,0.432,0.432,0.431,0.431,0.431,0.431,0.43,0.43,0.43,0.43,0.43,0.43,0.429,0.429,0.429,0.429,0.429,0.429,0.428,0.428,0.427,0.427,0.426,0.426,0.425,0.425,0.425,0.424,0.424,0.423,0.423,0.423,0.422,0.422,0.422,0.422,0.422,0.421,0.421,0.421,0.421,0.421,0.42,0.42,0.42,0.42,0.419,0.419,0.419,0.419,0.418,0.418,0.418,0.418,0.417,0.417,0.416,0.416,0.416,0.415,0.415,0.414,0.413,0.413,0.412,0.411,0.411,0.411,0.411,0.41,0.411,0.41,0.41,0.41,0.41,0.41,0.41,0.41,0.41,0.41,0.41,0.409,0.409,0.409,0.409,0.408,0.408,0.407,0.407,0.407,0.407,0.407,0.406,0.406,0.406,0.406,0.406,0.405,0.405,0.405,0.404,0.404,0.404,0.404,0.403,0.403,0.403,0.402,0.402,0.402,0.402,0,0,0,0,0,0,0,0,0,0,0,0,0,0,0,0,0,0,0,0,0,0,0,0,0,0,0,0,0,0,0,0,0,0,0,0,0,0,0,0,0,0,0,0,0,0,0,0,0,0,0,0,0,0,0,0,0,0,0,0,0,0,0,0,0,0,0,0
0,0,0,0,0,0,0,0,0,0,0,0,0,0,0,0,0,0,0,0,0,0,0,0,0,0,0,0,0,0,0.599,0.599,0.598,0.597,0.596,0.594,0.594,0.594,0.593,0.592,0.592,0.592,0.592,0.591,0.591,0.591,0.591,0.59,0.589,0.589,0.588,0.587,0.587,0.586,0.586,0.585,0.585,0.584,0.584,0.583,0.583,0.583,0.582,0.582,0.582,0.582,0.581,0.581,0.581,0.58,0.58,0.58,0.579,0.579,0.578,0.577,0.575,0.575,0.574,0.574,0.573,0.573,0.572,0.572,0.571,0.571,0.57,0.57,0.569,0.568,0.567,0.567,0.566,0.565,0.565,0.564,0.564,0.563,0.563,0.562,0.562,0.561,0.561,0.56,0.559,0.559,0.558,0.558,0.557,0.556,0.556,0.556,0.555,0.555,0.555,0.554,0.554,0.554,0.554,0.554,0.554,0.553,0.553,0.552,0.552,0.551,0.55,0.55,0.55,0.548,0.548,0.548,0.547,0.547,0.547,0.547,0.546,0.546,0.545,0.545,0.544,0.544,0.543,0.543,0.542,0.542,0.54,0.54,0.539,0.539,0.538,0.538,0.537,0.536,0.536,0.536,0.536,0.536,0.535,0.534,0.534,0.533,0.532,0.532,0.531,0.531,0.531,0.531,0.531,0.531,0.53,0.53,0.53,0.53,0.53,0.53,0.53,0.531,0.531,0.532,0,0,0,0,0,0,0,0,0,0,0,0,0,0,0,0,0,0,0,0,0,0.32,0.32,0.321,0.321,0.321,0.321,0.321,0.321,0.321,0.321,0.322,0.322,0.323,0.323,0.323,0,0,0,0,0,0,0,0.321,0,0.32,0.32,0.319,0.319,0.32,0.32,0.32,0.32,0.32,0.32,0.32,0.32,0.321,0.321,0.321,0.321,0.321,0,0.322,0.322,0.322,0.323,0.323,0.323,0.323,0.323,0.324,0.324,0.324,0.324,0.325,0.325,0.325,0.326,0.326,0.326,0.326,0.326,0,0.327,0.327,0.327,0.327,0.328,0.328,0.329,0.329,0.329,0.33,0.33,0.331,0.331,0,0.332,0.332,0.332,0.332,0.333,0.333,0.334,0.334,0.335,0.335,0.335,0.335,0.335,0.336,0.336,0.336,0.336,0,0.337,0.337,0.338,0.338,0.338,0.338,0.339,0.339,0.339,0.34,0.34,0.34,0.341,0.341,0.341,0.342,0.342,0.342,0,0.343,0.343,0.344,0.344,0.345,0.345,0.346,0.346,0.347,0,0.348,0.348,0.348,0.349,0.35,0.351,0.351,0.352,0.352,0,0.354,0.355,0.356,0.357,0.358,0,0.359,0.361,0.362,0.364,0,0.365,0.366,0.367,0.369,0.369,0.37,0,0.373,0.373,0.375,0.377,0.377,0,0.379,0.381,0.382,0,0.384,0.385,0.385,0.386,0.388,0.389,0.389,0.389,0.39,0,0.391,0.391,0.392,0,0,0,0,0,0,0,0,0,0,0.449,0.449,0.449,0.449,0.449,0.449,0.449,0.449,0.449,0.449,0.449,0.449,0.449,0.449,0.449,0.448,0.448,0.448,0.448,0.447,0.447,0.447,0.446,0.446,0.446,0.446,0.446,0.445,0.445,0.444,0.444,0.444,0.444,0.443,0.443,0.442,0.442,0.442,0.442,0.442,0.442,0.442,0.442,0.442,0.442,0.441,0.441,0.441,0.441,0.44,0.439,0.438,0.438,0.437,0.437,0.436,0.436,0.436,0.436,0.436,0.435,0.435,0.435,0.435,0.435,0.435,0.434,0.434,0.433,0.433,0.433,0.432,0.432,0.431,0.431,0.431,0.431,0.43,0.43,0.43,0.429,0.429,0.429,0.429,0.428,0.428,0.428,0.428,0.428,0.427,0.427,0.427,0.427,0.427,0.426,0.426,0.426,0.425,0.425,0.425,0.424,0.423,0.423,0.422,0.421,0.421,0.421,0.421,0.421,0.421,0.421,0.42,0.42,0.42,0.42,0.419,0.417,0.416,0.416,0.416,0.416,0.416,0.416,0.416,0.416,0.416,0.415,0.415,0.415,0.415,0.414,0.413,0.412,0.412,0.411,0.411,0.411,0.41,0.41,0.409,0.409,0.409,0.409,0.409,0.409,0.409,0.408,0.408,0.408,0.408,0.408,0.409,0.408,0.408,0.408,0.408,0,0.407,0.407,0.407,0.407,0.407,0.406,0.406,0.406,0.406,0.406,0.405,0.405,0.404,0.404,0.404,0.404,0.403,0.403,0.403,0.402,0.402,0.402,0.402,0.402,0.402,0.401,0.401,0.401,0,0,0,0,0,0,0,0,0,0,0,0,0,0,0,0,0,0,0,0,0,0,0,0,0,0,0,0,0,0,0,0,0,0,0,0,0,0,0,0,0,0,0,0,0,0,0,0,0,0,0,0,0,0,0,0,0,0,0,0,0,0,0,0,0,0,0,0,0
0,0,0,0,0,0,0,0,0,0,0,0,0,0,0,0,0,0,0,0,0,0,0,0,0,0,0,0,0,0,0.597,0.596,0.595,0.594,0.593,0.592,0.592,0.592,0.591,0.591,0.59,0.59,0.589,0.589,0.587,0.587,0.586,0.585,0.585,0.584,0.584,0.584,0.583,0.583,0.583,0.583,0.582,0.582,0.582,0.582,0.581,0.581,0.581,0.58,0.579,0.579,0.579,0.578,0.577,0.576,0.575,0.575,0.575,0.575,0.574,0.573,0.573,0.573,0.572,0.572,0.57,0.57,0.568,0.568,0.567,0.566,0.566,0.565,0.565,0.565,0.565,0.564,0.564,0.564,0.563,0.562,0.561,0.56,0.559,0.559,0.558,0.557,0.557,0.556,0.556,0.556,0.556,0.555,0.555,0.555,0.554,0.554,0.553,0.553,0.552,0.551,0.551,0.551,0.55,0.55,0.549,0.549,0.549,0.549,0.548,0.548,0.547,0.547,0.547,0.547,0.546,0.546,0.545,0.545,0.544,0.543,0.543,0.542,0.542,0.541,0.541,0.541,0.54,0.539,0.539,0.539,0.538,0.538,0.537,0.536,0.535,0.534,0.533,0.533,0.533,0.533,0.533,0.532,0.532,0.531,0.531,0.531,0.531,0.53,0.53,0.529,0.529,0.529,0.528,0.528,0.527,0.527,0.527,0.527,0.526,0.526,0,0,0,0,0,0,0,0,0,0,0,0,0,0,0,0,0,0,0,0,0,0,0,0,0,0,0.32,0,0,0.32,0.32,0.32,0.321,0.321,0.321,0.321,0.321,0.322,0.322,0.322,0,0,0,0,0,0,0,0,0.318,0.318,0.318,0.319,0.319,0.319,0.319,0.319,0.319,0.32,0.32,0.32,0.32,0.32,0.321,0.321,0.321,0.321,0.321,0,0.322,0.322,0.323,0.323,0.323,0.323,0.323,0.324,0.324,0.324,0.324,0.324,0.325,0.325,0.326,0.326,0.326,0.326,0.326,0.326,0,0.327,0.327,0.327,0.328,0.328,0.329,0.329,0.329,0.33,0.33,0.331,0.331,0,0.332,0.332,0.332,0.332,0.333,0.333,0.334,0.334,0.335,0.335,0.335,0.335,0.335,0.335,0.336,0.336,0.336,0,0.337,0.337,0.338,0.338,0.338,0.338,0.339,0.339,0.339,0.34,0.34,0.341,0.341,0.341,0.341,0.342,0.342,0.342,0,0.343,0.344,0.344,0.345,0.345,0.345,0.346,0.346,0.347,0,0.348,0.348,0.348,0.349,0.35,0.351,0.351,0.352,0.353,0,0.354,0.355,0.356,0.357,0.358,0,0.359,0.361,0.362,0.364,0,0.366,0.366,0.367,0.369,0.37,0,0,0,0.374,0.376,0.377,0,0.378,0.38,0.381,0.382,0,0.384,0.385,0.385,0.387,0.388,0.389,0.389,0.389,0.39,0,0.391,0.391,0,0,0,0,0,0,0,0,0,0,0.448,0.448,0.448,0.448,0.448,0.448,0.448,0.448,0.448,0.448,0.448,0.447,0.447,0.447,0.447,0.447,0.447,0.447,0.446,0.446,0.446,0.446,0.445,0.445,0.444,0.444,0.443,0.443,0.442,0.442,0.442,0.442,0.442,0.442,0.441,0.441,0.441,0.441,0.441,0.441,0.441,0.441,0.441,0.441,0.44,0.44,0.44,0.439,0.439,0.438,0.437,0.437,0.436,0.436,0.436,0.436,0.436,0.435,0.434,0.434,0.434,0.434,0.433,0.433,0.433,0.432,0.432,0.432,0.432,0.431,0.431,0.431,0.431,0.431,0.43,0.43,0.43,0.429,0.429,0.428,0.428,0.427,0.427,0.427,0.426,0.426,0.426,0.426,0.426,0.426,0.426,0.426,0.426,0.426,0.426,0.426,0.425,0.425,0.424,0.424,0.423,0.422,0.421,0.42,0.42,0.42,0.419,0.418,0.418,0.418,0.417,0.417,0.417,0.416,0.416,0.416,0.416,0.416,0.415,0.415,0.415,0.415,0.415,0.415,0.415,0.414,0.414,0.414,0.414,0.413,0.413,0.412,0.411,0.411,0.411,0.41,0.409,0.409,0.408,0.408,0.408,0.407,0.407,0.407,0.407,0.407,0.407,0.407,0.407,0.407,0.407,0.407,0.407,0.407,0.407,0.406,0,0.406,0.406,0.406,0.406,0.406,0,0,0,0.405,0.404,0.404,0.403,0.403,0.403,0.402,0.402,0.402,0.402,0.402,0.402,0.402,0.401,0.401,0.401,0.4,0.4,0.399,0.399,0.398,0.398,0.398,0,0,0,0,0,0,0,0,0,0,0,0,0,0,0,0,0,0,0,0,0,0,0,0,0,0,0,0,0,0,0,0,0,0,0,0,0,0,0,0,0,0,0,0,0,0,0,0,0,0,0,0,0,0,0,0,0,0,0,0,0,0,0,0,0,0,0
