4.657,4.657,4.657,4.657,4.657,4.657,4.657,4.657,4.694,4.694,4.694,4.713,4.713,4.732,4.732,4.732,4.732,4.732,4.732,4.732,4.732,4.732,4.732,4.732,4.657,4.601,4.583,4.477,4.328,4.264,4.080749999999999,3.906,3.855,3.817,3.804,3.767,3.743,3.731,3.696,3.696,3.672,3.661,3.661,3.661,3.661,3.649,3.649,3.649,3.627,3.582,3.549,3.538,3.528,3.506,3.496,3.485,3.485,3.475,3.475,3.465,3.465,3.465,3.465,3.465,3.465,3.454,3.465,3.485,3.517,3.549,3.615,3.696,3.78,3.829,3.893,3.973,4.009375,4.07,4.158,4.233,4.264,4.312,4.328,4.344,4.376,4.41,4.46,4.512,4.565,4.583,4.638,4.657,4.713,4.732,4.752,4.771,4.791,4.791,4.81,4.81,4.81,4.791,4.791,4.791,4.771,4.771,4.771,4.732,4.732,4.713,4.713,4.713,4.694,4.694,4.694,4.694,4.694,4.657,4.657,4.657,4.638,4.638,4.638,4.638,4.601,4.601,4.601,4.583,4.583,4.601,4.601,4.638,4.657,4.713,4.752,4.791,4.83,4.851,4.851,4.871,4.891,4.891,4.871,4.851,4.851,4.83,4.83,4.83,4.81,4.81,4.81,4.81,4.81,4.81,4.81,4.81,4.81,4.81,4.81,4.81,4.81,4.81,4.81,4.81,4.791,4.791,4.771,4.752,4.732,4.732,4.732,4.713,4.713,4.732,4.752,4.752,4.791,4.81,4.83,4.851,4.891,4.912,4.912,4.912,4.912,4.912,4.912,4.891,4.871,4.851,4.83,4.83,4.81,4.81,4.771,4.752,4.713,4.657,4.601,4.565,4.512,4.41,4.393,4.36,4.344,4.328,4.328,4.328,4.312,4.296,4.28,4.264,4.249,4.233,4.203,4.128,4.07,3.987,3.933,3.893,3.855,3.842,3.829,3.817,3.804,3.804,3.792,3.78,3.767,3.755,3.755,3.743,3.743,3.743,3.731,3.731,3.731,3.743,3.743,3.743,3.743,3.743,3.743,0.0,0.0,0.0,0.0,0.0,0.0,0.0,0.0,1.479,1.481,1.481,1.481,1.483,1.485,1.489,1.492,1.5,1.512,1.522,1.532,1.538,1.544,1.544,1.544,1.544,1.544,1.542,1.538,1.532,1.522,1.514,1.506,1.496,1.491,1.485,1.483,1.481,1.479,1.477,1.477,1.477,1.475,1.475,1.475,1.47,1.466,1.459,1.452,1.441,1.434,1.428,1.423,1.416,1.396,1.384,1.379,1.378,1.376,1.374,1.374,1.376,1.376,1.378,1.378,1.381,1.381,1.381,1.381,1.379,1.378,1.376,1.373,1.371,1.37,1.366,1.368,1.366,1.37,1.373,1.383,1.401,1.4183750000000002,1.44384375,1.472,1.489,1.5085000000000002,1.528,1.552,1.56,1.571,1.567,1.565,1.563,1.56,1.558,1.556,1.554,1.552,1.552,1.55,1.548,1.548,1.546,1.544,1.54,1.538,1.536,1.534,1.532,1.526,1.526,1.522,1.52,1.518,1.514,1.512,1.512,1.508,1.508,1.508,1.508,1.508,1.508,1.508,1.506,1.506,1.506,1.506,1.502,1.502,1.5,1.498,1.496,1.494,1.492,1.491,1.491,1.489,1.485,1.485,1.483,1.483,1.481,1.479,1.477,1.475,1.474,1.472,1.47,1.464,1.461,1.459,1.453,1.452,1.448,1.446,1.443,1.441,1.441,1.439,1.437,1.437,1.435,1.434,1.432,1.432,1.432,1.432,1.43,1.43,1.43,1.43,1.43,1.43,1.43,1.43,1.432,0.0,0.0,0.0,0.0,0.0,0.0,0.0,0.844,0.842,0.841,0.84,0.839,0.838,0.838,0.836,0.833,0.83,0.826,0.822,0.819,0.818,0.816,0.807,0.802,0.8,0.797,0.792,0.784,0.782,0.78,0.777,0.775,0.771,0.769,0.767,0.766,0.762,0.759,0.755,0.753,0.752,0.75,0.749,0.747,0.741,0.739,0.736,0.735,0.734,0.731,0.727,0.722,0.721,0.719,0.718,0.717,0.714,0.712,0.709,0.708,0.707,0.706,0.706,0.706,0.706,0.705,0.705,0.703,0.703,0.702,0.7,0.699,0.698,0.696,0.695,0.693,0.692,0.69,0.687,0.683,0.682,0.68,0.679,0.678,0.678,0.676,0.676,0.675,0.674,0.674,0.673,0.672,0.671,0.671,0.669,0.669,0.668,0.668,0.667,0.666,0.662,0.659,0.657,0.655,0.654,0.651,0.645,0.644,0.642,0.639,0.636,0.635,0.633,0.629,0.611,0.593,0.0,0.0,0.0,0.591,0.59,0.59,0.59,0.589,0.0,0.0,0.0,0.0,0.0,0.0,0.0,0.0,0.0,0.0,0.612,0.0,0.0,0.0
4.657,4.657,4.657,4.657,4.638,4.657,4.657,4.657,4.657,4.694,4.694,4.713,4.713,4.713,4.732,4.732,4.732,4.732,4.732,4.732,4.732,4.732,4.732,4.732,4.657,4.601,4.565,4.46,4.344,4.28,4.233,4.114,3.92,3.868,3.842,3.829,3.804,3.792,3.767,3.755,3.743,3.731,3.707,3.707,3.696,3.672,3.696,3.672,3.661,3.649,3.582,3.549,3.538,3.517,3.496,3.485,3.485,3.485,3.475,3.475,3.465,3.465,3.465,3.454,3.465,3.465,3.465,3.485,3.517,3.56,3.627,3.707,3.792,3.842,3.906,3.9699999999999998,4.014,4.114,4.173,4.249,4.28,4.312,4.328,4.344,4.376,4.41,4.46,4.477,4.53,4.565,4.601,4.638,4.694,4.713,4.732,4.752,4.752,4.771,4.771,4.771,4.771,4.771,4.752,4.732,4.713,4.713,4.713,4.694,4.694,4.694,4.657,4.657,4.657,4.657,4.638,4.638,4.638,4.638,4.638,4.638,4.638,4.601,4.601,4.601,4.583,4.583,4.583,4.565,4.583,4.583,4.583,4.601,4.638,4.694,4.732,4.791,4.81,4.83,4.851,4.871,4.891,4.891,4.871,4.871,4.851,4.851,4.83,4.83,4.81,4.81,4.81,4.81,4.81,4.81,4.81,4.81,4.81,4.81,4.81,4.81,4.81,4.81,4.81,4.81,4.791,4.771,4.771,4.752,4.732,4.732,4.732,4.732,4.732,4.732,4.752,4.771,4.791,4.81,4.83,4.851,4.891,4.891,4.912,4.912,4.912,4.912,4.912,4.891,4.871,4.851,4.851,4.83,4.81,4.81,4.791,4.752,4.713,4.657,4.601,4.565,4.512,4.426,4.393,4.376,4.36,4.344,4.328,4.328,4.328,4.312,4.312,4.28,4.264,4.249,4.218,4.188,4.114,4.028,3.973,3.92,3.868,3.842,3.829,3.817,3.804,3.804,3.78,3.767,3.755,3.743,3.743,3.731,3.731,3.707,3.707,3.707,3.696,3.707,3.707,3.707,3.707,3.707,3.707,0.0,0.0,0.0,0.0,0.0,0.0,0.0,0.0,1.474,1.474,1.474,1.475,1.475,1.479,1.483,1.487,1.492,1.502,1.514,1.526,1.536,1.542,1.544,1.544,1.546,1.544,1.542,1.54,1.534,1.526,1.514,1.506,1.498,1.491,1.485,1.481,1.479,1.475,1.474,1.472,1.472,1.472,1.47,1.47,1.464,1.459,1.452,1.446,1.435,1.43,1.425,1.416,1.391,1.381,1.376,1.373,1.37,1.366,1.365,1.363,1.362,1.362,1.365,1.366,1.37,1.371,1.371,1.371,1.371,1.371,1.37,1.368,1.363,1.36,1.355,1.355,1.35,1.352,1.355,1.36,1.365,1.374,1.396,1.4175,1.439,1.483,1.5117500000000001,1.536,1.554,1.56,1.558,1.556,1.554,1.554,1.552,1.55,1.548,1.546,1.546,1.544,1.542,1.536,1.534,1.528,1.526,1.522,1.52,1.518,1.514,1.512,1.508,1.508,1.506,1.502,1.5,1.498,1.498,1.498,1.496,1.496,1.494,1.494,1.494,1.494,1.494,1.494,1.492,1.492,1.491,1.491,1.491,1.489,1.487,1.487,1.485,1.485,1.481,1.481,1.479,1.475,1.474,1.472,1.47,1.464,1.461,1.459,1.457,1.453,1.453,1.452,1.448,1.446,1.443,1.441,1.437,1.435,1.434,1.434,1.432,1.432,1.432,1.43,1.43,1.43,1.428,1.427,1.427,1.427,1.425,1.425,1.425,1.425,1.425,1.425,1.425,1.425,1.425,0.0,0.0,0.0,0.0,0.0,0.0,0.0,0.845,0.843,0.843,0.841,0.841,0.839,0.838,0.836,0.836,0.83,0.827,0.823,0.82,0.818,0.816,0.808,0.803,0.8,0.798,0.794,0.784,0.782,0.78,0.777,0.774,0.77,0.768,0.766,0.765,0.762,0.758,0.754,0.752,0.751,0.75,0.748,0.746,0.739,0.737,0.735,0.734,0.731,0.727,0.721,0.719,0.718,0.716,0.714,0.711,0.709,0.708,0.707,0.706,0.706,0.706,0.705,0.704,0.704,0.703,0.702,0.7,0.698,0.697,0.695,0.694,0.693,0.693,0.691,0.689,0.687,0.684,0.682,0.68,0.68,0.678,0.675,0.674,0.674,0.673,0.673,0.672,0.672,0.672,0.671,0.671,0.67,0.669,0.669,0.668,0.668,0.667,0.666,0.663,0.661,0.658,0.657,0.655,0.653,0.647,0.645,0.643,0.641,0.638,0.6355,0.634,0.633,0.6305000000000001,0.0,0.0,0.0,0.591,0.59,0.59,0.589,0.589,0.589,0.588,0.588,0.587,0.587,0.0,0.0,0.0,0.0,0.598,0.599,0.601,0.603,0.0,0.0,0.0
4.657,4.657,4.657,4.657,4.638,4.638,4.638,4.657,4.657,4.694,4.694,4.694,4.713,4.713,4.732,4.732,4.732,4.732,4.732,4.732,4.732,4.732,4.732,4.732,4.657,4.601,4.583,4.477,4.376,4.312,4.264,4.218,4.114,3.973,3.92,3.88,3.868,3.855,3.829,3.817,3.817,3.804,3.792,3.78,3.755,3.743,3.731,3.731,3.696,3.661,3.593,3.582,3.549,3.538,3.517,3.496,3.496,3.485,3.485,3.485,3.475,3.465,3.465,3.465,3.465,3.454,3.465,3.485,3.506,3.56,3.649,3.707,3.792,3.842,3.906,3.987,4.036,4.085,4.173,4.218,4.264,4.296,4.312,4.328,4.36,4.393,4.41,4.46,4.512,4.53,4.565,4.601,4.638,4.657,4.713,4.713,4.732,4.732,4.752,4.752,4.732,4.713,4.713,4.694,4.694,4.694,4.657,4.657,4.657,4.657,4.657,4.638,4.638,4.638,4.638,4.601,4.601,4.601,4.601,4.601,4.601,4.601,4.601,4.583,4.583,4.565,4.565,4.565,4.565,4.565,4.565,4.583,4.601,4.657,4.713,4.771,4.81,4.83,4.851,4.851,4.891,4.891,4.871,4.851,4.851,4.851,4.83,4.83,4.83,4.81,4.81,4.81,4.81,4.81,4.81,4.81,4.81,4.81,4.81,4.81,4.81,4.791,4.791,4.791,4.791,4.771,4.752,4.752,4.732,4.732,4.732,4.732,4.732,4.752,4.752,4.771,4.791,4.81,4.83,4.851,4.871,4.891,4.891,4.912,4.912,4.912,4.891,4.891,4.871,4.851,4.851,4.83,4.81,4.81,4.791,4.752,4.713,4.657,4.601,4.565,4.46,4.426,4.41,4.376,4.36,4.344,4.344,4.344,4.328,4.328,4.312,4.296,4.28,4.264,4.249,4.218,4.173,4.085,4.028,3.946,3.868,3.855,3.829,3.817,3.804,3.792,3.78,3.767,3.743,3.731,3.731,3.707,3.707,3.696,3.672,3.696,3.672,3.672,3.672,3.672,3.672,3.672,3.696,0.0,0.0,0.0,0.0,0.0,0.0,0.0,0.0,1.466,1.464,1.464,1.464,1.464,1.466,1.47,1.477,1.483,1.491,1.502,1.518,1.528,1.538,1.544,1.544,1.544,1.544,1.544,1.54,1.536,1.526,1.518,1.508,1.496,1.491,1.485,1.477,1.474,1.47,1.464,1.461,1.464,1.461,1.461,1.459,1.453,1.448,1.441,1.437,1.43,1.425,1.416,1.388,1.381,1.374,1.371,1.366,1.36,1.355,1.349,1.344,1.344,1.341,1.341,1.344,1.35,1.355,1.36,1.362,1.362,1.363,1.362,1.36,1.355,1.349,1.341,1.34,1.335,1.33,1.327,1.327,1.333,1.3450000000000002,1.355,1.35975,0.0,0.0,1.5,1.524,1.548,1.552,1.552,1.552,1.552,1.55,1.548,1.546,1.544,1.542,1.536,1.528,1.526,1.52,1.518,1.512,1.508,1.506,1.502,1.5,1.498,1.496,1.496,1.494,1.492,1.491,1.491,1.491,1.491,1.489,1.489,1.489,1.489,1.489,1.489,1.487,1.487,1.485,1.485,1.485,1.485,1.483,1.483,1.481,1.481,1.477,1.475,1.472,1.47,1.466,1.464,1.461,1.457,1.453,1.452,1.448,1.443,1.446,1.443,1.441,1.439,1.437,1.437,1.435,1.434,1.432,1.432,1.43,1.43,1.428,1.428,1.427,1.427,1.427,1.427,1.425,1.425,1.423,1.423,1.421,1.42,1.418,1.416,1.416,1.416,1.416,1.416,1.418,1.418,0.0,0.0,0.0,0.0,0.0,0.0,0.0,0.847,0.845,0.844,0.842,0.841,0.84,0.838,0.837,0.836,0.832,0.827,0.823,0.82,0.818,0.816,0.807,0.803,0.8,0.798,0.794,0.787,0.782,0.779,0.776,0.772,0.769,0.767,0.766,0.765,0.762,0.757,0.754,0.752,0.751,0.75,0.748,0.742,0.738,0.736,0.734,0.732,0.728,0.722,0.72,0.719,0.717,0.714,0.712,0.71,0.709,0.708,0.707,0.706,0.705,0.704,0.703,0.702,0.7,0.699,0.698,0.695,0.694,0.693,0.693,0.69,0.689,0.687,0.684,0.682,0.681,0.68,0.68,0.678,0.674,0.672,0.671,0.671,0.67,0.67,0.669,0.669,0.669,0.669,0.668,0.668,0.668,0.668,0.667,0.667,0.666,0.665,0.662,0.661,0.658,0.657,0.655,0.654,0.652,0.645,0.644,0.642,0.64,0.6365,0.634,0.633,0.632,0.632,0.0,0.0,0.0,0.591,0.59,0.589,0.589,0.587,0.587,0.587,0.586,0.585,0.584,0.584,0.586,0.587,0.0,0.0,0.589,0.591,0.594,0.0,0.0,0.0
4.657,4.657,4.638,4.638,4.638,4.638,4.638,4.638,4.657,4.657,4.694,4.694,4.713,4.713,4.713,4.732,4.713,4.713,4.732,4.713,4.732,4.732,4.732,4.713,4.657,4.638,4.601,4.512,4.41,4.36,4.312,4.28,4.233,4.173,4.128,4.028,3.973,3.933,3.906,3.88,3.868,3.868,3.855,3.842,3.829,3.817,3.804,3.792,3.767,3.731,3.672,3.615,3.582,3.56,3.538,3.506,3.506,3.496,3.496,3.485,3.485,3.475,3.465,3.465,3.465,3.465,3.465,3.485,3.506,3.56,3.627,3.707,3.792,3.829,3.893,3.973,4.0215,4.07,4.128,4.203,4.249,4.264,4.296,4.312,4.328,4.36,4.393,4.46,4.477,4.512,4.565,4.583,4.601,4.638,4.657,4.694,4.657,4.694,4.694,4.694,4.694,4.694,4.694,4.657,4.657,4.657,4.638,4.638,4.638,4.638,4.638,4.638,4.638,4.601,4.601,4.601,4.601,4.601,4.583,4.583,4.583,4.583,4.583,4.583,4.583,4.565,4.565,4.565,4.565,4.565,4.565,4.583,4.601,4.638,4.694,4.752,4.791,4.81,4.83,4.851,4.851,4.851,4.851,4.851,4.851,4.83,4.83,4.83,4.81,4.81,4.81,4.81,4.81,4.81,4.81,4.791,4.791,4.791,4.791,4.791,4.791,4.791,4.791,4.791,4.771,4.771,4.752,4.752,4.732,4.732,4.732,4.732,4.732,4.752,4.752,4.771,4.791,4.81,4.83,4.851,4.851,4.871,4.891,4.891,4.891,4.891,4.891,4.891,4.871,4.851,4.851,4.83,4.81,4.81,4.791,4.752,4.713,4.657,4.638,4.565,4.53,4.426,4.41,4.393,4.376,4.376,4.376,4.36,4.36,4.344,4.328,4.312,4.312,4.28,4.264,4.249,4.203,4.128,4.07,3.987,3.933,3.868,3.842,3.817,3.804,3.792,3.767,3.755,3.743,3.707,3.696,3.672,3.661,3.661,3.661,3.649,3.649,3.661,3.661,3.649,3.649,3.661,3.661,0.0,0.0,0.0,0.0,0.0,0.0,0.0,0.0,1.461,1.457,1.452,1.448,1.448,1.448,1.457,1.46025,1.466,1.481,1.485,1.492,1.508,1.522,1.532,1.538,1.544,1.544,1.542,1.538,1.532,1.522,1.508,1.498,1.489,1.475,1.464,1.452,1.443,1.435,1.432,1.432,1.432,1.432,1.432,1.434,1.432,1.432,1.43,1.427,1.423,1.416,1.391,1.379,1.374,1.371,1.365,1.357,1.349,1.34,1.333,1.33,1.327,1.327,1.326,1.327,1.329,1.332,1.337,1.341,1.344,1.346,1.349,1.346,1.344,1.337,1.33,1.327,1.326,1.324,1.323,1.323,1.323,1.318,1.308,1.302,0.0,0.0,0.0,0.0,1.544,1.55,1.552,1.55,1.548,1.548,1.546,1.542,1.54,1.528,1.522,1.518,1.512,1.506,1.502,1.5,1.496,1.494,1.491,1.491,1.489,1.489,1.489,1.487,1.485,1.485,1.485,1.483,1.483,1.483,1.481,1.481,1.481,1.479,1.479,1.479,1.477,1.477,1.475,1.474,1.474,1.47,1.466,1.466,1.464,1.461,1.459,1.453,1.452,1.448,1.446,1.443,1.441,1.437,1.435,1.435,1.434,1.434,1.432,1.432,1.432,1.432,1.43,1.43,1.43,1.428,1.427,1.427,1.425,1.425,1.425,1.423,1.423,1.421,1.421,1.42,1.418,1.414,1.413,1.409,1.408,1.403,1.403,1.401,1.401,1.401,1.401,1.403,1.403,1.403,0.0,0.0,0.0,0.0,0.0,0.0,0.848,0.847,0.845,0.843,0.842,0.841,0.838,0.838,0.836,0.832,0.827,0.823,0.819,0.818,0.815,0.806,0.802,0.8,0.798,0.794,0.783,0.781,0.777,0.774,0.77,0.768,0.767,0.766,0.765,0.761,0.757,0.754,0.752,0.751,0.75,0.748,0.741,0.738,0.735,0.734,0.731,0.727,0.721,0.719,0.718,0.716,0.714,0.711,0.709,0.708,0.707,0.706,0.706,0.704,0.703,0.702,0.699,0.698,0.696,0.694,0.693,0.692,0.689,0.687,0.684,0.683,0.682,0.681,0.68,0.679,0.678,0.676,0.672,0.67,0.669,0.668,0.668,0.668,0.667,0.667,0.667,0.666,0.666,0.666,0.665,0.665,0.664,0.663,0.661,0.66,0.658,0.658,0.657,0.656,0.655,0.653,0.65,0.645,0.644,0.642,0.64,0.636,0.634,0.633,0.632,0.63,0.627,0.0,0.0,0.0,0.591,0.59,0.589,0.587,0.586,0.584,0.584,0.583,0.582,0.582,0.582,0.582,0.582,0.582,0.0,0.5845,0.586125,0.589,0.593,0.599,0.602
4.657,4.657,4.638,4.638,4.638,4.638,4.638,4.638,4.657,4.657,4.694,4.694,4.713,4.713,4.713,4.713,4.713,4.713,4.713,4.713,4.713,4.713,4.713,4.713,4.657,4.638,4.583,4.53,4.46,4.41,4.36,4.328,4.28,4.264,4.249,4.218,4.188,4.158,4.056,4.028,4.014,3.973,3.933,3.92,3.893,3.868,3.855,3.842,3.817,3.804,3.767,3.707,3.627,3.593,3.549,3.528,3.528,3.528,3.506,3.506,3.496,3.496,3.485,3.485,3.485,3.475,3.475,3.485,3.517,3.56,3.627,3.707,3.792,3.829,3.88,3.946,3.987,4.028,4.114,4.173,4.233,4.264,4.28,4.312,4.328,4.36,4.393,4.41,4.46,4.477,4.53,4.565,4.583,4.583,4.601,4.638,4.638,4.657,4.657,4.657,4.657,4.657,4.657,4.638,4.638,4.638,4.601,4.601,4.601,4.601,4.601,4.601,4.601,4.601,4.601,4.601,4.601,4.583,4.583,4.583,4.583,4.583,4.583,4.583,4.583,4.565,4.565,4.565,4.565,4.565,4.565,4.565,4.583,4.638,4.657,4.732,4.752,4.791,4.81,4.83,4.851,4.851,4.83,4.83,4.83,4.83,4.81,4.81,4.81,4.81,4.81,4.81,4.81,4.791,4.791,4.771,4.771,4.771,4.771,4.771,4.771,4.771,4.771,4.771,4.771,4.752,4.752,4.732,4.732,4.732,4.713,4.732,4.732,4.752,4.752,4.771,4.81,4.81,4.83,4.83,4.851,4.871,4.871,4.891,4.891,4.891,4.891,4.871,4.851,4.851,4.83,4.81,4.81,4.791,4.771,4.752,4.713,4.657,4.601,4.565,4.53,4.46,4.426,4.41,4.41,4.393,4.393,4.393,4.393,4.376,4.36,4.328,4.328,4.312,4.296,4.28,4.249,4.203,4.128,4.056,3.987,3.868,3.855,3.817,3.804,3.792,3.767,3.743,3.731,3.707,3.696,3.672,3.661,3.649,3.649,3.627,3.627,3.627,3.627,3.627,3.627,3.627,3.649,0.0,0.0,0.0,0.0,0.0,0.0,0.0,0.0,1.457,1.448,1.446,1.439,1.434,1.434,1.434,1.441,1.457,1.4617499999999999,1.47,1.481,1.487,1.494,1.506,1.518,1.528,1.528,1.532,1.52,1.508,1.496,1.489,1.475,1.461,1.446,1.432,1.428,1.425,1.418,1.416,1.413,1.413,1.413,1.414,1.42,1.42,1.42,1.42,1.416,1.413,1.391,1.379,1.374,1.37,1.365,1.355,1.344,1.335,1.33,1.326,1.321,1.32,1.32,1.318,1.32,1.321,1.323,1.326,1.32925,1.329,1.33,1.333,1.333,1.327,1.327,1.326,1.323,1.321,1.321,1.32,1.315,1.312,1.304,1.296,1.288,1.281,0.0,0.0,0.0,0.0,0.0,1.55,1.55,1.548,1.546,1.544,1.54,1.526,1.518,1.512,1.506,1.498,1.494,1.491,1.491,1.489,1.487,1.485,1.483,1.483,1.483,1.481,1.481,1.479,1.477,1.475,1.474,1.472,1.47,1.47,1.466,1.466,1.464,1.464,1.461,1.459,1.457,1.457,1.457,1.453,1.452,1.448,1.448,1.446,1.443,1.441,1.439,1.435,1.434,1.432,1.432,1.43,1.43,1.43,1.428,1.428,1.427,1.427,1.427,1.427,1.427,1.427,1.427,1.425,1.425,1.425,1.423,1.423,1.42,1.418,1.418,1.416,1.416,1.414,1.409,1.408,1.403,1.398,1.396,1.388,1.386,1.383,1.381,1.383,1.381,1.381,1.381,1.384,0.0,0.0,0.0,0.0,0.0,0.0,0.0,0.849,0.847,0.845,0.845,0.843,0.841,0.839,0.838,0.836,0.83,0.826,0.822,0.819,0.817,0.815,0.806,0.802,0.8,0.797,0.792,0.783,0.781,0.777,0.773,0.769,0.767,0.766,0.765,0.762,0.76,0.757,0.754,0.752,0.751,0.749,0.747,0.741,0.737,0.735,0.734,0.73,0.727,0.721,0.719,0.717,0.715,0.712,0.71,0.709,0.708,0.707,0.706,0.705,0.703,0.701,0.699,0.697,0.695,0.694,0.693,0.692,0.687,0.684,0.682,0.681,0.68,0.68,0.679,0.678,0.676,0.672,0.67,0.669,0.668,0.667,0.667,0.666,0.666,0.665,0.664,0.663,0.662,0.662,0.661,0.659,0.658,0.658,0.657,0.656,0.656,0.655,0.655,0.654,0.653,0.65,0.648,0.644,0.643,0.641,0.638,0.635,0.634,0.633,0.63,0.628,0.626,0.6245,0.0,0.0,0.597,0.592,0.591,0.591,0.589,0.588,0.586,0.584,0.583,0.582,0.582,0.582,0.582,0.581,0.581,0.581,0.58,0.58,0.58,0.0,0.0,0.0
4.657,4.657,4.638,4.638,4.638,4.638,4.638,4.638,4.657,4.657,4.657,4.694,4.694,4.713,4.713,4.732,4.713,4.713,4.713,4.713,4.713,4.713,4.694,4.694,4.657,4.638,4.601,4.565,4.512,4.477,4.426,4.376,4.328,4.328,4.296,4.28,4.264,4.249,4.233,4.203,4.173,4.128,4.085,4.07,4.014,3.973,3.946,3.906,3.88,3.855,3.829,3.804,3.78,3.755,3.661,3.615,3.615,3.593,3.582,3.549,3.538,3.528,3.506,3.496,3.496,3.485,3.485,3.496,3.517,3.56,3.627,3.707,3.792,3.829,3.88,3.946,4.00425,4.056,4.085,4.158,4.203,4.249,4.264,4.28,4.312,4.328,4.36,4.393,4.426,4.426,4.477,4.53,4.565,4.565,4.583,4.601,4.601,4.638,4.638,4.657,4.657,4.638,4.638,4.638,4.638,4.638,4.601,4.601,4.601,4.601,4.601,4.601,4.601,4.601,4.601,4.583,4.583,4.583,4.583,4.583,4.583,4.583,4.583,4.583,4.583,4.583,4.565,4.565,4.565,4.565,4.565,4.565,4.583,4.601,4.657,4.713,4.732,4.771,4.81,4.81,4.83,4.83,4.83,4.83,4.81,4.81,4.81,4.81,4.81,4.81,4.791,4.791,4.791,4.771,4.771,4.752,4.752,4.752,4.752,4.752,4.752,4.752,4.752,4.752,4.752,4.752,4.752,4.732,4.732,4.732,4.732,4.732,4.732,4.752,4.771,4.771,4.771,4.81,4.81,4.83,4.83,4.851,4.871,4.871,4.871,4.871,4.871,4.851,4.851,4.83,4.83,4.81,4.81,4.791,4.771,4.732,4.713,4.638,4.601,4.565,4.53,4.477,4.46,4.426,4.426,4.426,4.41,4.41,4.41,4.393,4.393,4.36,4.344,4.328,4.328,4.296,4.264,4.233,4.173,4.085,4.028,3.893,3.855,3.829,3.804,3.792,3.767,3.755,3.731,3.696,3.672,3.661,3.661,3.649,3.615,3.615,3.615,3.615,3.615,3.615,3.615,3.615,3.615,3.627,0.0,0.0,0.0,0.0,0.0,0.0,0.0,0.0,1.443,1.437,1.432,1.427,1.425,1.425,1.427,1.432,1.439,1.448,1.461,1.4650000000000003,1.475,1.483,1.489,1.491,1.491,1.491,1.489,1.485,1.47,1.452,1.439,1.43,1.425,1.416,1.404,1.386,1.381,1.379,1.379,1.379,1.383,1.388,1.392,1.3955,1.396,1.396,1.391,1.384,1.378,1.373,1.368,1.362,1.355,1.344,1.335,1.329,1.321,1.32,1.315,1.312,1.308,1.307,1.308,1.311,1.315,1.318,1.321,1.323,1.326,1.326,1.326,1.323,1.323,1.321,1.32,1.318,1.315,1.312,1.308,1.302,1.296,1.289,1.283,1.279,1.275,1.269,0.0,0.0,0.0,0.0,0.0,0.0,1.546,1.542,1.526,1.514,1.502,1.498,1.492,1.491,1.485,1.485,1.483,1.481,1.479,1.477,1.475,1.474,1.472,1.472,1.47,1.464,1.464,1.459,1.457,1.453,1.452,1.448,1.446,1.446,1.446,1.443,1.443,1.441,1.439,1.439,1.437,1.437,1.435,1.435,1.434,1.432,1.432,1.43,1.43,1.428,1.427,1.427,1.425,1.425,1.425,1.423,1.423,1.423,1.423,1.423,1.423,1.423,1.423,1.423,1.423,1.423,1.421,1.42,1.416,1.414,1.414,1.413,1.409,1.408,1.404,1.403,1.398,1.396,1.391,1.388,1.383,1.379,1.378,1.376,1.376,1.376,1.376,1.378,1.378,1.378,0.0,0.0,0.0,0.0,0.0,0.0,0.852,0.85,0.849,0.847,0.845,0.843,0.841,0.838,0.837,0.836,0.83,0.826,0.821,0.819,0.817,0.814,0.805,0.802,0.8,0.797,0.791,0.782,0.78,0.776,0.771,0.769,0.767,0.766,0.765,0.763,0.762,0.757,0.754,0.752,0.751,0.75,0.748,0.741,0.737,0.735,0.733,0.73,0.725,0.72,0.719,0.717,0.714,0.712,0.71,0.709,0.707,0.706,0.706,0.703,0.701,0.699,0.697,0.695,0.694,0.693,0.692,0.687,0.683,0.682,0.68,0.68,0.679,0.678,0.676,0.673,0.67,0.669,0.668,0.667,0.666,0.665,0.664,0.663,0.662,0.66,0.658,0.657,0.657,0.656,0.656,0.655,0.655,0.655,0.654,0.653,0.652,0.651,0.65,0.648,0.646,0.644,0.643,0.642,0.639,0.636,0.634,0.633,0.632,0.629,0.627,0.625,0.623,0.622,0.621,0.0,0.0,0.594,0.592,0.592,0.591,0.589,0.589,0.585,0.584,0.582,0.582,0.582,0.581,0.58,0.579,0.578,0.576,0.574,0.571,0.0,0.0,0.0
4.657,4.657,4.657,4.657,4.657,4.657,4.638,4.657,4.657,4.694,4.694,4.694,4.713,4.713,4.713,4.713,4.713,4.713,4.713,4.713,4.694,4.694,4.694,4.657,4.657,4.638,4.601,4.583,4.565,4.53,4.512,4.46,4.41,4.393,4.36,4.344,4.328,4.312,4.296,4.28,4.264,4.264,4.249,4.233,4.173,4.128,4.085,4.056,3.987,3.933,3.893,3.868,3.842,3.829,3.817,3.78,3.755,3.743,3.696,3.672,3.661,3.615,3.582,3.538,3.528,3.496,3.496,3.496,3.528,3.56,3.627,3.707,3.792,3.829,3.88,3.946,4.028,4.0565,4.085,4.158,4.188,4.233,4.249,4.28,4.296,4.312,4.328,4.36,4.393,4.41,4.46,4.512,4.53,4.565,4.565,4.583,4.583,4.601,4.638,4.638,4.638,4.638,4.638,4.638,4.601,4.601,4.601,4.601,4.601,4.601,4.601,4.601,4.601,4.583,4.583,4.583,4.583,4.583,4.565,4.565,4.565,4.565,4.565,4.565,4.565,4.565,4.565,4.565,4.565,4.565,4.565,4.565,4.583,4.601,4.638,4.694,4.732,4.732,4.771,4.791,4.81,4.81,4.81,4.81,4.81,4.81,4.791,4.791,4.791,4.791,4.791,4.791,4.771,4.771,4.752,4.752,4.752,4.752,4.732,4.732,4.732,4.752,4.752,4.752,4.732,4.732,4.732,4.732,4.732,4.732,4.713,4.732,4.732,4.752,4.752,4.771,4.791,4.791,4.81,4.81,4.83,4.83,4.851,4.851,4.851,4.851,4.851,4.851,4.83,4.83,4.81,4.81,4.791,4.771,4.752,4.732,4.694,4.638,4.601,4.565,4.53,4.477,4.477,4.46,4.46,4.46,4.46,4.46,4.426,4.426,4.41,4.393,4.36,4.344,4.328,4.312,4.28,4.249,4.188,4.128,4.056,3.893,3.855,3.829,3.804,3.792,3.767,3.743,3.731,3.696,3.672,3.661,3.627,3.615,3.615,3.593,3.593,3.593,3.593,3.593,3.593,3.593,3.593,0.0,0.0,0.0,0.0,0.0,0.0,0.0,0.0,0.0,0.0,0.0,1.425,1.42,1.409,1.408,1.414,1.418,1.423,1.427,1.43,1.437,1.448,1.459,1.466,1.466,1.47,1.466,1.461,1.452,1.434,1.427,1.42,1.409,1.384,1.378,1.373,1.36775,1.366,1.365,1.365,1.36375,1.37,1.371,1.373,1.374,1.376,1.376,1.374,1.373,1.371,1.366,1.36,1.352,1.344,1.337,1.33,1.326,1.318,1.314,1.308,1.302,1.301,1.296,1.296,1.296,1.301,1.304,1.308,1.314,1.317,1.32,1.32,1.318,1.317,1.315,1.312,1.311,1.307,1.302,1.296,1.289,1.286,1.282,1.279,1.276,1.272,1.257,1.249,0.0,0.0,0.0,0.0,0.0,0.0,0.0,1.518,1.5,1.494,1.489,1.485,1.483,1.481,1.477,1.474,1.47,1.466,1.464,1.461,1.459,1.457,1.453,1.448,1.446,1.443,1.441,1.439,1.437,1.435,1.434,1.432,1.432,1.432,1.432,1.43,1.43,1.43,1.428,1.428,1.428,1.427,1.427,1.427,1.425,1.425,1.425,1.423,1.421,1.421,1.421,1.42,1.418,1.416,1.416,1.416,1.416,1.416,1.416,1.414,1.416,1.416,1.416,1.414,1.414,1.409,1.409,1.408,1.408,1.404,1.403,1.401,1.398,1.396,1.392,1.388,1.386,1.381,1.378,1.378,1.374,1.373,1.371,1.371,1.371,1.371,1.373,1.371,0.0,0.0,0.0,0.0,0.0,0.0,0.0,0.853,0.852,0.85,0.847,0.847,0.844,0.841,0.838,0.837,0.835,0.829,0.824,0.82,0.818,0.816,0.814,0.804,0.801,0.798,0.795,0.788,0.782,0.779,0.775,0.77,0.768,0.766,0.765,0.765,0.763,0.76,0.757,0.754,0.753,0.751,0.75,0.749,0.741,0.738,0.735,0.733,0.73,0.724,0.72,0.718,0.716,0.714,0.711,0.709,0.708,0.707,0.706,0.704,0.702,0.7,0.698,0.695,0.694,0.693,0.692,0.687,0.684,0.682,0.68,0.68,0.678,0.676,0.674,0.67,0.669,0.668,0.667,0.666,0.665,0.664,0.662,0.661,0.659,0.658,0.656,0.655,0.655,0.655,0.654,0.653,0.652,0.651,0.65,0.648,0.647,0.646,0.645,0.645,0.644,0.642,0.64,0.639,0.636,0.634,0.633,0.632,0.628,0.627,0.625,0.623,0.622,0.622,0.621,0.612,0.0,0.0,0.5974999999999999,0.594,0.592,0.592,0.591,0.59,0.586,0.584,0.583,0.582,0.581,0.58,0.579,0.577,0.575,0.573,0.569,0.566,0.564,0.564,0.562
4.694,4.657,4.657,4.657,4.657,4.657,4.657,4.694,4.694,4.694,4.713,4.713,4.713,4.713,4.732,4.732,4.732,4.713,4.713,4.713,4.694,4.694,4.657,4.657,4.657,4.657,4.638,4.601,4.601,4.583,4.565,4.565,4.512,4.477,4.46,4.426,4.41,4.393,4.36,4.344,4.328,4.328,4.312,4.296,4.28,4.249,4.218,4.173,4.128,4.07,4.014,3.973,3.92,3.893,3.868,3.855,3.829,3.829,3.817,3.804,3.767,3.731,3.661,3.627,3.582,3.538,3.517,3.517,3.528,3.56,3.627,3.707,3.78,3.829,3.868,3.933,4.028,4.056375,4.085,4.158,4.188,4.218,4.249,4.264,4.28,4.312,4.328,4.344,4.376,4.393,4.46,4.477,4.512,4.53,4.565,4.565,4.583,4.583,4.601,4.638,4.638,4.638,4.638,4.601,4.601,4.601,4.601,4.601,4.601,4.601,4.583,4.583,4.583,4.583,4.583,4.565,4.565,4.565,4.565,4.565,4.565,4.565,4.565,4.565,4.565,4.565,4.565,4.565,4.583,4.583,4.583,4.583,4.583,4.601,4.638,4.657,4.694,4.713,4.732,4.752,4.752,4.771,4.771,4.771,4.771,4.771,4.771,4.771,4.771,4.771,4.771,4.771,4.771,4.752,4.752,4.732,4.732,4.732,4.732,4.732,4.732,4.732,4.732,4.732,4.732,4.713,4.713,4.713,4.732,4.713,4.713,4.713,4.713,4.732,4.732,4.732,4.752,4.771,4.791,4.791,4.81,4.83,4.83,4.83,4.83,4.851,4.83,4.83,4.83,4.81,4.81,4.791,4.771,4.752,4.732,4.713,4.657,4.638,4.583,4.565,4.53,4.512,4.477,4.477,4.477,4.477,4.477,4.477,4.46,4.46,4.426,4.41,4.376,4.36,4.344,4.328,4.296,4.264,4.203,4.158,4.07,3.973,3.855,3.829,3.804,3.792,3.767,3.743,3.707,3.672,3.661,3.627,3.615,3.615,3.582,3.582,3.56,3.582,3.582,3.582,3.582,3.582,3.582,0.0,0.0,0.0,0.0,0.0,0.0,0.0,0.0,0.0,0.0,0.0,0.0,0.0,1.386,1.381,1.384,1.388,1.396,1.401,1.404,1.416,1.423,1.427,1.43,1.43,1.43,1.427,1.421,1.416,1.4007500000000002,1.383,1.38275,1.373,1.368,1.36,1.352,1.346,1.337,1.337,1.34,1.341,1.344,1.35,1.352,1.36,1.362,1.365,1.363,1.363,1.36,1.355,1.349,1.344,1.337,1.332,1.327,1.32,1.315,1.311,1.302,1.296,1.288,1.283,1.282,1.281,1.281,1.281,1.282,1.286,1.289,1.296,1.298,1.302,1.302,1.304,1.304,1.301,1.296,1.293,1.289,1.285,1.282,1.279,1.275,1.274,1.259,1.252,1.242,1.238,1.236,0.0,0.0,0.0,0.0,0.0,0.0,1.492,1.487,1.483,1.481,1.475,1.472,1.464,1.459,1.457,1.452,1.448,1.441,1.439,1.437,1.435,1.434,1.432,1.432,1.43,1.43,1.428,1.427,1.425,1.425,1.425,1.425,1.423,1.423,1.423,1.421,1.421,1.421,1.42,1.42,1.42,1.418,1.418,1.416,1.414,1.413,1.413,1.413,1.409,1.408,1.408,1.408,1.404,1.404,1.404,1.404,1.404,1.404,1.404,1.404,1.404,1.403,1.403,1.403,1.401,1.401,1.398,1.398,1.396,1.396,1.392,1.391,1.386,1.383,1.381,1.378,1.376,1.373,1.371,1.37,1.368,1.366,1.366,1.366,1.365,0.0,0.0,0.0,0.0,0.0,0.0,0.855,0.855,0.853,0.852,0.851,0.848,0.845,0.845,0.841,0.838,0.836,0.835,0.827,0.823,0.82,0.818,0.816,0.806,0.803,0.8,0.797,0.791,0.786,0.779,0.776,0.772,0.769,0.767,0.766,0.765,0.765,0.763,0.76,0.757,0.755,0.753,0.752,0.751,0.75,0.747,0.738,0.735,0.734,0.73,0.725,0.72,0.718,0.716,0.714,0.711,0.709,0.708,0.707,0.706,0.703,0.701,0.698,0.696,0.694,0.693,0.692,0.69,0.684,0.682,0.68,0.679,0.678,0.676,0.673,0.669,0.668,0.667,0.667,0.665,0.663,0.662,0.66,0.658,0.657,0.657,0.655,0.654,0.653,0.652,0.65,0.649,0.647,0.646,0.646,0.645,0.644,0.644,0.643,0.642,0.64,0.639,0.637,0.635,0.634,0.633,0.632,0.631,0.629,0.624,0.623,0.622,0.622,0.621,0.62,0.614,0.6114999999999999,0.609,0.603,0.601,0.597,0.594,0.592,0.592,0.591,0.589,0.584,0.583,0.582,0.581,0.579,0.576,0.574,0.573,0.571,0.568,0.565,0.564,0.563,0.562
4.694,4.694,4.694,4.694,4.694,4.694,4.694,4.694,4.694,4.713,4.713,4.713,4.732,4.732,4.732,4.732,4.732,4.713,4.713,4.694,4.694,4.657,4.657,4.657,4.657,4.657,4.657,4.657,4.638,4.638,4.638,4.638,4.583,4.583,4.565,4.53,4.53,4.512,4.46,4.46,4.41,4.393,4.376,4.344,4.328,4.312,4.296,4.28,4.233,4.203,4.158,4.128,4.085,4.028,3.987,3.946,3.92,3.906,3.893,3.868,3.855,3.829,3.767,3.707,3.661,3.593,3.549,3.528,3.538,3.56,3.615,3.696,3.767,3.817,3.868,3.92,3.987,4.056,4.07,4.114,4.173,4.203,4.233,4.264,4.28,4.296,4.312,4.328,4.36,4.376,4.426,4.46,4.477,4.512,4.53,4.565,4.565,4.583,4.601,4.601,4.638,4.638,4.638,4.601,4.601,4.601,4.601,4.583,4.583,4.583,4.583,4.583,4.583,4.565,4.565,4.565,4.565,4.53,4.53,4.53,4.53,4.53,4.565,4.565,4.565,4.565,4.565,4.565,4.583,4.583,4.583,4.583,4.583,4.601,4.601,4.657,4.657,4.694,4.713,4.713,4.732,4.752,4.752,4.752,4.752,4.752,4.752,4.752,4.771,4.771,4.771,4.771,4.752,4.752,4.732,4.732,4.732,4.732,4.713,4.732,4.732,4.732,4.732,4.713,4.713,4.713,4.713,4.713,4.713,4.713,4.713,4.713,4.713,4.694,4.694,4.713,4.713,4.713,4.732,4.752,4.771,4.791,4.81,4.81,4.83,4.83,4.83,4.83,4.81,4.81,4.81,4.791,4.771,4.752,4.732,4.713,4.657,4.601,4.583,4.565,4.53,4.53,4.512,4.512,4.477,4.512,4.512,4.512,4.477,4.477,4.46,4.426,4.393,4.376,4.36,4.328,4.312,4.264,4.218,4.158,4.085,3.906,3.855,3.829,3.817,3.792,3.767,3.731,3.696,3.672,3.649,3.615,3.593,3.582,3.56,3.56,3.56,3.56,3.56,3.56,3.56,3.56,0.0,0.0,0.0,0.0,0.0,0.0,0.0,0.0,0.0,0.0,0.0,0.0,0.0,0.0,0.0,1.371,1.373,1.374,1.376,1.3787500000000001,1.378,1.381,1.388,1.392,1.398,1.398,1.396,1.381,1.378,1.373,1.37,1.363,1.355,1.346,1.335,1.33,1.327,1.324,1.323,1.323,1.323,1.323,1.326,1.327,1.327,1.33,1.335,1.34,1.34,1.341,1.341,1.337,1.333,1.333,1.329,1.327,1.323,1.314,1.304,1.296,1.288,1.282,1.279,1.275,1.274,1.269,1.268,1.267,1.267,1.269,1.272,1.275,1.276,1.279,1.281,1.282,1.285,1.285,1.283,1.283,1.281,1.279,1.278,1.275,1.274,1.261,1.253,1.245,1.24,1.236,1.233,1.231,1.231,0.0,0.0,0.0,0.0,0.0,1.4595,1.475,1.47,1.464,1.459,1.453,1.448,1.439,1.437,1.434,1.432,1.43,1.43,1.427,1.427,1.425,1.423,1.423,1.421,1.42,1.418,1.416,1.414,1.414,1.413,1.413,1.409,1.409,1.408,1.408,1.408,1.408,1.408,1.408,1.408,1.408,1.408,1.404,1.403,1.403,1.401,1.401,1.398,1.398,1.398,1.392,1.396,1.396,1.396,1.396,1.392,1.392,1.392,1.392,1.396,1.396,1.396,1.392,1.392,1.396,1.392,1.392,1.391,1.386,1.384,1.383,1.379,1.378,1.376,1.371,1.37,1.366,1.362,1.355,1.355,1.35,0.0,0.0,0.0,0.0,0.0,0.0,0.0,0.0,0.855,0.855,0.853,0.852,0.851,0.849,0.847,0.844,0.841,0.838,0.836,0.83,0.826,0.822,0.819,0.817,0.815,0.803,0.8,0.796,0.79,0.785,0.781,0.776,0.773,0.77,0.768,0.767,0.766,0.765,0.764,0.763,0.76,0.758,0.756,0.754,0.753,0.752,0.751,0.749,0.741,0.736,0.734,0.731,0.725,0.72,0.718,0.716,0.713,0.71,0.709,0.707,0.706,0.706,0.702,0.7,0.697,0.695,0.694,0.693,0.691,0.686,0.683,0.681,0.68,0.678,0.676,0.673,0.669,0.668,0.667,0.666,0.664,0.662,0.66,0.658,0.657,0.657,0.655,0.654,0.653,0.65,0.648,0.647,0.646,0.645,0.644,0.644,0.643,0.641,0.64,0.639,0.637,0.635,0.634,0.634,0.633,0.632,0.631,0.63,0.626,0.624,0.623,0.622,0.622,0.621,0.62,0.619,0.614,0.612,0.611,0.608,0.604,0.602,0.598,0.596,0.593,0.592,0.592,0.59,0.585,0.583,0.582,0.58,0.578,0.575,0.573,0.571,0.569,0.566,0.565,0.564,0.563,0.562
4.713,4.713,4.713,4.713,4.713,4.713,4.713,4.713,4.732,4.732,4.732,4.732,4.732,4.752,4.752,4.732,4.732,4.732,4.713,4.694,4.694,4.657,4.657,4.657,4.657,4.657,4.657,4.694,4.657,4.694,4.694,4.694,4.657,4.657,4.638,4.638,4.601,4.583,4.565,4.53,4.512,4.477,4.426,4.426,4.393,4.36,4.328,4.328,4.28,4.28,4.264,4.249,4.233,4.203,4.173,4.128,4.114,4.07,4.056,4.014,3.973,3.906,3.868,3.804,3.743,3.661,3.593,3.549,3.549,3.56,3.593,3.661,3.731,3.792,3.829,3.88,3.946,4.028,4.085,4.1215,4.158,4.188,4.233,4.249,4.264,4.28,4.312,4.328,4.344,4.376,4.41,4.426,4.46,4.477,4.512,4.53,4.565,4.565,4.583,4.601,4.601,4.638,4.638,4.601,4.601,4.601,4.601,4.583,4.583,4.583,4.583,4.583,4.565,4.565,4.565,4.565,4.53,4.53,4.53,4.53,4.53,4.53,4.53,4.565,4.565,4.565,4.565,4.565,4.583,4.583,4.601,4.601,4.601,4.638,4.638,4.638,4.657,4.657,4.694,4.694,4.713,4.732,4.732,4.732,4.752,4.752,4.752,4.752,4.752,4.752,4.771,4.771,4.752,4.752,4.732,4.732,4.732,4.732,4.713,4.713,4.713,4.713,4.713,4.713,4.713,4.713,4.694,4.713,4.713,4.713,4.713,4.713,4.694,4.694,4.694,4.694,4.694,4.713,4.713,4.732,4.752,4.771,4.791,4.81,4.81,4.81,4.81,4.81,4.81,4.81,4.81,4.791,4.771,4.752,4.732,4.694,4.657,4.601,4.583,4.565,4.53,4.53,4.512,4.512,4.512,4.512,4.512,4.512,4.512,4.512,4.477,4.426,4.41,4.376,4.376,4.328,4.312,4.264,4.233,4.173,4.07,3.987,3.868,3.829,3.817,3.78,3.755,0.0,0.0,0.0,0.0,0.0,0.0,0.0,0.0,0.0,0.0,0.0,0.0,0.0,0.0,0.0,0.0,0.0,0.0,0.0,0.0,0.0,0.0,0.0,0.0,0.0,0.0,0.0,0.0,0.0,0.0,1.36,1.36,1.36,1.36,1.36,1.362,1.365,1.366,1.37,1.368,1.366,1.363,1.357,1.349,1.341,1.333,1.329,1.326,1.323,1.32,1.317,1.314,1.307,1.307,1.308,1.3085,1.311,1.314,1.317,1.317,1.32,1.321,1.323,1.326,1.326,1.326,1.326,1.326,1.326,1.324,1.317,1.308,1.298,1.288,1.281,1.276,1.274,1.268,1.261,1.249,1.244,1.241,1.241,1.242,1.244,1.248,1.2537500000000001,1.256,1.263,1.268,1.274,1.275,1.276,1.276,1.278,1.278,1.275,1.274,1.272,1.259,1.252,1.241,1.237,1.232,1.229,1.22,1.208,1.201,1.201,0.0,0.0,0.0,0.0,1.432,1.4425,1.453,1.453,1.448,1.443,1.435,1.432,1.43,1.428,1.427,1.425,1.423,1.421,1.418,1.414,1.413,1.409,1.408,1.404,1.403,1.401,1.398,1.398,1.396,1.392,1.392,1.392,1.392,1.392,1.392,1.392,1.392,1.396,1.396,1.396,1.396,1.396,1.392,1.392,1.392,1.388,1.391,1.388,1.388,1.388,1.388,1.388,1.388,1.388,1.386,1.388,1.388,1.391,1.391,1.391,1.392,1.391,1.391,1.392,1.392,1.388,1.386,1.384,1.381,1.378,1.376,1.373,1.371,1.368,1.362,0.0,0.0,1.204,0.0,0.0,0.0,0.0,0.0,0.0,0.0,0.0,0.0,0.854,0.854,0.854,0.853,0.852,0.85,0.847,0.845,0.842,0.838,0.836,0.835,0.828,0.823,0.82,0.819,0.816,0.811,0.801,0.798,0.791,0.786,0.78,0.777,0.771,0.77,0.768,0.767,0.766,0.766,0.765,0.764,0.763,0.76,0.759,0.757,0.754,0.753,0.752,0.751,0.749,0.747,0.737,0.734,0.732,0.727,0.72,0.718,0.716,0.712,0.71,0.708,0.707,0.706,0.703,0.7,0.698,0.696,0.694,0.693,0.692,0.69,0.685,0.682,0.68,0.679,0.677,0.674,0.669,0.668,0.667,0.665,0.663,0.661,0.659,0.657,0.656,0.655,0.655,0.653,0.651,0.649,0.646,0.645,0.644,0.644,0.643,0.64,0.638,0.637,0.635,0.634,0.633,0.633,0.632,0.632,0.631,0.629,0.626,0.624,0.623,0.622,0.622,0.621,0.62,0.619,0.617,0.616,0.613,0.612,0.611,0.61,0.608,0.604,0.602,0.599,0.597,0.595,0.593,0.592,0.591,0.585,0.583,0.582,0.58,0.577,0.574,0.572,0.57,0.567,0.566,0.565,0.564,0.563,0.562
4.732,4.732,4.732,4.732,4.732,4.732,4.732,4.732,4.752,4.752,4.752,4.752,4.752,4.752,4.752,4.732,4.732,4.713,4.713,4.694,4.657,4.657,4.657,4.657,4.657,4.694,4.694,4.694,4.694,4.713,4.713,4.713,4.713,4.694,4.694,4.694,4.657,4.638,4.638,4.601,4.583,4.53,4.512,4.477,4.46,4.426,4.41,4.376,4.36,4.344,4.328,4.312,4.296,4.28,4.264,4.264,4.249,4.233,4.203,4.173,4.128,4.056,3.946,3.829,3.804,3.731,3.649,3.593,3.582,3.582,3.593,3.649,3.707,3.78,3.817,3.868,3.933,4.014,4.07,4.114000000000001,4.158,4.188,4.233,4.249,4.264,4.28,4.296,4.312,4.328,4.36,4.393,4.41,4.426,4.46,4.477,4.512,4.53,4.565,4.583,4.583,4.601,4.601,4.601,4.601,4.601,4.601,4.583,4.583,4.583,4.583,4.565,4.565,4.565,4.565,4.565,4.53,4.512,4.512,4.512,4.512,4.512,4.512,4.53,4.53,4.565,4.565,4.565,4.583,4.601,4.601,4.601,4.601,4.638,4.638,4.638,4.638,4.657,4.657,4.694,4.694,4.713,4.713,4.713,4.732,4.732,4.732,4.752,4.752,4.752,4.752,4.771,4.771,4.752,4.752,4.732,4.732,4.732,4.713,4.713,4.713,4.713,4.713,4.713,4.713,4.713,4.694,4.694,4.713,4.713,4.694,4.694,4.694,4.694,4.694,4.694,4.657,4.657,4.713,4.713,4.732,4.752,4.752,4.771,4.81,4.81,4.81,4.81,4.81,4.81,4.791,4.791,4.771,4.732,4.713,4.694,4.657,4.638,4.601,4.583,4.565,4.53,4.53,4.53,4.53,4.53,4.53,4.53,4.53,4.53,4.512,4.477,4.426,4.426,4.393,4.376,4.344,4.312,2.624,2.6085,0.0,2.5260000000000002,2.4845,2.424,2.4045,0.0,0.0,0.0,0.0,0.0,0.0,0.0,0.0,0.0,0.0,0.0,0.0,0.0,0.0,0.0,0.0,0.0,0.0,0.0,0.0,0.0,0.0,0.0,0.0,0.0,0.0,0.0,0.0,0.0,0.0,0.0,0.0,0.0,1.335,1.332,1.332,1.329,1.327,1.327,1.327,1.327,1.327,1.327,1.327,1.326,1.323,1.32,1.304,1.304,1.301,1.298,1.296,1.296,1.293,1.292,1.289,1.289,1.289,1.292,1.293,1.296,1.298,1.301,1.304,1.311,1.314,1.3127499999999999,1.315,1.318,1.318,1.317,1.314,1.307,1.296,1.286,1.279,1.275,1.269,1.265,1.245,1.241,1.237,1.234,1.233,1.231,1.231,1.231,1.232,1.232,1.236,1.238,1.245,1.253,1.2575,1.263,1.267,1.267,1.268,1.267,1.257,1.252,1.244,1.237,1.233,1.231,1.224,1.215,1.208,1.194,1.19,1.185,1.179,0.0,0.0,0.0,0.0,0.0,0.0,1.439,1.443,1.441,1.432,1.432,1.428,1.425,1.423,1.42,1.414,1.409,1.404,1.403,1.398,1.396,1.392,1.391,1.388,1.386,1.388,1.386,1.384,1.383,1.383,1.383,1.383,1.383,1.383,1.383,1.383,1.384,1.384,1.386,1.386,1.388,1.386,1.386,1.386,1.386,1.384,1.384,1.386,1.384,1.384,1.386,1.384,1.386,1.384,1.384,1.384,1.386,1.386,1.386,1.386,1.386,1.386,1.386,1.386,1.386,1.384,1.383,1.379,1.378,1.376,1.373,1.37,0.0,0.0,0.0,0.0,0.0,1.053,0.0,0.0,0.0,0.0,0.0,0.0,0.0,0.0,0.0,0.8505,0.852,0.851,0.85,0.848,0.845,0.844,0.841,0.838,0.837,0.835,0.828,0.824,0.82,0.819,0.816,0.812,0.801,0.798,0.792,0.785,0.779,0.77525,0.772,0.768,0.767,0.767,0.766,0.766,0.765,0.765,0.764,0.763,0.761,0.759,0.757,0.755,0.754,0.753,0.751,0.75,0.747,0.738,0.735,0.733,0.728,0.72,0.718,0.716,0.712,0.709,0.708,0.706,0.706,0.702,0.699,0.697,0.695,0.693,0.693,0.691,0.689,0.684,0.682,0.68,0.679,0.678,0.674,0.669,0.668,0.666,0.663,0.661,0.659,0.657,0.656,0.655,0.654,0.653,0.65,0.648,0.646,0.645,0.644,0.643,0.639,0.636,0.635,0.634,0.633,0.632,0.631,0.63,0.629,0.627,0.625,0.623,0.623,0.622,0.622,0.621,0.62,0.619,0.617,0.616,0.614,0.612,0.612,0.611,0.611,0.609,0.607,0.605,0.603,0.602,0.601,0.598,0.596,0.593,0.592,0.591,0.586,0.583,0.582,0.5792499999999999,0.576,0.574,0.571,0.569,0.566,0.565,0.564,0.563,0.562,0.56
4.752,4.752,4.752,4.752,4.752,4.752,4.752,4.752,4.752,4.752,4.752,4.752,4.752,4.752,4.752,4.732,4.732,4.713,4.713,4.694,4.657,4.657,4.638,4.638,4.638,4.657,4.657,4.694,4.694,4.713,4.713,4.713,4.713,4.713,4.713,4.694,4.694,4.657,4.638,4.638,4.601,4.583,4.565,4.53,4.512,4.477,4.46,4.46,4.41,4.393,4.393,4.376,4.36,4.344,4.328,4.312,4.312,4.28,4.28,4.264,4.233,4.173,4.203,4.085,3.946,3.817,3.767,3.672,3.615,3.593,3.593,3.649,3.696,3.755,3.817,3.855,3.906,3.987,4.07,4.1065000000000005,4.128,4.188,4.233,4.264,4.28,4.28,4.296,4.312,4.328,4.344,4.36,4.393,4.41,4.426,4.46,4.477,4.512,4.53,4.565,4.583,4.583,4.601,4.601,4.601,4.601,4.601,4.583,4.583,4.565,4.565,4.565,4.565,4.53,4.53,4.512,4.512,4.512,4.512,4.512,4.512,4.512,4.512,4.512,4.53,4.53,4.565,4.565,4.583,4.601,4.601,4.638,4.638,4.657,4.657,4.657,4.657,4.694,4.694,4.694,4.694,4.694,4.713,4.713,4.713,4.732,4.732,4.752,4.752,4.752,4.752,4.752,4.752,4.752,4.752,4.732,4.713,4.732,4.713,4.713,4.713,4.713,4.713,4.713,4.713,4.694,4.694,4.657,4.694,4.694,4.694,4.657,4.657,4.657,4.657,4.657,4.657,4.657,4.694,4.694,4.732,4.752,4.752,4.771,4.791,4.791,4.791,4.81,4.81,4.791,4.791,4.771,4.752,4.732,4.713,4.657,4.638,4.601,0.0,0.0,0.0,0.0,2.7385,2.74,2.7435,2.747,2.749,2.30575,0.973,0.977,0.98,0.984,0.984,0.985,0.986,0.986,0.985,0.985,0.984,0.984,0.983,0.982,0.982,0.98,0.98,0.0,0.0,0.0,0.0,0.0,0.0,0.0,0.0,0.0,0.0,0.0,0.0,0.0,0.0,0.0,0.0,0.0,0.0,0.0,0.0,0.0,0.0,0.0,0.0,0.0,0.0,0.0,0.0,0.0,0.0,0.0,0.0,0.0,1.323,1.321,1.318,1.315,1.312,1.308,1.307,1.298,1.301,1.296,1.293,1.292,1.288,1.286,1.286,1.285,1.285,1.282,1.282,1.282,1.282,1.281,1.281,1.281,1.281,1.281,1.281,1.281,1.282,1.283,1.285,1.288,1.292,1.296,1.298,1.298,1.298,1.296,1.289,1.282,1.278,1.274,1.267,1.245,1.241,1.237,1.233,1.231,1.228,1.224,1.219,1.215,1.214,1.215,1.216,1.216,1.223,1.228,1.232,1.236,1.24,1.242,1.244,1.241,1.241,1.238,1.236,1.233,1.231,1.224,1.216,1.21,1.203,1.194,1.19,1.184,1.175,1.163,1.157,0.0,0.0,0.0,0.0,0.0,0.0,0.0,1.434,1.432,1.428,1.427,1.425,1.42,1.414,1.408,1.403,1.396,1.388,1.386,1.384,1.379,1.379,1.378,1.378,1.378,1.378,1.378,1.376,1.376,1.376,1.376,1.376,1.376,1.378,1.378,1.378,1.378,1.379,1.381,1.383,1.384,1.383,1.383,1.384,1.383,1.383,1.383,1.383,1.381,1.381,1.383,1.381,1.381,1.381,1.383,1.381,1.381,1.381,1.381,1.383,1.383,1.383,1.383,1.383,1.383,1.381,0.0,0.0,0.0,0.0,0.0,0.0,0.0,0.0,0.0,0.0,0.0,1.053,0.0,0.0,0.0,0.0,0.0,0.0,0.0,0.0,0.0,0.847,0.847,0.847,0.845,0.845,0.842,0.84,0.838,0.836,0.835,0.828,0.823,0.82,0.819,0.817,0.815,0.802,0.799,0.0,0.787,0.778,0.773,0.77,0.768,0.766,0.766,0.766,0.766,0.765,0.765,0.765,0.764,0.763,0.761,0.76,0.757,0.756,0.754,0.753,0.752,0.75,0.748,0.738,0.735,0.733,0.728,0.72,0.719,0.716,0.712,0.709,0.707,0.706,0.705,0.701,0.699,0.696,0.695,0.693,0.693,0.691,0.688,0.684,0.682,0.68,0.679,0.678,0.675,0.672,0.668,0.666,0.662,0.66,0.658,0.656,0.655,0.655,0.652,0.65,0.648,0.646,0.645,0.644,0.642,0.638,0.635,0.634,0.633,0.632,0.631,0.629,0.628,0.624,0.623,0.622,0.622,0.622,0.621,0.62,0.619,0.617,0.616,0.614,0.613,0.611,0.611,0.61,0.609,0.608,0.607,0.605,0.603,0.602,0.601,0.601,0.599,0.597,0.595,0.593,0.592,0.591,0.586,0.583,0.581,0.579,0.575,0.572,0.57,0.568,0.566,0.564,0.564,0.563,0.562,0.56
4.771,4.771,4.791,4.771,4.771,4.771,4.771,4.771,4.771,4.771,4.771,4.771,4.752,4.752,4.752,4.732,4.732,4.713,4.713,4.694,4.657,4.638,4.638,4.638,4.638,4.657,4.657,4.657,4.694,4.694,4.713,4.713,4.713,4.713,4.713,4.694,4.694,4.657,4.657,4.638,4.638,4.601,4.583,4.565,4.53,4.512,4.512,4.477,4.46,4.426,4.426,4.426,4.426,4.41,4.393,4.376,4.36,4.393,4.376,4.344,4.328,4.312,4.264,4.173,4.028,3.855,3.804,3.731,3.661,3.627,3.593,3.627,3.672,3.743,3.804,3.829,3.868,3.933,4.028,4.114,4.1434999999999995,4.173,4.233,4.249,4.264,4.28,4.312,4.312,4.328,4.328,4.36,4.376,4.393,4.426,4.46,4.477,4.512,4.53,4.565,4.583,4.583,4.601,4.601,4.601,4.601,4.601,4.583,4.583,4.565,4.565,4.53,4.53,4.512,4.512,4.512,4.512,4.512,4.477,4.477,4.477,4.512,4.512,4.512,4.512,4.53,4.565,4.565,4.601,4.601,4.638,4.657,4.657,4.657,4.694,4.694,4.694,4.694,4.694,4.694,4.694,4.694,4.694,4.694,4.713,4.713,4.732,4.732,4.752,4.752,4.752,4.752,4.752,4.732,4.732,4.732,4.732,4.732,4.732,4.713,4.732,4.732,4.713,4.713,4.713,4.694,4.694,4.694,4.694,4.694,4.694,4.657,4.657,4.657,4.657,4.657,4.657,4.657,4.657,4.694,4.713,4.713,4.732,4.752,4.771,4.771,4.791,4.791,4.771,4.752,0.0,0.0,0.0,0.0,0.0,0.0,0.0,2.773,0.0,0.0,0.0,0.0,0.947,0.95,0.957,0.964,0.968,0.971,0.973,0.977,0.982,0.982,0.984,0.984,0.985,0.985,0.985,0.984,0.982,0.982,0.982,0.982,0.982,0.982,0.98,0.0,0.0,0.0,0.0,0.0,0.0,0.0,0.0,0.0,0.0,0.0,0.0,0.0,0.0,0.0,0.0,0.0,0.0,0.0,0.0,0.0,0.0,0.0,0.0,0.0,0.0,0.0,0.0,0.0,0.0,0.0,0.0,0.0,0.0,0.0,1.283,1.281,1.278,1.275,1.274,1.272,1.271,1.271,1.271,1.274,1.274,1.275,1.276,1.279,1.279,1.281,1.281,1.281,1.281,1.281,1.281,1.281,1.281,1.281,1.281,1.281,1.279,1.279,1.279,1.278,1.276,1.275,1.274,1.271,1.265,1.259,1.241,1.269,1.259,1.229,1.224,1.233,1.232,1.227,1.223,1.216,1.21,1.206,1.201,1.198,1.196,1.196,1.196,1.198,1.199,1.203,1.21,1.216,1.223,1.227,1.225,1.225,1.225,1.223,1.219,1.214,1.208,1.2,1.193,1.192,1.188,1.181,1.175,1.164,1.158,1.155,1.14,0.0,0.0,0.0,0.0,0.0,0.0,0.0,1.43,1.428,1.425,1.425,1.42,1.413,1.404,1.3964999999999999,1.388,1.384,1.381,1.378,1.376,1.376,1.374,1.373,1.373,1.373,1.373,1.373,1.371,1.373,1.373,1.373,1.373,1.373,1.374,1.3752499999999999,1.376,1.3769999999999998,1.378,1.379,1.379,1.379,1.379,1.379,1.379,1.379,1.379,1.379,1.379,1.379,1.379,1.379,1.379,1.379,1.379,1.378,1.378,1.378,1.378,1.378,1.379,0.0,0.0,0.0,0.0,0.0,0.0,0.0,0.0,0.0,0.0,0.0,0.0,0.0,0.0,0.0,0.0,0.0,1.053,0.0,0.0,0.0,0.0,0.0,0.0,0.0,0.0,0.0,0.843,0.843,0.842,0.841,0.841,0.839,0.838,0.836,0.835,0.828,0.823,0.82,0.818,0.817,0.816,0.803,0.8,0.0,0.0,0.782,0.774,0.768,0.767,0.767,0.766,0.766,0.765,0.765,0.765,0.765,0.765,0.764,0.763,0.762,0.76,0.758,0.757,0.755,0.753,0.752,0.75,0.748,0.739,0.735,0.734,0.729,0.724,0.719,0.716,0.713,0.709,0.708,0.706,0.705,0.702,0.699,0.696,0.695,0.693,0.692,0.691,0.688,0.684,0.682,0.68,0.68,0.678,0.675,0.672,0.668,0.666,0.662,0.66,0.657,0.656,0.655,0.653,0.65,0.648,0.647,0.645,0.644,0.643,0.641,0.636,0.634,0.633,0.632,0.631,0.629,0.627,0.624,0.623,0.622,0.622,0.621,0.62,0.619,0.617,0.616,0.614,0.613,0.611,0.611,0.61,0.609,0.608,0.606,0.604,0.603,0.602,0.601,0.601,0.599,0.598,0.596,0.595,0.593,0.592,0.592,0.59,0.584,0.583,0.581,0.579,0.575,0.571,0.569,0.566,0.565,0.564,0.563,0.563,0.56,0.56
4.791,4.791,4.791,4.791,4.791,4.791,4.791,4.791,4.791,4.771,4.771,4.752,4.752,4.752,4.732,4.732,4.732,4.713,4.713,4.694,4.657,4.638,4.638,4.638,4.638,4.638,4.657,4.657,4.657,4.694,4.694,4.694,4.694,4.713,4.694,4.694,4.694,4.657,4.638,4.638,4.638,4.601,4.583,4.565,4.565,4.53,4.512,4.477,4.477,4.46,4.46,4.477,4.477,4.477,4.477,4.477,4.46,4.46,4.41,4.393,4.36,4.328,4.296,4.233,4.114,3.868,3.829,3.78,3.696,3.649,3.615,3.649,3.672,3.731,3.78,3.817,3.855,3.893,3.973,4.07,4.1213750000000005,4.158,4.203,4.249,4.264,4.28,4.296,4.312,4.328,4.328,4.344,4.376,4.393,4.41,4.426,4.46,4.477,4.512,4.53,4.583,4.583,4.601,4.601,4.601,4.601,4.601,4.583,4.583,4.565,4.565,4.53,4.512,4.512,4.512,4.512,4.477,4.512,4.477,4.477,4.512,4.512,4.512,4.512,4.53,4.565,4.565,4.583,4.601,4.601,4.657,4.657,4.694,4.694,4.694,4.694,4.694,4.694,4.694,4.694,4.694,4.694,4.694,4.694,4.694,4.713,4.713,4.732,4.732,4.752,4.752,4.752,4.752,4.752,4.732,4.732,4.732,4.732,4.713,4.694,4.713,4.713,4.713,4.713,4.713,4.713,0.0,0.0,0.0,0.0,0.0,0.0,4.657,4.657,4.657,4.657,4.657,4.657,4.694,4.694,4.713,4.732,4.732,4.752,0.0,0.0,0.0,0.0,0.0,0.0,0.0,0.0,0.0,0.0,0.0,0.0,0.0,0.945,0.945,0.945,0.946,0.946,0.949,0.952,0.959,0.965,0.969,0.972,0.974,0.979,0.982,0.984,0.985,0.985,0.986,0.986,0.985,0.985,0.984,0.984,0.982,0.982,0.982,0.982,0.98,0.98,0.979,0.977,0.0,0.0,0.0,0.0,0.0,0.0,0.0,0.0,0.0,0.0,0.0,0.0,0.0,0.0,0.0,0.0,0.0,0.0,0.0,0.0,0.0,0.0,0.0,0.0,0.0,0.0,0.0,0.0,0.0,0.0,0.0,0.0,1.275,1.274,1.271,1.268,1.265,1.261,1.259,1.259,1.263,1.267,1.269,1.272,1.275,1.276,1.278,1.279,1.281,1.281,1.281,1.281,1.281,1.281,1.281,1.281,1.281,1.279,1.279,1.278,1.276,1.275,1.274,1.271,1.263,1.242,1.236,1.232,1.228,1.219,1.211,1.206,1.2,1.198,1.196,1.194,1.193,1.192,1.19,1.184,1.183,1.177,1.19,1.19,1.187,1.182,1.188,1.1835,1.19,1.192,1.194,1.195,1.196,1.196,1.196,1.196,1.195,1.192,1.188,1.183,1.177,1.1727500000000002,1.165,1.162,1.158,1.154,1.151,1.138,1.128,1.123,0.0,0.0,0.0,0.0,0.0,0.0,0.0,1.425,1.423,1.421,1.414,1.408,1.396,1.386,1.381,1.378,1.376,1.374,1.371,1.371,1.37,1.37,1.37,1.368,1.368,1.368,1.37,1.37,1.37,1.37,1.371,1.371,1.373,1.373,1.374,1.376,1.376,1.378,1.378,1.378,1.378,1.378,1.378,1.378,1.378,1.378,1.378,0.0,0.0,0.0,0.0,0.0,1.376,1.376,0.0,0.0,0.0,0.0,0.0,0.0,0.0,0.0,0.0,0.0,0.0,0.0,0.0,0.0,0.0,0.0,0.0,0.0,0.0,0.0,0.0,0.0,1.053,0.0,0.0,0.0,0.0,0.0,0.0,0.0,0.0,0.84,0.839,0.84,0.839,0.839,0.838,0.836,0.836,0.834,0.827,0.822,0.82,0.818,0.816,0.815,0.813,0.801,0.796,0.0,0.0,0.772,0.768,0.766,0.766,0.766,0.765,0.765,0.765,0.765,0.765,0.765,0.765,0.764,0.763,0.762,0.76,0.759,0.757,0.755,0.753,0.752,0.75,0.748,0.739,0.736,0.734,0.73,0.724,0.719,0.717,0.714,0.71,0.708,0.706,0.706,0.702,0.7,0.698,0.695,0.694,0.693,0.691,0.689,0.684,0.682,0.681,0.68,0.678,0.675,0.672,0.667,0.666,0.662,0.659,0.657,0.655,0.655,0.651,0.649,0.647,0.646,0.644,0.644,0.642,0.637,0.635,0.633,0.632,0.631,0.629,0.627,0.625,0.623,0.622,0.622,0.621,0.62,0.618,0.617,0.615,0.614,0.613,0.611,0.61,0.609,0.608,0.606,0.604,0.603,0.602,0.601,0.601,0.6,0.598,0.596,0.594,0.593,0.592,0.592,0.591,0.59,0.589,0.584,0.582,0.58,0.577,0.574,0.571,0.568,0.566,0.565,0.564,0.563,0.562,0.559,0.559
4.791,4.791,4.791,4.81,4.791,4.791,4.791,4.771,4.771,4.771,4.752,4.752,4.732,4.732,4.732,4.732,4.713,4.713,4.694,4.694,4.657,4.657,4.638,4.638,4.638,4.638,4.638,4.657,4.657,4.657,4.657,4.694,4.694,4.694,4.694,4.694,4.657,4.657,4.638,4.638,4.601,4.601,4.583,4.565,4.565,4.53,4.53,4.512,4.512,4.477,4.477,4.477,4.512,4.512,4.512,4.512,4.512,4.477,4.46,4.426,4.41,4.36,4.312,4.264,4.173,4.0024999999999995,3.855,3.804,3.743,3.696,3.649,3.649,3.661,3.707,3.755,3.804,3.829,3.868,3.92,4.014,4.114,4.147,4.188,4.233,4.249,4.28,4.28,4.296,4.312,4.328,4.344,4.36,4.393,4.41,4.426,4.46,4.4815000000000005,4.512,4.53,4.565,4.565,4.601,4.601,4.601,4.601,4.583,4.583,4.583,4.565,4.53,4.53,4.53,4.512,4.512,4.512,4.512,4.512,4.512,4.477,4.477,4.512,4.512,4.512,4.53,4.565,4.565,4.601,4.601,4.638,4.657,4.657,4.694,4.713,4.713,4.713,4.694,4.694,4.694,4.694,4.694,4.694,4.657,4.694,4.694,4.694,4.713,4.713,4.732,4.732,4.752,4.752,4.752,4.752,4.752,4.752,4.732,4.732,4.732,4.732,0.0,0.0,0.0,0.0,0.0,0.0,0.0,0.0,0.0,0.0,0.0,0.0,2.801,0.944,0.945,0.945,0.945,0.946,0.946,0.946,0.946,0.946,0.947,0.947,0.0,0.0,0.0,0.0,0.0,0.0,0.0,0.0,0.0,0.0,0.0,0.947,0.946,0.946,0.946,0.946,0.946,0.948,0.951,0.957,0.964,0.968,0.97,0.973,0.976,0.982,0.984,0.984,0.985,0.986,0.986,0.986,0.985,0.985,0.985,0.984,0.982,0.982,0.982,0.982,0.98,0.979,0.979,0.977,0.977,0.0,0.0,0.0,0.0,0.0,0.0,0.0,0.0,0.0,0.0,0.0,0.0,0.0,0.0,0.0,0.0,0.0,0.0,0.0,0.0,0.0,0.0,0.0,0.0,0.0,0.0,0.0,0.0,0.0,0.0,0.0,1.272,1.265,1.257,1.253,1.248,1.244,1.242,1.242,1.244,1.249,1.256,1.261,1.268,1.274,1.275,1.278,1.279,1.281,1.281,1.281,1.281,1.281,1.281,1.281,1.281,1.279,1.278,1.276,1.276,1.274,1.268,1.259,1.236,1.232,1.22,1.21,1.201,1.195,1.193,1.19,1.189,1.185,1.187,1.183,1.179,1.176,1.175,1.171,1.165,1.162,1.158,1.157,1.156,1.155,1.153,1.153,1.154,1.172,1.176,1.176,1.177,1.173,1.179,1.179,1.175,1.169,1.164,1.161,1.158,1.157,1.155,1.153,1.149,1.138,1.131,1.126,1.123,1.119,1.117,1.112,1.108,1.104,0.0,0.0,0.0,0.0,0.0,0.0,0.0,1.401,1.386,1.379,1.376,1.373,1.371,1.37,1.366,1.365,1.365,1.363,1.362,1.362,1.363,1.363,1.363,1.365,1.366,1.368,1.37,1.37,1.371,1.371,1.371,1.373,1.373,1.374,1.376,1.376,1.376,1.376,1.376,1.376,0.0,0.0,0.0,0.0,0.0,0.0,0.0,0.0,0.0,0.0,0.0,0.0,0.0,0.0,0.0,0.0,0.0,0.0,0.0,0.0,0.0,0.0,0.0,0.0,0.0,0.0,0.0,0.0,0.0,0.0,0.0,0.0,1.054,0.0,0.0,0.0,0.0,0.0,0.0,0.0,0.838,0.838,0.838,0.838,0.837,0.836,0.836,0.835,0.832,0.824,0.822,0.819,0.818,0.816,0.813,0.81,0.801,0.798,0.792,0.784,0.774,0.767,0.765,0.765,0.765,0.765,0.764,0.765,0.765,0.765,0.765,0.765,0.765,0.764,0.763,0.762,0.76,0.759,0.757,0.755,0.753,0.752,0.75,0.748,0.74,0.736,0.734,0.731,0.725,0.72,0.718,0.714,0.711,0.708,0.707,0.706,0.705,0.7,0.699,0.696,0.694,0.693,0.692,0.69,0.688,0.683,0.681,0.68,0.678,0.675,0.672,0.667,0.666,0.662,0.658,0.657,0.655,0.654,0.65,0.648,0.646,0.645,0.644,0.643,0.641,0.636,0.634,0.633,0.632,0.63,0.628,0.626,0.623,0.622,0.622,0.621,0.62,0.618,0.616,0.615,0.614,0.612,0.612,0.61,0.608,0.607,0.605,0.603,0.602,0.601,0.601,0.599,0.597,0.595,0.594,0.593,0.592,0.592,0.591,0.59,0.589,0.587,0.584,0.582,0.581,0.579,0.575,0.572,0.57,0.566,0.565,0.564,0.563,0.562,0.56,0.559,0.559
4.771,4.771,4.791,4.791,4.771,4.771,4.771,4.771,4.752,4.732,4.713,4.713,4.713,4.713,4.694,4.694,4.694,4.694,4.694,4.657,4.657,4.657,4.638,4.638,4.638,4.638,4.638,4.638,4.657,4.657,4.657,4.657,4.657,4.657,4.657,4.638,4.638,4.638,4.601,4.601,4.601,4.583,4.583,4.565,4.565,4.53,4.53,4.512,4.512,4.512,4.512,4.512,4.512,4.512,4.512,4.512,4.53,4.477,4.477,4.46,4.426,4.393,4.344,4.28,4.233,4.114,3.88,3.829,3.792,3.743,3.672,3.661,3.661,3.696,3.731,3.767,3.804,3.829,3.868,3.933,4.028,4.128,4.203,4.2219999999999995,4.249,4.264,4.28,4.28,4.296,4.312,4.328,4.328,4.344,4.376,4.41,4.426,4.477,4.512,4.53,4.565,4.583,4.583,4.601,4.601,4.583,4.583,4.565,4.565,4.565,4.53,4.53,4.53,4.512,4.512,4.512,4.512,4.512,4.477,4.477,4.477,4.477,4.512,4.512,4.53,4.565,4.565,4.601,4.601,4.638,4.657,4.694,4.713,4.713,4.713,4.713,4.694,4.694,4.694,4.694,4.694,4.694,4.657,4.657,4.694,4.694,4.694,4.713,4.732,4.732,4.752,4.752,4.752,4.752,4.752,4.732,4.713,4.713,0.0,0.0,0.0,0.0,0.0,0.0,0.0,0.0,0.0,0.0,0.0,0.0,0.0,0.0,0.945,0.945,0.946,0.945,0.945,0.946,0.946,0.946,0.946,0.947,0.947,0.948,0.949,0.95,0.95,0.95,0.952,0.952,0.952,0.953,0.953,0.951,0.951,0.95,0.95,0.949,0.948,0.948,0.95,0.952,0.957,0.961,0.967,0.969,0.972,0.975,0.979,0.982,0.985,0.986,0.986,0.986,0.987,0.986,0.986,0.986,0.985,0.985,0.985,0.984,0.984,0.982,0.982,0.982,0.98,0.977,0.977,0.0,0.0,0.0,0.0,0.0,0.0,0.0,0.0,0.0,0.0,0.0,0.0,0.0,0.0,0.0,0.0,0.0,0.0,0.0,0.0,0.0,0.0,0.0,0.0,0.0,0.0,0.0,0.0,0.0,0.0,0.0,0.0,0.0,1.245,1.24,1.237,1.236,1.234,1.233,1.234,1.236,1.24,1.248,1.256,1.265,1.272,1.275,1.278,1.279,1.281,1.281,1.281,1.281,1.281,1.281,1.281,1.279,1.279,1.276,1.275,1.274,1.265,1.237,1.231,1.219,1.203,1.195,1.192,1.188,1.179,1.176,1.171,1.171,1.169,1.165,1.164,1.163,1.162,1.158,1.157,1.154,1.153,1.151,1.148,1.146,1.14,1.139,1.14,1.14,1.142,1.144,1.142,1.14,1.142,1.157,1.156,1.155,1.153,1.15,1.148,1.146,1.14,1.132,1.128,1.126,1.123,1.122,1.118,1.117,1.113,1.109,1.104,1.101,1.1,1.098,0.0,0.0,0.0,0.0,0.0,0.0,1.379,1.376,1.373,1.37,1.368,1.363,1.362,1.355,1.355,1.355,1.352,1.355,1.357,1.357,1.36,1.36,1.362,1.365,1.366,1.366,1.368,1.37,1.37,1.371,1.373,1.373,1.374,0.0,0.0,0.0,0.0,0.0,0.0,0.0,0.0,0.0,0.0,0.0,0.0,0.0,0.0,0.0,0.0,0.0,0.0,0.0,0.0,0.0,0.0,0.0,0.0,0.0,0.0,0.0,0.0,0.0,0.0,0.0,0.0,0.0,0.0,0.0,0.0,0.0,0.0,0.0,0.0,0.838,0.838,0.838,0.838,0.838,0.838,0.837,0.836,0.836,0.836,0.835,0.833,0.83,0.822,0.82,0.819,0.817,0.815,0.813,0.808,0.805,0.798,0.7925,0.78375,0.775,0.768,0.765,0.764,0.764,0.763,0.764,0.765,0.765,0.765,0.765,0.765,0.765,0.765,0.764,0.763,0.762,0.76,0.758,0.757,0.755,0.753,0.752,0.75,0.748,0.74,0.737,0.734,0.732,0.726,0.72,0.718,0.715,0.712,0.709,0.707,0.706,0.705,0.702,0.699,0.697,0.695,0.693,0.693,0.691,0.689,0.684,0.682,0.68,0.679,0.676,0.672,0.667,0.665,0.662,0.658,0.657,0.655,0.652,0.65,0.647,0.645,0.644,0.644,0.642,0.64,0.635,0.633,0.632,0.631,0.629,0.627,0.625,0.622,0.622,0.621,0.62,0.618,0.616,0.615,0.613,0.612,0.611,0.61,0.608,0.606,0.604,0.603,0.602,0.601,0.6,0.597,0.595,0.593,0.592,0.592,0.591,0.591,0.589,0.588,0.587,0.584,0.583,0.582,0.581,0.58,0.577,0.574,0.571,0.569,0.566,0.565,0.564,0.563,0.562,0.559,0.558,0.558
4.752,4.771,4.771,4.771,4.752,4.752,4.752,4.732,4.713,4.713,4.694,4.657,4.657,4.657,4.657,4.657,4.657,4.694,4.694,4.657,4.657,4.657,4.657,4.657,4.657,4.657,4.638,4.638,4.638,4.638,4.638,4.638,4.657,4.657,4.638,4.638,4.601,4.601,4.601,4.601,4.583,4.583,4.565,4.565,4.53,4.53,4.53,4.512,4.512,4.477,4.477,4.512,4.512,4.53,4.53,4.53,4.53,4.512,4.512,4.477,4.46,4.41,4.36,4.312,4.264,4.188,4.056,3.868,3.817,3.78,3.731,3.672,3.672,3.672,3.707,3.743,3.78,3.817,3.855,3.88,3.973,4.07,4.158,4.203,4.249,4.249,4.264,4.28,4.28,4.296,4.312,4.328,4.328,4.36,4.393,4.426,4.477,4.512,4.53,4.53,4.565,4.565,4.583,4.583,4.583,4.583,4.565,4.565,4.565,4.53,4.53,4.512,4.512,4.512,4.477,4.477,4.477,4.477,4.477,4.477,4.477,4.512,4.512,4.53,4.565,4.583,4.583,4.601,4.638,4.657,4.694,4.694,4.694,4.713,4.694,4.694,4.694,4.694,4.694,4.694,4.694,4.694,4.657,4.694,4.694,4.713,4.732,4.732,4.732,4.752,4.752,0.0,0.0,0.0,0.0,2.8305,2.83,0.0,0.0,0.0,0.0,0.0,0.943,0.943,0.943,0.943,0.944,0.943,0.944,0.944,0.945,0.945,0.945,0.946,0.946,0.946,0.946,0.946,0.947,0.947,0.948,0.949,0.949,0.95,0.95,0.952,0.952,0.953,0.954,0.956,0.956,0.956,0.954,0.954,0.954,0.954,0.953,0.953,0.953,0.954,0.958,0.962,0.966,0.968,0.97,0.973,0.976,0.979,0.982,0.985,0.985,0.985,0.986,0.985,0.985,0.985,0.985,0.985,0.984,0.984,0.984,0.982,0.982,0.982,0.982,0.98,0.979,0.979,0.977,0.0,0.0,0.0,0.0,0.0,0.0,0.0,0.0,0.0,0.0,0.0,0.0,0.0,0.0,0.0,0.0,0.0,0.0,0.0,0.0,0.0,0.0,0.0,0.0,0.0,0.0,0.0,0.0,0.0,0.0,0.0,0.0,1.241,1.234,1.229,1.227,1.227,1.227,1.229,1.232,1.234,1.236,1.24,1.252,1.261,1.271,1.275,1.279,1.281,1.281,1.281,1.281,1.282,1.282,1.281,1.279,1.279,1.276,1.275,1.274,1.263,1.234,1.225,1.208,1.195,1.19,1.179,1.172,1.168,1.164,1.162,1.161,1.158,1.158,1.157,1.156,1.155,1.153,1.15,1.146,1.14,1.138,1.132,1.127,1.126,1.126,1.125,1.126,1.127,1.126,1.125,1.125,1.124,1.125,1.124,1.123,1.122,1.122,1.128,1.126,1.124,1.123,1.122,1.119,1.118,1.117,1.115,1.113,1.111,1.106,1.101,1.097,1.092,1.088,1.085,0.0,0.0,0.0,0.0,0.0,0.0,0.0,1.37,1.365,1.362,1.355,1.352,1.35,1.35,1.35,1.35,1.35,1.35,1.352,1.355,1.355,1.357,1.362,1.365,1.365,1.366,1.1840000000000002,0.0,0.0,0.0,0.0,0.0,0.0,0.0,0.0,0.0,0.0,0.0,0.0,0.0,0.0,0.0,0.0,0.0,0.0,0.0,0.0,0.0,0.0,0.0,0.0,0.0,0.0,0.0,0.0,0.0,0.0,0.0,0.0,0.0,0.0,0.0,0.0,0.0,0.0,0.0,0.0,0.0,0.0,0.0,0.0,0.0,0.835,0.8352499999999999,0.836,0.836,0.836,0.836,0.835,0.835,0.833,0.833,0.83,0.824,0.82,0.819,0.817,0.816,0.813,0.81,0.807,0.803,0.799,0.795,0.787,0.7809375000000001,0.772,0.767,0.765,0.764,0.764,0.764,0.765,0.765,0.765,0.765,0.765,0.765,0.765,0.764,0.764,0.763,0.762,0.759,0.757,0.756,0.754,0.753,0.751,0.75,0.748,0.74,0.737,0.735,0.732,0.727,0.72,0.719,0.716,0.712,0.709,0.707,0.706,0.706,0.702,0.7,0.698,0.695,0.694,0.693,0.692,0.69,0.687,0.682,0.68,0.679,0.676,0.672,0.668,0.666,0.662,0.658,0.656,0.655,0.651,0.649,0.646,0.645,0.644,0.643,0.642,0.637,0.634,0.633,0.632,0.631,0.629,0.626,0.624,0.622,0.621,0.62,0.618,0.617,0.615,0.613,0.612,0.611,0.61,0.608,0.606,0.603,0.602,0.601,0.601,0.599,0.595,0.593,0.592,0.592,0.591,0.59,0.589,0.587,0.584,0.584,0.583,0.582,0.582,0.581,0.579,0.576,0.574,0.572,0.57,0.567,0.565,0.564,0.563,0.562,0.559,0.558,0.558,0.558
4.732,4.732,4.732,4.713,4.713,4.694,4.657,4.657,4.638,4.601,4.583,4.583,4.583,4.583,4.583,4.601,4.638,4.638,4.657,4.657,4.694,4.694,4.694,4.657,4.657,4.657,4.657,4.657,4.657,4.638,4.638,4.638,4.638,4.638,4.638,4.601,4.601,4.601,4.601,4.583,4.583,4.583,4.565,4.53,4.53,4.53,4.512,4.512,4.477,4.477,4.512,4.512,4.512,4.53,4.53,4.53,4.53,4.53,4.512,4.512,4.46,4.426,4.393,4.328,4.28,4.233,4.128,3.893,3.842,3.804,3.755,3.707,3.696,3.672,3.707,3.731,3.767,3.804,3.829,3.868,3.92,4.014,4.114,4.173,4.218,4.249,4.264,4.28,4.28,4.296,4.312,4.312,4.328,4.344,4.376,4.41,4.426,4.477,4.512,4.53,4.53,4.565,4.565,4.565,4.565,4.565,4.565,4.565,4.565,4.53,4.512,4.512,4.512,4.512,4.477,4.477,4.477,4.477,4.477,4.477,4.512,4.512,4.53,4.53,4.565,4.583,4.601,4.638,4.638,4.657,4.694,4.694,4.694,4.694,4.694,4.694,4.694,4.694,4.694,4.694,4.694,4.694,4.694,4.694,0.0,0.0,0.0,0.0,0.0,0.0,0.0,0.0,0.0,0.0,0.0,0.948,0.947,0.947,0.946,0.946,0.946,0.945,0.944,0.944,0.943,0.944,0.944,0.944,0.944,0.945,0.945,0.945,0.946,0.946,0.946,0.946,0.946,0.947,0.947,0.948,0.949,0.95,0.95,0.951,0.952,0.953,0.954,0.957,0.958,0.958,0.959,0.958,0.958,0.958,0.957,0.958,0.957,0.957,0.957,0.959,0.962,0.966,0.968,0.97,0.973,0.975,0.977,0.982,0.985,0.986,0.986,0.986,0.986,0.986,0.986,0.986,0.985,0.985,0.985,0.985,0.985,0.985,0.984,0.984,0.982,0.982,0.98,0.982,0.982,0.98,0.979,0.979,0.0,0.0,0.0,0.0,0.0,0.0,0.0,0.0,0.0,0.0,0.0,0.0,0.0,0.0,0.0,0.0,0.0,0.0,0.0,0.0,0.0,0.0,0.0,0.0,0.0,0.0,0.0,0.0,0.0,0.0,1.227,1.223,1.215,1.214,1.214,1.216,1.22,1.228,1.233,1.23575,1.238,1.249,1.261,1.271,1.275,1.279,1.281,1.281,1.282,1.282,1.282,1.281,1.281,1.279,1.276,1.275,1.272,1.24,1.231,1.215,1.199,1.192,1.177,1.172,1.168,1.164,1.161,1.158,1.157,1.155,1.154,1.153,1.149,1.146,1.14,1.132,1.123,1.122,1.12,1.119,1.118,1.118,1.118,1.118,1.118,1.119,1.119,1.119,1.12,1.119,1.119,1.119,1.119,1.119,1.119,1.118,1.118,1.117,1.117,1.117,1.117,1.116,1.114,1.111,1.108,1.103,1.098,1.092,1.086,1.083,1.078,1.069,1.059,0.0,0.0,0.0,0.0,0.0,0.0,0.0,0.0,1.35,1.35,1.346,1.344,1.344,1.341,1.341,1.344,1.346,1.346,1.349,1.35,1.355,1.357,1.1815,1.1815,1.135875,0.998,0.0,0.0,0.0,0.0,0.0,0.0,0.0,0.0,0.0,0.0,0.0,0.0,0.0,0.0,0.0,0.0,0.0,0.0,0.0,0.0,0.0,0.0,0.0,0.0,0.0,0.0,0.0,0.0,0.0,0.0,0.0,0.833,0.833,0.832,0.832,0.832,0.832,0.831,0.83,0.829,0.828,0.829,0.829,0.83,0.83,0.832,0.832,0.833,0.834,0.834,0.833,0.832,0.832,0.83,0.828,0.822,0.819,0.818,0.816,0.815,0.811,0.808,0.805,0.802,0.799,0.796,0.79,0.784,0.781,0.77,0.766,0.765,0.765,0.765,0.765,0.765,0.765,0.765,0.765,0.765,0.765,0.765,0.764,0.763,0.762,0.762,0.758,0.757,0.754,0.753,0.752,0.75,0.749,0.747,0.739,0.736,0.735,0.732,0.727,0.723,0.719,0.716,0.712,0.709,0.708,0.706,0.706,0.705,0.7,0.698,0.695,0.694,0.693,0.692,0.69,0.688,0.683,0.68,0.679,0.677,0.672,0.668,0.666,0.662,0.658,0.656,0.655,0.651,0.649,0.646,0.645,0.644,0.643,0.641,0.636,0.634,0.633,0.632,0.631,0.628,0.626,0.622,0.622,0.621,0.62,0.618,0.616,0.614,0.612,0.612,0.611,0.608,0.606,0.604,0.602,0.601,0.601,0.599,0.595,0.593,0.592,0.591,0.59,0.589,0.586,0.585,0.583,0.582,0.582,0.581,0.581,0.58,0.578,0.575,0.574,0.573,0.57,0.567,0.565,0.564,0.563,0.562,0.559,0.558,0.558,0.557,0.557
4.713,4.713,4.713,4.713,4.694,4.638,4.638,4.601,4.583,4.565,4.565,4.565,4.53,4.53,4.565,4.583,4.601,4.638,4.657,4.694,4.694,4.694,4.694,4.694,4.657,4.657,4.657,4.657,4.657,4.657,4.657,4.657,4.657,4.638,4.638,4.601,4.601,4.601,4.583,4.583,4.583,4.565,4.53,4.53,4.53,4.512,4.512,4.477,4.477,4.477,4.477,4.512,4.512,4.512,4.53,4.53,4.53,4.53,4.512,4.512,4.477,4.46,4.41,4.344,4.312,4.264,4.173,3.933,3.868,3.817,3.78,3.731,3.707,3.696,3.707,3.731,3.755,3.78,3.817,3.855,3.893,3.973,4.07,4.158,4.203,4.249,4.264,4.28,4.296,4.296,4.312,4.312,4.328,4.344,4.376,4.41,4.426,4.46,4.477,4.512,4.53,4.53,4.565,4.565,4.565,4.565,4.565,4.565,4.565,4.565,4.53,4.53,4.53,4.53,4.512,4.512,4.512,4.512,4.512,4.512,4.512,4.512,4.53,4.565,4.565,4.583,4.601,4.638,4.638,4.657,4.694,4.694,4.694,4.713,4.694,4.694,4.694,4.694,4.694,4.694,0.0,0.0,0.0,0.0,0.0,0.0,0.0,0.0,0.0,0.0,0.0,0.0,0.0,0.952,0.951,0.951,0.95,0.951,0.949,0.947,0.947,0.946,0.946,0.945,0.945,0.945,0.945,0.945,0.945,0.945,0.945,0.946,0.946,0.946,0.947,0.947,0.947,0.947,0.948,0.95,0.95,0.951,0.952,0.953,0.954,0.954,0.956,0.959,0.959,0.96,0.96,0.96,0.96,0.961,0.961,0.961,0.961,0.962,0.962,0.965,0.967,0.969,0.971,0.973,0.976,0.979,0.984,0.985,0.988,0.988,0.988,0.987,0.987,0.987,0.987,0.987,0.987,0.987,0.987,0.986,0.986,0.986,0.985,0.987,0.986,0.986,0.986,0.984,0.984,0.984,0.982,0.982,0.982,0.982,0.0,0.0,0.0,0.0,0.0,0.0,0.0,0.0,0.0,0.0,0.0,0.0,0.0,0.0,0.0,0.0,0.0,0.0,0.0,0.0,0.0,1.326,1.324,1.323,1.317,0.0,0.0,0.0,1.223,1.211,1.203,1.2,1.201,1.201,1.206,1.211,1.224,1.232,1.23475,1.238,1.249,1.263,1.272,1.276,1.279,1.281,1.281,1.282,1.282,1.281,1.279,1.279,1.276,1.275,1.269,1.236,1.228,1.208,1.195,1.189,1.171,1.165,1.162,1.159,1.157,1.156,1.154,1.151,1.149,1.144,1.138,1.123,1.119,1.117,1.114,1.109,1.106,1.104,1.103,1.103,1.103,1.104,1.108,1.111,1.113,1.114,1.115,1.116,1.117,1.117,1.117,1.117,1.117,1.117,1.115,1.115,1.113,1.113,1.111,1.104,1.1,1.094,1.097,1.093,1.089,1.084,1.079,1.071,1.063,1.057,0.0,0.0,0.0,0.0,0.0,0.0,0.0,0.0,0.0,0.0,0.0,1.34,1.34,1.337,1.337,1.34,1.34,0.0,1.1735,1.1745,1.1745,1.131625,0.998,0.998,0.998,0.998,0.998,0.998,0.997,0.0,0.0,0.0,0.0,0.0,0.0,0.0,0.0,0.0,0.0,0.0,0.0,0.0,0.0,0.0,0.0,0.0,0.0,0.0,0.833,0.833,0.833,0.832,0.832,0.832,0.83,0.83,0.83,0.83,0.83,0.83,0.83,0.83,0.83,0.829,0.827,0.826,0.824,0.824,0.824,0.824,0.824,0.826,0.826,0.826,0.828,0.828,0.828,0.827,0.826,0.824,0.822,0.819,0.819,0.817,0.816,0.814,0.81,0.807,0.804,0.802,0.799,0.797,0.792,0.786,0.782,0.775,0.769,0.766,0.765,0.765,0.765,0.765,0.765,0.765,0.765,0.765,0.765,0.765,0.764,0.764,0.763,0.762,0.758,0.757,0.755,0.753,0.752,0.751,0.75,0.748,0.745,0.739,0.736,0.734,0.732,0.727,0.723,0.719,0.717,0.713,0.71,0.708,0.707,0.706,0.705,0.7,0.698,0.696,0.694,0.693,0.692,0.691,0.689,0.683,0.681,0.679,0.677,0.673,0.668,0.666,0.663,0.659,0.657,0.655,0.652,0.649,0.646,0.644,0.644,0.643,0.641,0.636,0.634,0.633,0.632,0.631,0.628,0.626,0.622,0.622,0.621,0.619,0.617,0.615,0.614,0.612,0.611,0.609,0.607,0.604,0.602,0.601,0.6,0.599,0.594,0.593,0.592,0.591,0.59,0.588,0.586,0.583,0.582,0.582,0.581,0.581,0.58,0.579,0.577,0.575,0.574,0.573,0.57,0.568,0.565,0.564,0.563,0.563,0.559,0.558,0.558,0.557,0.556,0.556
4.713,4.694,4.694,4.657,4.638,4.638,4.601,4.583,4.565,4.53,4.512,4.512,4.512,4.53,4.565,4.583,4.601,4.638,4.657,4.694,4.694,4.713,4.713,4.694,4.694,4.694,4.694,4.657,4.657,4.657,4.657,4.657,4.638,4.638,4.638,4.601,4.601,4.583,4.583,4.583,4.565,4.565,4.53,4.53,4.512,4.512,4.477,4.477,4.477,4.477,4.477,4.477,4.512,4.512,4.512,4.512,4.53,4.53,4.512,4.512,4.477,4.46,4.41,4.376,4.328,4.28,4.218,4.114,3.88,3.829,3.804,3.755,3.731,3.696,3.696,3.707,3.731,3.755,3.804,3.829,3.868,3.92,4.028,4.114,4.173,4.233,4.264,4.28,4.296,4.296,4.312,4.328,4.328,4.344,4.393,4.393,4.426,4.477,4.477,4.512,4.512,4.53,4.53,4.565,4.565,4.565,4.565,4.565,4.565,4.565,4.53,4.53,4.53,4.53,4.512,4.512,4.512,4.512,4.512,4.512,4.512,4.53,4.53,4.565,4.565,4.583,4.601,4.638,4.638,4.657,4.694,4.694,4.713,4.713,4.713,4.694,4.694,4.694,4.694,0.0,0.0,0.0,0.0,0.0,0.0,0.0,0.0,0.0,0.0,0.0,0.0,0.0,0.0,0.957,0.956,0.956,0.954,0.954,0.953,0.95,0.949,0.948,0.947,0.946,0.946,0.946,0.946,0.946,0.946,0.946,0.946,0.946,0.946,0.947,0.947,0.948,0.949,0.949,0.95,0.951,0.952,0.953,0.954,0.956,0.957,0.958,0.959,0.96,0.961,0.961,0.962,0.964,0.964,0.964,0.965,0.966,0.967,0.968,0.968,0.969,0.97,0.973,0.974,0.977,0.98,0.984,0.986,0.988,0.988,0.98925,0.99,0.99,0.99,0.988,0.988,0.988,0.99,0.99,0.992,0.991,0.991,0.991,0.99,0.99,0.988,0.988,0.987,0.987,0.986,0.986,0.985,0.985,0.984,0.984,0.984,0.0,0.0,0.0,0.0,0.0,0.0,0.0,0.0,0.0,0.0,0.0,0.0,0.0,0.0,0.0,0.0,0.0,0.0,0.0,1.326,1.324,1.324,1.323,1.32,1.312,1.275,1.2555,1.236,1.204,1.196,1.195,1.194,1.194,1.195,1.198,1.204,1.219,1.231,1.2337500000000001,1.237,1.249,1.263,1.272,1.275,1.279,1.279,1.281,1.281,1.281,1.279,1.278,1.275,1.274,1.265,1.233,1.223,1.2080000000000002,1.193,1.175,1.168,1.162,1.158,1.157,1.155,1.154,1.151,1.147,1.14,1.124,1.119,1.116,1.108,1.1,1.093,1.089,1.089,1.088,1.088,1.088,1.088,1.089,1.09,1.093,1.094,1.097,1.098,1.101,1.103,1.106,1.109,1.109,1.109,1.109,1.108,1.106,1.104,1.1,1.095,1.091,1.088,1.082,1.076,1.072,1.063,1.059,1.065,1.059,1.056,1.0474999999999999,0.0,0.0,0.0,0.0,0.0,0.0,0.0,0.0,0.0,0.0,0.0,0.0,0.0,1.1775,1.1764999999999999,1.1760000000000002,1.1745,1.08775,1.001,1.0,0.999,0.999,0.998,0.998,0.998,0.998,0.998,0.998,0.997,0.0,0.0,0.0,0.0,0.0,0.0,0.0,0.0,0.0,0.0,0.0,0.0,0.0,0.0,0.0,0.0,0.834,0.832,0.832,0.832,0.832,0.832,0.83,0.83,0.829,0.829,0.83,0.828,0.829,0.829,0.829,0.829,0.828,0.827,0.826,0.824,0.824,0.822,0.822,0.822,0.821,0.822,0.821,0.822,0.822,0.822,0.823,0.822,0.82,0.819,0.819,0.818,0.817,0.816,0.814,0.812,0.81,0.806,0.804,0.802,0.801,0.798,0.795,0.79,0.784,0.782,0.774,0.769,0.766,0.766,0.765,0.765,0.765,0.765,0.765,0.765,0.765,0.765,0.764,0.763,0.763,0.762,0.758,0.757,0.755,0.753,0.752,0.751,0.75,0.749,0.747,0.743,0.738,0.736,0.734,0.732,0.727,0.724,0.72,0.717,0.714,0.71,0.708,0.707,0.706,0.705,0.7,0.698,0.696,0.694,0.693,0.693,0.691,0.69,0.684,0.681,0.68,0.677,0.673,0.668,0.666,0.663,0.659,0.657,0.655,0.654,0.649,0.646,0.645,0.644,0.643,0.642,0.64,0.634,0.633,0.632,0.631,0.628,0.626,0.622,0.622,0.621,0.62,0.618,0.616,0.614,0.612,0.611,0.608,0.606,0.603,0.602,0.601,0.599,0.595,0.593,0.592,0.591,0.59,0.588,0.586,0.582,0.582,0.581,0.581,0.579,0.578,0.577,0.575,0.574,0.573,0.573,0.57,0.567,0.565,0.564,0.563,0.562,0.561,0.558,0.557,0.557,0.556,0.556,0.556
4.694,4.694,4.657,4.638,4.601,4.601,4.583,4.565,4.53,4.53,4.512,4.512,4.512,4.53,4.565,4.583,4.601,4.638,4.657,4.694,4.713,4.713,4.713,4.713,4.694,4.694,4.694,4.694,4.657,4.657,4.638,4.638,4.638,4.638,4.601,4.583,4.583,4.583,4.565,4.565,4.53,4.53,4.53,4.512,4.477,4.477,4.477,4.46,4.46,4.46,4.46,4.477,4.477,4.477,4.512,4.512,4.512,4.512,4.512,4.512,4.477,4.46,4.426,4.393,4.344,4.296,4.249,4.158,3.906,3.855,3.817,3.767,3.731,3.696,3.672,3.696,3.707,3.743,3.767,3.804,3.842,3.893,3.973,4.07,4.158,4.218,4.249,4.28,4.296,4.304,4.32,4.328,4.34,4.36,4.393,4.41,4.426,4.477,4.477,4.477,4.512,4.512,4.53,4.565,4.565,4.565,4.565,4.583,4.583,4.583,4.583,4.565,4.565,4.565,4.565,4.565,4.53,4.53,4.53,4.53,4.53,4.565,4.565,4.565,4.583,4.583,4.638,4.638,4.638,4.657,4.694,4.694,4.694,4.713,4.694,4.694,0.0,0.0,0.0,0.0,0.0,0.0,0.0,0.0,0.0,0.0,0.0,0.0,0.0,0.0,0.0,0.0,0.0,0.9595,0.959,0.96,0.9590000000000001,0.958,0.954,0.953,0.951,0.95,0.949,0.948,0.947,0.947,0.947,0.947,0.947,0.947,0.948,0.948,0.948,0.948,0.949,0.95,0.951,0.952,0.953,0.954,0.956,0.957,0.958,0.96,0.961,0.962,0.964,0.964,0.965,0.965,0.967,0.968,0.968,0.968,0.969,0.969,0.97,0.971,0.972,0.973,0.974,0.977,0.98,0.982,0.986,0.988,0.98875,0.99,0.991,0.991,0.991,0.991,0.991,0.991,0.992,0.992,0.992,0.992,0.992,0.992,0.992,0.992,0.992,0.992,0.992,0.991,0.991,0.991,0.99,0.99,0.987,0.987,0.987,0.986,0.986,0.986,0.986,0.0,0.0,0.0,0.0,0.0,0.0,0.0,0.0,0.0,0.0,0.0,0.0,0.0,0.0,0.0,0.0,0.0,1.323,1.323,1.323,1.321,1.32,1.315,1.2805,1.26525,1.2333125,1.203,1.193,1.19,1.189,1.187,1.188,1.19,1.194,1.199,1.215,1.229,1.2317500000000001,1.236,1.248,1.261,1.271,1.275,1.276,1.279,1.279,1.279,1.279,1.276,1.275,1.271,1.24,1.2285,1.214,1.20175,1.19,1.171,1.164,1.159,1.157,1.155,1.154,1.153,1.148,1.142,1.124,1.118,1.112,1.098,1.089,1.086,1.084,1.08,1.079,1.08,1.08,1.08,1.081,1.082,1.083,1.084,1.085,1.085,1.086,1.087,1.088,1.089,1.09,1.091,1.092,1.091,1.09,1.089,1.089,1.088,1.086,1.079,1.072,1.066,1.061,1.05975,1.054,1.053,1.049,1.042,1.033,1.038,1.033,1.0299999999999998,1.027,0.0,0.0,0.0,0.0,0.0,0.0,0.0,0.0,0.0,0.0,1.018,1.016,1.012,1.009,1.007,1.004,1.0,0.999,0.999,0.998,0.998,0.998,0.998,0.998,0.998,0.997,0.0,0.0,0.0,0.0,0.0,0.0,0.0,0.0,0.0,0.0,0.0,0.0,0.0,0.834,0.833,0.833,0.832,0.83,0.83,0.83,0.83,0.83,0.829,0.829,0.828,0.827,0.828,0.827,0.827,0.826,0.826,0.826,0.826,0.826,0.824,0.823,0.822,0.82,0.82,0.819,0.819,0.819,0.819,0.819,0.819,0.819,0.818,0.818,0.817,0.817,0.816,0.815,0.814,0.811,0.809,0.807,0.805,0.803,0.801,0.801,0.798,0.796,0.792,0.788,0.783,0.782,0.778,0.769,0.767,0.766,0.765,0.765,0.765,0.765,0.765,0.764,0.764,0.763,0.763,0.762,0.76,0.757,0.756,0.754,0.753,0.752,0.751,0.75,0.749,0.747,0.744,0.739,0.737,0.735,0.734,0.731,0.727,0.724,0.72,0.718,0.714,0.71,0.709,0.707,0.706,0.705,0.7,0.698,0.696,0.694,0.693,0.693,0.691,0.69,0.684,0.681,0.68,0.678,0.673,0.668,0.667,0.663,0.66,0.657,0.655,0.655,0.65,0.647,0.645,0.644,0.644,0.642,0.641,0.635,0.634,0.633,0.632,0.629,0.626,0.624,0.622,0.621,0.62,0.618,0.616,0.614,0.613,0.611,0.608,0.606,0.603,0.602,0.601,0.599,0.594,0.592,0.591,0.59,0.589,0.586,0.584,0.582,0.581,0.58,0.579,0.577,0.576,0.575,0.574,0.573,0.573,0.57,0.567,0.565,0.564,0.563,0.562,0.561,0.558,0.557,0.556,0.556,0.556,0.556,0.555
4.657,4.694,4.657,4.638,4.601,4.583,4.565,4.565,4.53,4.512,4.512,4.512,4.512,4.53,4.565,4.583,4.601,4.638,4.657,4.694,4.713,4.713,4.713,4.694,4.694,4.694,4.657,4.657,4.638,4.638,4.638,4.601,4.601,4.583,4.583,4.583,4.565,4.53,4.53,4.53,4.53,4.512,4.477,4.477,4.477,4.46,4.46,4.426,4.426,4.426,4.426,4.426,4.46,4.477,4.477,4.477,4.512,4.512,4.512,4.512,4.477,4.46,4.426,4.393,4.36,4.312,4.264,4.173,3.92,3.855,3.804,3.755,3.731,3.672,3.672,3.672,3.696,3.707,3.743,3.792,3.829,3.868,3.933,4.028,4.114,4.188,4.249,4.28,4.312,4.312,4.328,4.328,4.344,4.36,4.393,4.41,4.426,4.46,4.46,4.46,4.477,4.477,4.512,4.512,4.565,4.565,4.565,4.565,4.583,4.583,4.583,4.583,4.583,4.565,4.583,4.565,4.583,4.583,4.583,4.583,4.565,4.565,4.565,4.583,4.583,4.583,4.638,4.638,4.638,4.657,0.0,0.0,0.0,0.0,0.0,0.0,0.0,0.0,0.0,0.0,0.0,0.0,0.0,0.0,0.0,0.0,0.0,0.0,0.0,0.0,0.0,0.962,0.962,0.962,0.962,0.964,0.964,0.96,0.962,0.958,0.958,0.9572499999999999,0.954,0.953,0.953,0.952,0.952,0.952,0.951,0.95,0.95,0.951,0.95,0.951,0.951,0.952,0.953,0.956,0.957,0.958,0.959,0.96,0.961,0.964,0.965,0.966,0.967,0.968,0.968,0.969,0.969,0.97,0.97,0.971,0.972,0.972,0.973,0.973,0.974,0.976,0.979,0.982,0.984,0.986,0.987,0.989,0.991,0.992,0.992,0.992,0.992,0.992,0.992,0.992,0.992,0.993,0.993,0.994,0.994,0.994,0.994,0.994,0.994,0.994,0.994,0.993,0.993,0.992,0.992,0.991,0.991,0.991,0.99,0.99,0.99,0.988,0.988,0.988,0.0,0.0,0.0,0.0,0.0,0.0,0.0,0.0,0.0,0.0,0.0,0.0,0.0,0.0,0.0,1.323,1.323,1.323,1.321,1.321,1.321,1.318,1.286,1.275,1.229,1.2095,1.19,1.184,1.181,1.177,1.176,1.177,1.184,1.19,1.195,1.208,1.225,1.233,1.23675,1.242,1.256,1.267,1.272,1.275,1.276,1.276,1.276,1.275,1.272,1.265,1.249,1.227,1.2092500000000002,1.195,1.177,1.168,1.162,1.158,1.156,1.155,1.153,1.15,1.144,1.135,1.118,1.108,1.094,1.087,1.082,1.072,1.068,1.065,1.065,1.065,1.066,1.066,1.068,1.069,1.071,1.072,1.073,1.076,1.076,1.07575,1.079,1.081,1.082,1.083,1.084,1.084,1.083,1.08,1.078,1.073,1.068,1.062,0.0,1.057,1.054,1.052,1.047,1.041,1.032,1.029,1.027,1.027,1.026,1.025,1.024,1.025,1.024,1.024,1.024,1.024,0.0,0.0,0.0,1.022,1.02,1.019,1.016,1.013,1.01,1.007,1.004,1.0,0.999,0.999,0.998,0.998,0.998,0.998,0.998,0.998,0.997,0.0,0.0,0.0,0.0,0.0,0.0,0.0,0.0,0.835,0.834,0.834,0.833,0.833,0.83,0.83,0.83,0.83,0.829,0.829,0.827,0.827,0.828,0.827,0.827,0.826,0.824,0.824,0.824,0.826,0.824,0.824,0.824,0.822,0.822,0.822,0.821,0.82,0.819,0.819,0.818,0.818,0.818,0.817,0.816,0.816,0.816,0.815,0.814,0.813,0.811,0.81,0.809,0.806,0.805,0.803,0.802,0.801,0.8,0.8,0.798,0.796,0.794,0.789,0.785,0.782,0.781,0.774,0.769,0.767,0.766,0.765,0.765,0.765,0.765,0.764,0.763,0.762,0.762,0.76,0.759,0.756,0.754,0.753,0.752,0.751,0.75,0.75,0.748,0.746,0.744,0.741,0.737,0.735,0.734,0.733,0.73,0.727,0.723,0.72,0.718,0.715,0.711,0.709,0.708,0.706,0.706,0.7,0.698,0.696,0.694,0.693,0.693,0.691,0.69,0.684,0.681,0.68,0.678,0.673,0.67,0.666,0.663,0.66,0.657,0.656,0.655,0.65,0.647,0.645,0.644,0.644,0.643,0.642,0.636,0.634,0.633,0.632,0.63,0.628,0.626,0.622,0.622,0.62,0.619,0.617,0.614,0.613,0.612,0.608,0.605,0.603,0.602,0.6,0.595,0.593,0.592,0.591,0.589,0.587,0.584,0.582,0.581,0.58,0.579,0.577,0.575,0.574,0.574,0.573,0.573,0.57,0.567,0.566,0.564,0.564,0.563,0.561,0.558,0.557,0.557,0.556,0.556,0.555,0.555,0.555
4.657,4.657,4.638,4.638,4.601,4.583,4.565,4.565,4.53,4.53,4.512,4.512,4.512,4.53,4.583,4.601,4.638,4.638,4.657,4.694,4.713,4.713,4.694,4.694,4.657,4.638,4.638,4.601,4.601,4.583,4.583,4.583,4.565,4.565,4.53,4.53,4.53,4.53,4.512,4.512,4.477,4.477,4.477,4.46,4.426,4.426,4.426,4.426,4.41,4.41,4.426,4.426,4.426,4.44725,4.46,4.477,4.477,4.477,4.477,4.477,4.46,4.46,4.426,4.393,4.376,4.312,4.264,4.188,3.933,3.868,3.817,3.755,3.707,3.672,3.661,3.661,3.672,3.696,3.731,3.767,3.817,3.855,3.906,3.987,4.085,4.158,4.233,4.264,4.296,4.312,4.328,4.328,4.36,4.376,4.393,4.41,4.46,4.46,4.46,0.0,0.0,0.0,4.512,4.477,4.512,4.512,4.53,4.53,4.583,4.583,4.583,4.601,4.601,4.601,4.601,4.601,4.638,4.601,4.583,4.583,4.583,4.583,4.583,0.0,0.0,0.0,0.0,0.0,0.0,0.0,0.0,0.0,0.0,0.0,0.0,0.0,0.0,0.0,0.0,0.0,0.0,0.0,0.0,0.0,0.0,0.0,0.0,0.0,0.0,0.0,0.0,0.965,0.967,0.967,0.968,0.967,0.967,0.968,0.968,0.968,0.968,0.967,0.967,0.965,0.964,0.962,0.962,0.961,0.959,0.957,0.956,0.956,0.954,0.954,0.954,0.954,0.956,0.958,0.96,0.961,0.962,0.964,0.966,0.967,0.968,0.968,0.969,0.969,0.97,0.971,0.971,0.972,0.972,0.973,0.973,0.974,0.975,0.976,0.977,0.979,0.982,0.984,0.986,0.988,0.989,0.99,0.992,0.992,0.992,0.992,0.992,0.992,0.992,0.992,0.993,0.993,0.994,0.995,0.995,0.995,0.995,0.995,0.995,0.995,0.995,0.995,0.995,0.995,0.995,0.994,0.994,0.993,0.992,0.992,0.992,0.992,0.991,0.99,0.99,0.99,0.988,0.988,0.0,0.0,0.0,0.0,0.0,0.0,0.0,0.0,0.0,0.0,0.0,1.323,1.323,1.321,1.321,1.321,1.32,1.318,1.296,1.2805,0.0,1.22375,1.199875,1.176,1.164,1.163,1.161,1.163,1.163,1.1704999999999999,1.175,1.187,1.195,1.206,1.224,1.2292500000000002,1.248,1.261,1.269,1.274,1.275,1.274,1.274,1.269,1.263,1.24,1.232,1.216,1.201,1.193,1.176,1.168,1.161,1.157,1.155,1.153,1.149,1.144,1.123,1.118,1.106,1.093,1.086,1.071,1.062,1.059,1.057,1.057,1.056,1.056,1.056,1.056,1.056,1.056,1.057,1.057,1.058,1.059,1.06225,1.061,1.06475,1.065,1.066,1.068,1.068,1.065,1.065,1.063,1.061,1.058,1.058,1.052,1.05,1.048,1.042,1.033,1.029,1.027,1.027,1.025,1.025,1.024,1.024,1.024,1.024,1.024,1.024,1.023,1.024,1.024,1.024,1.023,1.023,1.022,1.021,1.019,1.016,1.013,1.01,1.007,1.004,1.0,0.999,0.999,0.998,0.998,0.998,0.998,0.998,0.998,0.997,0.0,0.0,0.0,0.83,0.832,0.833,0.833,0.832,0.832,0.832,0.832,0.832,0.83,0.829,0.829,0.827,0.827,0.826,0.826,0.826,0.826,0.826,0.824,0.824,0.823,0.823,0.823,0.823,0.822,0.822,0.821,0.821,0.82,0.819,0.819,0.818,0.818,0.817,0.816,0.814,0.814,0.812,0.811,0.81,0.81,0.809,0.808,0.807,0.805,0.804,0.803,0.802,0.801,0.801,0.8,0.8,0.799,0.798,0.796,0.794,0.792,0.79,0.786,0.784,0.782,0.78,0.772,0.769,0.767,0.765,0.765,0.765,0.764,0.763,0.762,0.761,0.76,0.759,0.757,0.754,0.753,0.752,0.751,0.751,0.75,0.749,0.747,0.745,0.743,0.741,0.736,0.735,0.735,0.734,0.732,0.728,0.725,0.723,0.721,0.718,0.715,0.712,0.709,0.708,0.706,0.706,0.7,0.698,0.696,0.694,0.693,0.693,0.691,0.69,0.684,0.682,0.68,0.678,0.674,0.67,0.667,0.664,0.66,0.657,0.656,0.655,0.651,0.648,0.646,0.645,0.644,0.643,0.642,0.64,0.635,0.633,0.632,0.631,0.629,0.627,0.624,0.622,0.621,0.62,0.618,0.616,0.614,0.612,0.608,0.605,0.603,0.602,0.6,0.595,0.593,0.592,0.59,0.588,0.586,0.584,0.581,0.58,0.579,0.577,0.575,0.574,0.573,0.573,0.572,0.57,0.568,0.566,0.565,0.564,0.563,0.562,0.558,0.557,0.556,0.556,0.556,0.555,0.555,0.554,0.554
4.657,4.657,4.638,4.638,4.601,4.583,4.565,4.565,4.565,4.53,4.53,4.53,4.565,4.565,4.583,4.601,4.638,4.638,4.657,4.657,4.694,4.657,4.657,4.638,4.601,4.601,4.583,4.583,4.565,4.53,4.53,4.53,4.53,4.53,4.512,4.477,4.477,4.477,4.46,4.46,4.46,4.46,4.426,4.426,4.41,4.41,4.41,4.393,4.393,4.393,4.393,4.41,4.41,4.426,4.426,4.426,4.46,4.46,4.46,4.46,4.46,4.426,4.41,4.393,4.376,4.312,4.264,4.188,3.92,3.855,3.804,3.743,3.696,3.661,3.649,3.627,3.649,3.672,3.696,3.755,3.804,3.829,3.88,3.973,4.056,4.158,4.218,4.264,4.296,4.312,4.328,4.344,4.36,4.376,4.393,4.41,4.426,0.0,0.0,0.0,0.0,0.0,4.477,4.477,4.512,4.53,4.53,4.565,4.565,4.565,4.583,4.583,4.583,4.601,4.601,4.601,4.601,4.601,4.601,4.601,4.583,0.0,0.0,0.0,0.0,0.0,0.0,0.0,0.0,0.0,0.0,0.0,0.0,0.0,0.0,0.0,0.0,0.0,0.0,0.0,0.0,0.0,0.0,0.0,0.0,0.0,0.0,0.0,0.0,0.0,0.969,0.971,0.972,0.972,0.972,0.973,0.973,0.973,0.973,0.973,0.973,0.973,0.972,0.972,0.972,0.971,0.971,0.97,0.969,0.966,0.964,0.961,0.959,0.958,0.958,0.958,0.959,0.961,0.962,0.964,0.965,0.966,0.968,0.968,0.969,0.969,0.97,0.971,0.972,0.972,0.973,0.973,0.974,0.975,0.975,0.976,0.977,0.979,0.98,0.982,0.985,0.986,0.987,0.988,0.989,0.99,0.991,0.992,0.992,0.992,0.992,0.992,0.992,0.993,0.993,0.994,0.9944999999999999,0.995,0.995,0.995,0.996,0.996,0.996,0.996,0.997,0.997,0.997,0.996,0.996,0.996,0.996,0.995,0.995,0.994,0.994,0.993,0.992,0.992,0.992,0.992,0.991,0.991,0.0,0.0,0.0,0.0,0.0,0.0,0.0,0.0,0.0,0.0,0.0,1.321,1.321,1.321,1.32,1.32,1.318,1.315,1.312,1.286,1.262,1.238,1.18946875,1.159,1.157,1.155,1.154,1.153,1.151,1.154,1.157,1.168,1.1755,1.184,1.193,1.203,1.232,1.24675,1.263,1.271,1.274,1.271,1.269,1.265,1.256,1.236,1.228,1.211,1.196,1.192,1.175,1.164,1.159,1.157,1.154,1.149,1.142,1.132,1.117,1.108,1.091,1.085,1.066,1.058,1.055,1.054,1.053,1.053,1.052,1.051,1.051,1.05,1.05,1.051,1.05,1.051,1.051,1.052,1.053,1.054,1.054,1.054,1.054,1.055,1.055,1.0545,1.054,1.05275,1.053,1.051,1.048,1.042,1.033,1.029,1.027,1.027,1.025,1.024,1.024,1.023,1.023,1.023,1.023,1.023,1.023,1.024,1.023,1.023,1.024,1.024,1.024,1.023,1.023,1.022,1.021,1.019,1.016,1.013,1.01,1.007,1.004,1.0,0.999,0.999,0.998,0.911,0.911,0.911,0.88975,0.826,0.826,0.827,0.828,0.828,0.828,0.83,0.829,0.83,0.83,0.83,0.83,0.83,0.827,0.827,0.826,0.824,0.826,0.824,0.824,0.824,0.824,0.823,0.822,0.822,0.822,0.821,0.82,0.82,0.819,0.819,0.819,0.818,0.818,0.818,0.817,0.816,0.816,0.815,0.81,0.809,0.807,0.805,0.803,0.803,0.802,0.801,0.801,0.801,0.801,0.8,0.8,0.8,0.799,0.798,0.798,0.797,0.796,0.794,0.792,0.791,0.79,0.789,0.787,0.784,0.782,0.781,0.779,0.772,0.768,0.766,0.765,0.765,0.764,0.763,0.762,0.76,0.759,0.757,0.754,0.753,0.752,0.752,0.751,0.75,0.749,0.748,0.745,0.743,0.741,0.737,0.736,0.735,0.734,0.734,0.732,0.73,0.727,0.724,0.722,0.721,0.718,0.716,0.712,0.709,0.708,0.706,0.705,0.7,0.698,0.695,0.694,0.693,0.692,0.691,0.69,0.684,0.682,0.68,0.678,0.675,0.671,0.667,0.664,0.661,0.658,0.656,0.655,0.651,0.649,0.646,0.645,0.644,0.644,0.642,0.641,0.636,0.634,0.633,0.632,0.63,0.627,0.625,0.622,0.621,0.62,0.619,0.616,0.614,0.612,0.609,0.606,0.603,0.602,0.6,0.594,0.592,0.591,0.59,0.588,0.585,0.583,0.581,0.579,0.577,0.575,0.574,0.573,0.573,0.572,0.57,0.569,0.566,0.565,0.564,0.563,0.562,0.56,0.558,0.556,0.556,0.556,0.555,0.555,0.554,0.552,0.551
4.657,4.657,4.657,4.638,4.638,4.601,4.583,4.583,4.565,4.565,4.565,4.565,4.565,4.583,4.601,4.638,4.638,4.638,4.657,4.657,4.657,4.638,4.601,4.583,4.583,4.565,4.53,4.53,4.512,4.512,4.477,4.477,4.46,4.46,4.46,4.46,4.46,4.426,4.426,4.426,4.41,4.41,4.41,4.393,4.393,4.376,4.376,4.376,4.376,4.376,4.376,4.393,4.393,4.41,4.41,4.41,4.426,4.426,4.426,4.426,4.426,4.41,4.41,4.376,4.376,4.312,4.264,4.188,3.92,3.855,3.804,3.731,3.696,3.649,3.627,3.615,3.627,3.649,3.672,3.731,3.78,3.817,3.855,3.92,4.014,4.114,4.203,4.264,4.28,4.312,4.328,4.344,4.376,4.393,4.41,4.426,4.46,0.0,0.0,0.0,0.0,0.0,4.477,4.512,4.512,4.53,4.53,4.565,4.565,4.583,4.583,4.583,4.601,4.601,4.601,4.638,4.638,4.638,4.638,0.0,0.0,0.0,0.0,0.0,0.0,0.0,0.0,0.0,0.0,0.0,0.0,0.0,0.0,0.0,0.0,0.0,0.0,0.0,0.0,0.0,0.0,0.0,0.0,0.0,0.0,0.0,0.0,0.0,0.0,0.0,0.977,0.98,0.982,0.982,0.984,0.985,0.986,0.986,0.986,0.985,0.982,0.982,0.98,0.982,0.98,0.979,0.977,0.976,0.973,0.972,0.971,0.968,0.964,0.964,0.962,0.961,0.962,0.964,0.965,0.966,0.967,0.968,0.968,0.969,0.97,0.971,0.972,0.972,0.973,0.973,0.974,0.976,0.977,0.977,0.977,0.979,0.98,0.982,0.982,0.985,0.986,0.986,0.987,0.988,0.98875,0.99,0.99,0.991,0.992,0.992,0.992,0.992,0.993,0.993,0.994,0.9944999999999999,0.995,0.995,0.9955,0.996,0.996,0.997,0.997,0.997,0.997,0.998,0.998,0.998,0.998,0.998,0.997,0.997,0.997,0.996,0.996,0.996,0.995,0.995,0.993,0.993,0.992,0.992,0.992,0.0,0.0,0.0,0.0,0.0,0.0,0.0,0.0,0.0,0.0,1.321,1.32,1.318,1.318,1.318,1.317,1.315,1.308,1.293,1.2705,1.248,1.161,1.157,1.153,1.149,1.146,1.14,1.136,1.135,1.139,1.148,1.155,1.161,1.1680000000000001,1.175,1.188,1.231,1.2465000000000002,1.267,1.271,1.268,1.265,1.256,1.234,1.228,1.2177499999999999,1.204,1.195,1.19,1.171,1.163,1.158,1.156,1.151,1.14,1.131,1.117,1.104,1.091,1.0745,1.0673750000000002,1.056,1.054,1.051,1.048,1.045,1.044,1.042,1.042,1.041,1.04,1.038,1.038,1.036,1.036,1.036,1.036,1.038,1.038,1.041,1.042,1.042,1.045,1.045,1.044,1.044,1.041,1.04,1.032,1.028,1.027,1.026,1.024,1.024,1.023,1.022,1.021,1.021,1.021,1.02,1.022,1.023,1.023,1.023,1.024,1.024,1.023,1.024,1.024,1.024,1.024,1.023,1.023,1.021,1.019,1.018,1.013,1.011,1.009,1.004,1.002,0.9115,0.9115,0.889375,0.824,0.824,0.824,0.824,0.824,0.824,0.824,0.826,0.826,0.826,0.827,0.827,0.827,0.826,0.827,0.826,0.824,0.826,0.823,0.823,0.821,0.822,0.821,0.82,0.82,0.82,0.82,0.819,0.819,0.819,0.819,0.818,0.818,0.817,0.816,0.816,0.814,0.814,0.814,0.81,0.809,0.806,0.805,0.803,0.801,0.801,0.8,0.799,0.798,0.798,0.797,0.797,0.796,0.796,0.795,0.795,0.794,0.792,0.792,0.791,0.791,0.79,0.789,0.787,0.787,0.786,0.785,0.784,0.783,0.782,0.78,0.777,0.771,0.768,0.766,0.765,0.765,0.763,0.762,0.761,0.758,0.757,0.753,0.752,0.751,0.751,0.75,0.749,0.748,0.747,0.745,0.742,0.74,0.736,0.735,0.735,0.734,0.733,0.732,0.73,0.727,0.725,0.723,0.722,0.719,0.718,0.715,0.712,0.709,0.708,0.706,0.705,0.699,0.697,0.695,0.693,0.693,0.692,0.69,0.689,0.684,0.682,0.68,0.678,0.676,0.672,0.667,0.665,0.662,0.658,0.656,0.655,0.651,0.649,0.647,0.645,0.644,0.644,0.643,0.641,0.637,0.635,0.633,0.632,0.631,0.628,0.626,0.622,0.622,0.621,0.619,0.617,0.615,0.613,0.611,0.607,0.603,0.602,0.601,0.594,0.592,0.591,0.589,0.586,0.584,0.581,0.58,0.579,0.577,0.575,0.574,0.573,0.573,0.572,0.569,0.567,0.565,0.564,0.564,0.563,0.561,0.56,0.557,0.556,0.555,0.555,0.554,0.553,0.55,0.549,0.548
4.657,4.657,4.657,4.657,4.638,4.601,4.601,4.583,4.583,4.583,4.583,4.583,4.583,4.601,4.601,4.638,4.638,4.638,4.638,4.638,4.601,4.601,4.565,4.565,4.512,4.512,4.477,4.46,4.46,4.46,4.426,4.426,4.426,4.41,4.41,4.41,4.393,4.393,4.393,4.393,4.393,4.393,4.376,4.376,4.36,4.36,4.36,4.36,4.36,4.36,4.36,4.36,4.376,4.393,4.393,4.393,4.41,4.41,4.41,4.41,4.41,4.393,4.393,4.376,4.36,4.312,4.264,4.173,3.92,3.855,3.804,3.731,3.696,3.649,3.627,3.615,3.627,3.627,3.661,3.696,3.767,3.804,3.855,3.893,3.973,4.07,4.173,4.233,4.264,4.296,4.312,4.328,4.344,4.376,4.393,4.41,4.426,0.0,0.0,0.0,0.0,0.0,0.0,4.53,4.53,4.565,4.565,4.583,4.583,4.601,4.601,4.638,4.638,4.638,4.638,4.657,4.657,4.657,4.657,0.0,0.0,0.0,0.0,0.0,0.0,0.0,0.0,0.0,0.0,0.0,0.0,0.0,0.0,0.0,0.0,0.0,0.0,0.0,0.0,0.0,0.0,0.0,0.0,0.0,0.0,0.0,0.0,0.0,0.0,0.0,0.0,0.992,0.992,0.992,0.992,0.993,0.993,0.993,0.994,0.993,0.995,0.994,0.994,0.994,0.993,0.995,0.994,0.993,0.987,0.982,0.979,0.976,0.97,0.968,0.968,0.967,0.967,0.968,0.968,0.968,0.968,0.969,0.97,0.97,0.971,0.972,0.973,0.973,0.975,0.975,0.977,0.977,0.98,0.98,0.982,0.982,0.985,0.985,0.985,0.986,0.986,0.987,0.987,0.988,0.988,0.99,0.9904999999999999,0.991,0.99175,0.992,0.992,0.992,0.993,0.9935,0.994,0.9946250000000001,0.995,0.9955,0.996,0.996,0.9964999999999999,0.997,0.9975,0.998,0.998,0.998,0.998,0.999,0.999,0.999,0.999,0.998,0.998,0.998,0.998,0.997,0.997,0.996,0.995,0.995,0.995,0.995,0.994,0.0,0.0,0.0,0.0,0.0,0.0,0.0,0.0,0.0,0.0,1.32,1.318,1.318,1.317,1.315,1.314,1.312,1.307,1.298,1.2836249999999998,1.259,1.2065,1.154,1.142,1.136,1.131,1.125,1.123,1.12,1.119,1.123,1.128,1.136,1.1455,1.155,1.163,1.194,1.225,1.241,1.257,1.223,1.2229999999999999,1.2229999999999999,1.223,1.22,1.211,1.199,1.193,1.188,1.172,1.159,1.155,1.151,1.14,1.119,1.113,1.098,1.0835,1.072125,1.058,1.054,1.052,1.047,1.041,1.038,1.038,1.036,1.033,1.033,1.031,1.03,1.029,1.028,1.027,1.027,1.027,1.027,1.027,1.027,1.027,1.028,1.029,1.029,1.029,1.029,1.027,1.027,1.026,1.025,1.024,1.023,1.022,1.02,1.02,1.019,1.019,1.019,1.019,1.019,1.02,1.021,1.022,1.022,1.023,1.023,1.023,1.023,1.024,1.024,1.024,1.024,0.0,0.0,0.9215,1.02,0.9199999999999999,0.9175,0.9164999999999999,0.9149999999999999,0.89225,0.826,0.824,0.824,0.824,0.823,0.822,0.822,0.822,0.823,0.823,0.824,0.824,0.822,0.824,0.824,0.823,0.824,0.823,0.823,0.822,0.822,0.82,0.82,0.819,0.819,0.819,0.818,0.818,0.818,0.817,0.817,0.817,0.816,0.816,0.815,0.814,0.813,0.811,0.81,0.807,0.806,0.805,0.804,0.803,0.802,0.801,0.8,0.799,0.798,0.797,0.796,0.794,0.794,0.792,0.79,0.79,0.788,0.787,0.787,0.787,0.786,0.786,0.786,0.785,0.785,0.784,0.784,0.784,0.783,0.783,0.783,0.782,0.781,0.78,0.778,0.773,0.77,0.767,0.766,0.765,0.764,0.762,0.761,0.759,0.756,0.753,0.752,0.751,0.75,0.749,0.748,0.747,0.745,0.743,0.741,0.739,0.737,0.735,0.734,0.734,0.732,0.73,0.729,0.727,0.725,0.723,0.722,0.721,0.719,0.717,0.714,0.712,0.709,0.707,0.706,0.704,0.698,0.696,0.694,0.693,0.693,0.691,0.69,0.688,0.683,0.681,0.68,0.679,0.676,0.673,0.669,0.666,0.662,0.659,0.657,0.655,0.654,0.649,0.647,0.646,0.645,0.644,0.643,0.642,0.64,0.635,0.634,0.632,0.631,0.629,0.626,0.624,0.622,0.621,0.62,0.618,0.616,0.613,0.612,0.608,0.604,0.602,0.601,0.594,0.592,0.591,0.589,0.586,0.584,0.581,0.579,0.578,0.576,0.575,0.574,0.573,0.572,0.571,0.568,0.566,0.565,0.564,0.563,0.562,0.561,0.557,0.556,0.555,0.555,0.554,0.552,0.549,0.548,0.547,0.547
4.694,4.694,4.694,4.657,4.657,4.638,4.638,4.601,4.601,4.638,4.638,4.638,4.638,4.638,4.638,4.638,4.638,4.601,4.601,4.583,4.583,4.53,4.512,4.477,4.46,4.426,4.426,4.41,4.393,4.393,4.393,4.393,4.376,4.376,4.376,4.376,4.376,4.376,4.376,4.376,4.36,4.36,4.36,4.36,4.344,4.344,4.344,4.344,4.344,4.344,4.344,4.344,4.36,4.36,4.376,4.376,4.376,4.393,4.393,4.393,4.376,4.376,4.376,4.36,4.328,4.296,4.249,4.158,3.92,3.855,3.804,3.731,3.696,3.649,3.615,3.615,3.615,3.615,3.627,3.672,3.731,3.792,3.817,3.855,3.906,3.987,4.085,4.173,4.233,4.264,4.28,4.312,4.328,4.344,4.36,4.376,0.0,0.0,0.0,0.0,0.0,0.0,0.0,0.0,4.565,4.583,4.583,4.583,4.601,4.601,4.638,1.088,1.088,4.657,4.657,4.694,4.694,4.694,4.694,4.694,0.0,0.0,0.0,0.0,0.0,0.0,0.0,0.0,0.0,0.0,0.0,0.0,0.0,0.0,0.0,0.0,0.0,0.0,0.0,0.0,0.0,0.0,0.0,0.0,0.0,0.0,0.0,0.0,0.0,0.0,0.0,0.0,0.997,0.997,0.997,0.997,0.997,0.996,0.996,0.996,0.997,0.997,0.997,0.997,0.997,0.998,0.998,0.997,0.996,0.992,0.988,0.985,0.98,0.971,0.969,0.969,0.97,0.97,0.97,0.97,0.971,0.971,0.972,0.973,0.973,0.973,0.975,0.976,0.977,0.979,0.98,0.982,0.982,0.986,0.986,0.987,0.987,0.986,0.986,0.987,0.987,0.987,0.987,0.988,0.988,0.99,0.990625,0.991,0.992,0.992,0.992,0.993,0.993,0.994125,0.995,0.995,0.9955,0.996,0.996,0.997,0.997,0.9975,0.998,0.998,0.9985,0.999,0.999,1.0,1.0,1.0,1.001,1.0,1.0,0.999,0.999,0.998,0.998,0.998,0.997,0.996,0.996,0.996,0.995,0.995,0.0,0.0,0.0,0.0,0.0,0.0,0.0,0.0,0.0,0.0,0.0,1.315,1.315,1.314,1.312,1.312,1.308,1.307,1.307,0.0,0.0,0.0,0.0,1.1255,1.119,1.118,1.111,1.106,1.103,1.103,1.098,1.112,0.0,0.0,1.095,1.13075,1.155,0.0,0.0,0.0,1.181,1.19,1.194,1.196,1.196,1.194,1.192,1.169,1.158,1.153,1.14,1.128,1.113,1.098,1.089,1.084,1.063,1.056,1.053,1.047,1.041,1.036,1.032,1.03,1.028,1.027,1.027,1.027,1.027,1.027,1.025,1.025,1.024,1.024,1.023,1.023,1.023,1.023,1.024,1.024,1.024,1.024,1.024,1.024,1.023,1.023,1.023,1.022,1.021,1.02,1.019,1.019,1.018,1.018,1.019,1.018,1.018,1.019,1.018,1.019,1.021,1.022,1.023,1.023,1.023,0.0,0.0,0.9225,0.9225,0.9225,0.0,0.0,0.822,0.822,0.822,0.822,0.822,0.821,0.824,0.823,0.823,0.822,0.822,0.821,0.821,0.821,0.82,0.821,0.821,0.82,0.822,0.821,0.821,0.82,0.82,0.82,0.819,0.819,0.819,0.819,0.818,0.818,0.817,0.816,0.816,0.815,0.815,0.814,0.814,0.813,0.811,0.81,0.809,0.807,0.805,0.803,0.802,0.802,0.801,0.801,0.8,0.8,0.799,0.798,0.797,0.796,0.794,0.792,0.79,0.789,0.787,0.785,0.784,0.784,0.783,0.783,0.782,0.782,0.782,0.782,0.782,0.782,0.782,0.782,0.782,0.781,0.781,0.781,0.781,0.781,0.78,0.779,0.777,0.772,0.77,0.768,0.767,0.765,0.765,0.763,0.76,0.758,0.755,0.752,0.751,0.75,0.749,0.748,0.747,0.745,0.743,0.742,0.74,0.738,0.736,0.735,0.734,0.733,0.732,0.73,0.728,0.727,0.724,0.723,0.722,0.721,0.72,0.718,0.716,0.713,0.71,0.708,0.707,0.706,0.7,0.697,0.695,0.693,0.693,0.692,0.69,0.688,0.687,0.683,0.681,0.68,0.679,0.676,0.673,0.67,0.666,0.663,0.66,0.657,0.655,0.654,0.649,0.648,0.646,0.645,0.644,0.644,0.642,0.64,0.636,0.634,0.633,0.631,0.629,0.627,0.625,0.622,0.621,0.62,0.618,0.616,0.614,0.612,0.608,0.605,0.603,0.601,0.599,0.592,0.591,0.589,0.586,0.584,0.581,0.579,0.578,0.576,0.575,0.573,0.573,0.572,0.571,0.567,0.566,0.564,0.564,0.562,0.561,0.557,0.556,0.555,0.553,0.55,0.548,0.549,0.545,0.543,0.542,0.541
4.694,4.694,4.694,4.694,4.694,4.657,4.657,4.657,4.657,4.657,4.657,4.657,4.657,4.657,4.657,4.657,4.601,4.601,4.583,4.565,4.53,4.477,4.46,4.426,4.41,4.393,4.376,4.376,4.36,4.36,4.344,4.344,4.344,4.344,4.344,4.344,4.344,4.344,4.344,4.344,4.344,4.344,4.344,4.344,4.344,4.344,4.328,4.328,4.328,4.328,4.328,4.328,4.344,4.344,4.36,4.36,4.36,4.376,4.376,4.376,4.36,4.36,4.36,4.344,4.328,4.28,4.249,4.173,3.92,3.855,3.804,3.743,3.696,3.649,3.615,3.593,3.593,3.615,3.627,3.649,3.696,3.755,3.804,3.829,3.868,3.92,3.987,4.07,4.173,4.218,4.249,4.28,4.296,4.312,4.328,4.328,0.0,0.0,0.0,0.0,0.0,0.0,0.0,0.0,0.0,0.0,0.0,4.601,4.601,4.601,1.088,1.088,1.088,1.088,1.088,1.088,4.694,4.694,4.694,2.8914999999999997,0.0,0.0,0.0,0.0,0.0,0.0,0.0,0.0,0.0,0.0,0.0,0.0,0.0,0.0,0.0,0.0,0.0,0.0,0.0,0.0,0.0,0.0,0.0,0.0,0.0,0.0,0.0,0.0,0.0,0.0,0.0,0.0,1.0035,1.002,0.999,0.999,0.998,0.998,0.998,0.998,0.998,0.998,0.999,0.999,1.0,1.002,1.003,1.0,0.999,0.998,0.995,0.992,0.988,0.982,0.974,0.973,0.973,0.973,0.973,0.973,0.973,0.973,0.974,0.976,0.976,0.977,0.977,0.98,0.98325,0.982,0.99,0.99,0.988,0.99,0.99,0.99,0.99,0.988,0.988,0.988,0.988,0.988,0.988,0.9890000000000001,0.99,0.9905,0.991,0.992,0.992,0.992,0.9927499999999999,0.993,0.994,0.995,0.995,0.995,0.996,0.996,0.997,0.997,0.998,0.998,0.998,0.999,0.999,1.0,1.001,1.002,1.002,1.002,1.003,1.003,1.003,1.002,1.002,1.001,0.999,0.999,0.998,0.998,0.998,0.997,0.997,0.997,0.997,0.997,0.0,0.0,0.0,0.0,0.0,0.0,0.0,0.0,0.0,0.0,0.0,1.312,1.312,1.312,1.307,1.304,1.304,0.0,0.0,0.0,0.0,1.115,1.109,1.103,1.097,1.094,1.092,1.09,1.088,1.088,0.0,0.0,1.085,1.079,1.086,0.0,0.0,0.0,0.0,1.155,1.157,1.161,1.158,1.161,1.1475,1.1372499999999999,1.127,0.0,0.0,0.0,1.086,1.07475,1.062,1.056,1.054,1.048,1.041,1.035,1.031,1.027,1.027,1.027,1.026,1.025,1.024,1.024,1.023,1.023,1.023,1.022,1.021,1.02,1.02,1.02,1.019,1.02,1.02,1.02,1.019,1.019,1.019,1.019,1.019,1.019,1.019,1.019,1.018,1.018,1.018,1.018,1.018,1.018,1.018,1.018,1.018,1.018,1.018,1.019,1.02,1.022,0.9224999999999999,0.9224999999999999,0.9219999999999999,0.0,0.0,0.821,0.821,0.821,0.821,0.82,0.82,0.82,0.82,0.82,0.82,0.819,0.819,0.819,0.82,0.82,0.82,0.819,0.819,0.819,0.819,0.819,0.819,0.819,0.819,0.819,0.818,0.818,0.818,0.818,0.817,0.817,0.816,0.816,0.815,0.814,0.813,0.812,0.81,0.81,0.808,0.807,0.806,0.803,0.803,0.801,0.801,0.801,0.8,0.8,0.799,0.798,0.798,0.797,0.796,0.795,0.794,0.792,0.79,0.789,0.787,0.784,0.783,0.783,0.783,0.782,0.782,0.781,0.781,0.78,0.779,0.779,0.778,0.779,0.778,0.778,0.778,0.779,0.778,0.779,0.779,0.779,0.779,0.778,0.778,0.777,0.775,0.77,0.768,0.767,0.765,0.764,0.762,0.759,0.756,0.753,0.751,0.75,0.749,0.748,0.747,0.745,0.744,0.742,0.741,0.739,0.737,0.736,0.734,0.734,0.732,0.731,0.729,0.727,0.725,0.724,0.723,0.722,0.721,0.72,0.719,0.717,0.714,0.711,0.709,0.707,0.706,0.705,0.698,0.695,0.694,0.693,0.692,0.691,0.689,0.687,0.684,0.682,0.681,0.68,0.679,0.677,0.674,0.67,0.667,0.664,0.66,0.657,0.656,0.655,0.65,0.648,0.646,0.645,0.644,0.644,0.642,0.641,0.636,0.634,0.633,0.632,0.63,0.628,0.625,0.622,0.622,0.62,0.619,0.617,0.614,0.612,0.609,0.606,0.603,0.601,0.599,0.593,0.592,0.59,0.587,0.584,0.581,0.58,0.578,0.576,0.575,0.573,0.573,0.572,0.569,0.567,0.565,0.564,0.563,0.562,0.56,0.556,0.555,0.553,0.551,0.549,0.5465,0.544,0.543,0.541,0.54,0.54
4.713,4.713,4.713,4.713,4.713,4.694,4.694,4.694,4.694,4.694,4.694,4.657,4.657,4.657,4.657,4.657,4.601,4.565,4.53,4.512,4.477,4.46,4.41,4.393,4.376,4.36,4.36,4.344,4.328,4.328,4.328,4.328,4.328,4.328,4.328,4.328,4.328,4.328,4.328,4.328,4.328,4.328,4.328,4.328,4.328,4.328,4.328,4.328,4.328,4.328,4.328,4.328,4.328,4.328,4.344,4.344,4.36,4.36,4.36,4.36,4.344,4.344,4.328,4.328,4.312,4.28,4.233,4.158,3.92,3.855,3.804,3.743,3.696,3.649,3.615,3.593,3.593,3.593,3.593,3.627,3.661,3.707,3.767,3.804,3.829,3.868,3.92,3.987,4.07,4.128,4.188,4.233,4.249,4.264,4.28,4.28,4.312,0.0,0.0,0.0,0.0,0.0,0.0,0.0,0.0,0.0,0.0,0.0,2.8455,1.089,1.089,1.088,1.088,1.088,1.088,1.088,1.088,1.088,1.088,1.089,1.089,1.089,0.0,0.0,0.0,0.0,0.0,0.0,0.0,0.0,0.0,0.0,0.0,0.0,0.0,0.0,0.0,0.0,0.0,0.0,0.0,0.0,0.0,0.0,0.0,0.0,0.0,0.0,0.0,0.0,0.0,0.0,1.01,1.009,1.006,1.001,0.999,0.999,0.999,0.999,0.999,0.999,1.0,1.002,1.003,1.006,1.007,1.006,1.004,1.002,0.999,0.998,0.996,0.992,0.987,0.9835,0.982,0.982,0.982,0.982,0.982,0.982,0.982,0.984,0.984,0.985,0.994,0.994,0.994,0.995,0.994,0.994,0.993,0.992,0.992,0.992,0.992,0.992,0.992,0.991,0.991,0.99,0.991,0.99,0.991,0.991,0.992,0.992,0.993,0.993,0.994,0.995,0.995,0.995,0.996,0.996,0.996,0.997,0.997,0.998,0.998,0.998,0.999,0.999,1.001,1.002,1.003,1.004,1.004,1.004,1.004,1.006,1.004,1.004,1.004,1.004,1.003,1.002,1.0,0.999,0.999,0.998,0.998,0.998,0.998,0.998,0.998,0.0,0.0,0.0,0.0,0.0,0.0,0.0,0.0,0.0,0.0,0.0,0.0,0.0,0.0,0.0,0.0,0.0,0.0,0.0,0.0,0.0,1.097,1.091,1.089,1.088,1.086,1.085,1.083,1.081,1.078,1.075,1.071,1.068,1.075,1.084,0.0,0.0,0.0,0.0,0.0,0.0,0.0,1.113,1.103,0.0,0.0,0.0,0.0,0.0,1.062,1.053,1.049,1.044,1.038,1.031,1.028,1.027,1.026,1.024,1.024,1.024,1.023,1.023,1.022,1.021,1.02,1.019,1.018,1.018,1.018,1.018,1.018,1.018,1.016,1.016,1.016,1.018,1.018,1.018,1.018,1.018,1.018,1.018,1.018,1.018,1.018,1.018,1.018,1.016,1.018,1.018,1.016,1.016,1.018,0.0,0.0,0.9204999999999999,0.8956249999999999,0.822,0.822,0.822,0.821,0.82,0.82,0.819,0.819,0.819,0.819,0.819,0.819,0.819,0.819,0.818,0.818,0.818,0.818,0.818,0.817,0.817,0.817,0.819,0.818,0.818,0.818,0.818,0.817,0.817,0.816,0.816,0.816,0.815,0.815,0.814,0.814,0.812,0.811,0.81,0.809,0.807,0.806,0.806,0.804,0.803,0.801,0.801,0.801,0.8,0.799,0.798,0.797,0.796,0.796,0.794,0.794,0.792,0.79,0.79,0.788,0.787,0.786,0.786,0.784,0.783,0.782,0.782,0.781,0.781,0.78,0.779,0.779,0.777,0.776,0.775,0.774,0.773,0.772,0.773,0.773,0.772,0.772,0.774,0.774,0.774,0.774,0.775,0.775,0.774,0.773,0.769,0.768,0.767,0.766,0.765,0.762,0.759,0.755,0.753,0.75,0.749,0.749,0.747,0.746,0.745,0.743,0.742,0.741,0.739,0.738,0.737,0.736,0.735,0.734,0.732,0.73,0.728,0.727,0.724,0.724,0.722,0.721,0.721,0.72,0.719,0.716,0.714,0.711,0.709,0.708,0.706,0.706,0.7,0.697,0.694,0.693,0.692,0.691,0.69,0.687,0.686,0.682,0.681,0.68,0.68,0.678,0.676,0.673,0.671,0.667,0.664,0.661,0.658,0.656,0.655,0.65,0.648,0.646,0.645,0.644,0.644,0.642,0.64,0.636,0.634,0.633,0.632,0.63,0.628,0.626,0.624,0.622,0.621,0.619,0.617,0.614,0.612,0.609,0.607,0.603,0.602,0.6,0.593,0.592,0.591,0.588,0.585,0.583,0.58,0.579,0.576,0.575,0.573,0.573,0.572,0.568,0.566,0.565,0.564,0.562,0.561,0.556,0.555,0.554,0.551,0.549,0.548,0.545,0.543,0.542,0.541,0.54,0.54
