0,0,0,0,0,0,3.234,3.207,3.189,3.172,3.155,3.121,3.096,3.055,3.024,3,2.993,2.977,2.977,2.977,2.993,2.993,3,3.024,3.039,3.055,3.08,3.096,3.113,3.121,3.138,3.138,3.146,3.146,3.155,3.155,3.155,3.155,3.155,3.163,3.163,3.163,3.163,3.163,3.163,3.163,3.172,3.172,3.181,3.181,3.181,3.189,3.189,3.198,3.207,3.225,3.234,3.27,3.298,3.336,3.394,3.434,3.465,3.496,3.549,3.649,3.743,0,3.804,3.842,3.906,4.014,4.114,4.203,4.249,4.28,4.312,4.328,4.328,4.328,4.344,4.36,4.36,4.376,4.376,4.393,4.41,4.426,4.426,4.46,4.477,4.477,4.512,4.512,4.53,4.565,4.565,4.583,4.583,4.601,4.638,4.657,4.694,4.713,4.732,4.752,4.771,4.791,4.81,4.83,4.83,4.851,4.851,4.891,4.891,4.912,4.912,4.912,4.912,4.912,4.912,4.912,4.912,4.912,4.891,4.891,4.891,4.871,4.851,4.83,4.83,4.81,4.81,4.81,4.791,4.771,4.771,4.752,4.732,4.732,4.732,4.713,4.713,4.694,4.694,4.657,4.583,4.53,4.46,4.41,4.36,4.328,4.296,4.264,4.249,4.188,4.114,3.973,3.893,3.855,3.817,3.792,3.731,3.672,3.615,3.56,3.528,3.496,3.475,3.465,3.454,3.454,3.434,3.434,3.424,3.394,0,0,0,0,0,0,0,0,0,0,0,0,0,0,0,0.81,0.808,0.807,0.805,0.803,0,0.801,0.798,0.796,0.792,0.788,0.784,0.783,0.782,0.782,0.781,0.78,0.779,0.777,0.776,0.775,0.773,0.771,0.77,0.768,0.767,0.766,0.765,0.763,0.761,0.758,0.755,0.753,0.751,0.75,0.749,0.747,0.739,0.736,0.735,0.734,0.731,0.728,0.725,0.724,0.722,0.721,0.72,0.717,0.714,0.712,0.709,0.707,0.706,0.704,0.702,0.694,0.693,0.69,0.687,0.684,0.682,0.68,0.678,0.677,0.676,0.675,0.673,0.673,0.671,0.67,0.668,0.667,0.665,0.658,0.656,0.655,0.654,0.651,0.649,0.647,0.646,0.646,0.645,0.644,0,0,0,0,0,0,0,0,0,0,0,0,0,0,0,0,0,0,0,0,0,0,0,0,0,0,0,0,0.341,0.341,0.341,0.341,0.341,0.341,0.341,0.341,0.341,0.341,0.341,0.341,0.341,0.34,0.339,0.338,0.336,0.335,0.332,0.331,0,0,0.33,0.33,0.33,0.329,0.329,0.329,0.329,0.329,0.329,0.329,0.329,0.329,0.329,0.329,0.329,0.329,0.329,0.329,0.329,0.329,0.329,0.329,0.329,0.329,0.329,0.329,0.329,0.329,0.329,0.329,0.329,0.33,0.33,0.33,0.33,0.33,0.33,0.33,0.33,0.33,0.33,0.331,0.331,0.331,0.331,0.331,0.332,0.332,0.332,0.332,0.332,0.332,0.332,0.332,0.332,0.332,0.332,0.332,0.332,0.332,0.332,0.333,0.333,0.333,0.333,0.333,0.333,0.333,0.333,0.333,0.333,0.334,0.334,0.334,0,0.335,0.335,0.335,0.335,0.335,0.335,0.335,0.335,0.335,0.335,0.335,0.335,0,0.336,0.336,0.336,0.337,0.337,0.338,0.338,0.338,0.339,0.339,0.34,0.341,0.341,0,0.342,0.342,0.343,0.344,0.345,0.345,0.345,0.347,0,0.348,0,0,0.351,0.353,0,0.355,0.356,0.358,0.359,0.359,0,0.36,0.361,0.362,0.362,0.363,0.363,0.364,0.364,0.365,0.365,0.365,0.366,0.366,0.366,0.366,0.367,0.367,0,0.368,0.368,0.368,0.368,0.368,0,0,0,0,0,0,0,0,0,0,0,0.4,0.4,0.399,0.398,0.398,0.398,0.397,0.396,0.395,0.394,0.394,0.393,0.393,0.393,0.392,0.392,0.391,0.391,0.39,0.39,0.389,0.389,0.388,0.385,0.385,0.384,0.384,0.383,0.382,0.381,0.381,0.381,0.381,0.38,0.38,0.38,0.379,0.378,0.378,0.377,0.377,0.376,0.375,0.374,0.373,0.373,0.373,0.37,0.37,0.369,0.369,0.368,0.366,0.366,0.365,0.365,0.364,0.363,0.363,0.362,0.362,0.361,0.361,0.36,0.36,0.359,0.359,0.358,0.357,0.356,0.356,0.355,0.355,0.355,0.354,0.354,0.354,0.353,0.353,0.352,0.352,0.352,0.352,0,0,0,0,0,0,0,0,0,0,0,0,0,0,0,0,0,0,0,0,0,0,0,0,0,0,0,0,0,0,0,0,0,0,0,0,0,0,0,0,0,0,0,0,0,0,0,0,0,0,0,0,0,0,0,0,0,0,0,0,0,0,0,0,0,0,0,0,0,0,0,0,0,0
0,0,0,0,0,0,3.234,3.216,3.198,3.189,3.172,3.138,3.113,3.08,3.047,3.016,3,2.993,2.977,2.977,2.993,2.993,3,3.016,3.039,3.047,3.072,3.08,3.104,3.113,3.129,3.138,3.146,3.146,3.155,3.155,3.163,3.163,3.163,3.163,3.163,3.163,3.163,3.172,3.172,3.172,3.181,3.181,3.181,3.181,3.189,3.189,3.198,3.207,3.216,3.234,3.261,3.27,3.298,3.336,3.365,3.414,3.444,3.465,3.496,3.538,3.615,3.696,3.78,0,3.829,3.88,3.973,4.085,4.188,4.249,4.28,4.312,4.328,4.344,4.344,4.344,4.36,4.376,4.376,4.393,4.41,4.426,4.426,4.46,4.477,4.477,4.512,4.512,4.53,4.53,4.565,4.565,4.583,4.601,4.638,4.638,4.657,4.694,4.713,4.732,4.752,4.771,4.81,4.81,4.83,4.851,4.851,4.871,4.891,4.891,4.891,4.912,4.912,4.912,4.912,4.912,4.891,4.891,4.871,4.851,4.851,4.83,4.83,4.81,4.81,4.791,4.771,4.752,4.732,4.732,4.713,4.694,4.694,4.657,4.657,4.638,4.638,4.601,4.583,4.53,4.477,4.46,4.393,4.36,4.328,4.296,4.264,4.249,4.203,4.128,3.946,3.88,3.842,3.804,3.743,3.672,3.593,3.549,3.506,3.475,3.465,3.454,3.444,3.434,3.424,3.404,3.404,3.384,0,0,0,0,0,0,0,0,0,0,0,0,0,0,0,0,0.807,0.807,0.806,0.805,0.803,0.801,0.801,0.8,0.797,0.794,0.789,0.786,0.783,0.782,0.781,0.78,0.778,0.776,0.775,0.773,0.771,0.769,0.768,0.767,0.767,0.766,0.765,0.765,0.761,0.758,0.757,0.754,0.752,0.751,0.749,0.747,0.74,0.737,0.735,0.734,0.731,0.728,0.724,0.722,0.721,0.72,0.718,0.716,0.713,0.71,0.708,0.707,0.706,0.704,0.701,0.696,0.694,0.692,0.69,0.686,0.682,0.681,0.68,0.676,0.675,0.674,0.673,0.672,0.672,0.67,0.669,0,0,0.664,0.657,0.655,0.654,0.65,0.649,0.647,0.646,0.645,0.644,0.644,0.643,0.643,0.642,0,0,0,0,0,0,0,0,0,0,0,0,0,0,0,0,0,0,0,0,0,0,0,0,0,0,0,0.341,0.341,0.341,0.341,0.341,0.341,0.341,0.341,0.341,0.341,0.341,0.341,0.34,0.339,0.339,0.338,0.335,0.332,0.332,0.331,0.33,0.33,0.33,0.33,0.329,0.329,0.329,0.329,0.329,0.329,0.329,0.329,0.329,0.329,0.329,0.329,0.329,0.329,0.329,0.329,0.329,0.329,0.329,0.329,0.329,0.329,0.329,0.329,0.329,0.329,0.329,0.329,0.329,0.329,0.329,0.329,0.33,0.33,0.33,0.33,0.33,0.33,0.33,0.33,0.331,0.331,0.331,0.331,0.331,0.332,0.332,0.332,0.332,0.332,0.332,0.332,0.332,0.332,0.332,0.332,0.332,0.332,0.332,0.333,0.333,0.333,0.333,0.333,0.333,0.333,0.333,0.333,0.333,0.334,0.334,0.334,0.334,0,0.335,0.335,0.335,0.335,0.335,0.335,0.335,0.335,0.335,0.335,0,0.336,0.336,0.336,0.336,0.337,0.337,0.338,0.338,0.338,0.339,0.339,0.34,0.341,0.341,0,0.342,0.342,0.343,0.344,0.345,0.345,0.346,0.347,0,0,0.349,0.351,0.352,0.353,0,0.355,0.356,0.358,0.359,0,0.36,0.361,0.362,0.362,0.363,0.363,0.364,0.364,0.364,0.365,0.365,0.365,0.366,0.366,0.366,0.367,0.367,0,0.368,0.368,0.368,0.369,0,0,0,0,0,0,0,0,0,0,0,0.398,0.398,0.398,0.398,0.398,0.397,0.397,0.396,0.395,0.394,0.394,0.393,0.393,0.392,0.392,0.391,0.39,0.39,0.39,0.389,0.389,0.389,0.388,0.387,0.385,0.384,0.383,0.382,0.382,0.381,0.381,0.381,0.381,0.38,0.38,0.379,0.378,0.378,0.378,0.377,0.377,0.376,0.376,0.375,0.374,0.373,0.373,0.37,0.37,0.369,0.369,0.368,0.367,0.366,0.366,0.365,0.364,0.363,0.363,0.362,0.362,0.361,0.36,0.36,0.359,0.359,0.359,0.358,0.358,0.357,0.356,0.355,0.355,0.355,0.354,0.354,0.353,0.352,0.352,0.352,0.352,0.352,0.352,0.351,0.352,0,0,0,0,0,0,0,0,0,0,0,0,0,0,0,0,0,0,0,0,0,0,0,0,0,0,0,0,0,0,0,0,0,0,0,0,0,0,0,0,0,0,0,0,0,0,0,0,0,0,0,0,0,0,0,0,0,0,0,0,0,0,0,0,0,0,0,0,0,0,0,0,0,0
0,0,0,0,0,3.288,3.27,3.243,3.225,3.207,3.189,3.172,3.146,3.113,3.072,3.039,3.016,3,2.993,2.977,2.977,2.993,2.993,3,3.024,3.039,3.055,3.072,3.096,3.113,3.121,3.138,3.146,3.146,3.155,3.155,3.163,3.163,3.163,3.172,3.172,3.172,3.172,3.172,3.172,3.181,3.181,3.181,3.181,3.189,3.189,3.198,3.207,3.216,3.225,3.234,3.261,3.288,3.317,3.326,3.355,3.384,3.414,3.434,3.454,3.485,3.506,3.549,3.649,3.743,3.817,0,3.868,3.933,4.07,4.188,4.249,4.28,4.312,4.328,4.328,4.344,4.36,4.36,4.376,4.393,4.41,4.41,4.426,4.46,4.46,4.477,4.477,4.512,4.53,4.53,4.565,4.565,4.583,4.601,4.638,4.638,4.657,4.694,4.713,4.732,4.752,4.771,4.791,4.81,4.83,4.83,4.851,4.851,4.871,4.871,4.891,4.891,4.891,4.891,4.891,4.871,4.851,4.851,4.851,4.83,4.83,4.81,4.791,4.771,4.752,4.732,4.713,4.694,4.694,4.657,4.638,4.638,4.601,4.601,4.583,4.583,4.565,4.53,4.512,4.477,4.41,4.376,4.344,4.328,4.296,4.264,4.249,4.203,4.158,3.946,3.88,3.829,3.804,3.731,3.627,3.549,3.496,3.465,3.454,3.444,3.434,3.414,3.404,3.365,3.355,3.355,3.326,3.317,0,0,0,0,0,0,0,0,0,0,0,0,0,0.806,0.805,0.806,0.806,0.805,0.803,0.802,0.801,0.8,0.799,0.797,0.794,0.79,0.786,0.783,0.782,0.78,0.779,0.776,0.774,0.771,0.77,0.768,0.767,0.766,0.766,0.766,0.765,0.764,0.762,0.76,0.757,0.754,0.753,0.752,0.75,0.748,0.745,0.738,0.735,0.734,0.731,0.727,0.724,0.722,0.72,0.718,0.716,0.713,0.711,0.709,0.708,0.706,0.706,0.703,0.7,0.695,0.694,0.693,0.692,0.688,0.685,0.682,0.68,0.679,0.675,0.673,0.672,0.671,0.67,0.67,0.669,0.669,0,0,0.659,0.656,0.654,0.651,0.648,0.646,0.645,0.644,0.644,0.643,0.641,0.64,0.64,0.638,0.637,0.636,0,0,0,0,0,0,0,0,0,0,0,0,0,0,0,0,0,0,0,0,0,0,0,0,0,0,0.341,0.341,0.341,0.341,0.341,0.341,0.341,0.341,0.341,0.341,0.341,0.341,0.34,0.339,0.337,0,0,0.332,0.331,0.331,0.331,0.33,0.33,0.33,0.329,0.329,0.329,0.329,0.329,0.329,0.329,0.329,0.329,0.329,0.329,0.329,0.329,0.329,0.328,0.329,0.329,0.329,0.329,0.329,0.329,0.329,0.329,0.329,0.329,0.329,0.329,0.329,0.329,0.329,0.329,0.329,0.329,0.329,0.33,0.33,0.33,0.33,0.33,0.33,0.331,0.331,0.331,0.331,0.331,0.332,0.332,0.332,0.332,0.332,0.332,0.332,0.332,0.332,0.332,0.332,0.332,0.332,0.333,0.333,0.333,0.333,0.333,0.333,0.333,0.333,0.333,0.333,0.333,0.334,0.334,0.334,0.334,0,0.335,0.335,0.335,0.335,0.335,0.335,0.335,0.335,0.335,0.335,0,0.336,0.336,0.336,0.337,0.337,0.338,0.338,0.338,0.339,0.339,0.34,0.34,0.341,0.341,0,0.342,0.342,0.344,0.344,0.345,0.345,0.346,0,0.348,0.348,0.349,0.351,0.352,0,0.354,0.355,0.356,0.358,0.359,0,0.36,0.361,0.362,0.362,0.363,0.363,0.364,0.364,0.365,0.365,0.365,0.366,0.366,0.366,0.366,0.367,0,0.368,0.368,0.368,0.368,0.368,0,0,0,0,0,0,0,0,0,0.397,0.397,0.397,0.397,0.397,0.397,0.396,0.395,0.394,0.394,0.393,0.393,0.393,0.392,0.39,0.39,0.389,0.389,0.389,0.389,0.389,0.388,0.388,0.387,0.385,0.385,0.383,0.382,0.381,0.381,0.381,0.38,0.38,0.379,0.379,0.378,0.378,0.377,0.377,0.377,0.377,0.376,0.376,0.375,0.374,0.373,0.373,0.372,0.37,0.369,0.369,0.368,0.367,0.366,0.365,0.365,0.364,0.364,0.363,0.362,0.362,0.361,0.36,0.36,0.359,0.359,0.358,0.358,0.358,0.357,0.356,0,0,0.355,0.354,0.354,0.352,0.352,0.352,0.351,0.351,0.351,0.351,0.351,0.351,0.351,0.351,0,0,0,0,0,0,0,0,0,0,0,0,0,0,0,0,0,0,0,0,0,0,0,0,0,0,0,0,0,0,0,0,0,0,0,0,0,0,0,0,0,0,0,0,0,0,0,0,0,0,0,0,0,0,0,0,0,0,0,0,0,0,0,0,0,0,0,0,0,0,0,0,0,0
0,0,0,0,0,0,3.288,3.261,3.234,3.216,3.189,3.181,3.146,3.129,3.104,3.072,3.047,3.039,3.024,3,3,2.993,2.993,3,3,3.016,3.039,3.047,3.055,3.08,3.104,3.113,3.129,3.138,3.146,3.155,3.163,3.163,3.163,3.172,3.172,3.181,3.172,3.181,3.181,3.181,3.181,3.181,3.189,3.189,3.189,3.207,3.216,3.225,3.234,3.261,3.27,3.288,3.317,3.326,3.326,3.336,3.355,3.355,3.365,3.394,3.404,3.434,3.465,3.593,3.696,3.804,3.855,0,3.933,4.056,4.188,4.249,4.28,4.312,4.328,4.328,4.344,4.36,4.376,4.376,4.393,4.41,4.426,4.46,4.46,4.477,4.477,4.512,4.53,4.53,4.565,4.565,4.583,4.601,4.601,4.638,4.657,4.694,4.713,4.732,4.752,4.771,4.791,4.81,4.81,4.83,4.83,4.851,4.851,4.851,4.871,4.851,4.851,4.851,4.851,4.851,4.83,4.83,4.81,4.81,4.791,4.771,4.752,4.732,4.694,4.657,4.638,4.638,4.601,4.583,4.583,4.565,4.53,4.53,4.53,4.512,4.477,4.46,4.426,4.41,4.376,4.344,4.328,4.296,4.28,4.249,4.203,4.158,4.085,3.893,3.842,3.804,3.731,3.627,3.549,3.496,3.454,3.444,3.424,3.404,3.394,3.365,3.336,3.317,3.317,0,0,0,0,0,0,0,0,0,0,0,0,0,0.81,0.809,0.807,0.805,0.804,0.803,0.802,0.802,0.801,0.8,0.799,0.798,0.796,0.794,0.79,0.787,0.782,0.782,0.78,0.777,0.775,0.771,0.769,0.768,0.767,0.766,0.766,0.765,0.764,0.763,0.76,0.758,0.756,0.754,0.752,0.751,0.75,0.748,0.745,0.738,0.735,0.734,0.731,0.727,0.723,0.721,0.72,0.717,0.714,0.711,0.709,0.708,0.706,0.706,0.704,0.702,0.696,0.694,0.693,0.692,0.691,0.69,0.686,0.682,0.681,0.68,0.676,0.673,0.671,0.669,0.669,0.669,0.668,0.668,0.668,0.667,0.666,0.658,0.655,0.651,0.647,0.645,0.644,0.643,0.64,0.64,0.639,0.639,0.638,0.638,0.636,0.635,0.634,0.634,0,0,0,0,0,0,0,0,0,0,0,0,0,0,0,0,0,0,0,0,0,0,0,0,0,0,0,0.34,0.341,0.341,0.341,0.341,0.341,0.341,0.341,0.341,0.341,0.341,0.34,0.339,0.337,0,0,0.332,0.331,0.331,0.33,0.33,0.33,0.329,0.329,0.329,0.329,0.329,0.329,0.329,0.329,0.329,0.329,0.329,0.328,0.328,0.328,0.328,0.328,0.328,0.328,0.328,0.329,0.329,0.329,0.329,0.329,0.329,0.329,0.329,0.329,0.329,0.329,0.329,0.329,0.329,0.329,0.329,0.33,0.33,0.33,0.33,0.33,0.33,0.33,0.331,0.331,0.331,0.331,0.331,0.332,0.332,0.332,0.332,0.332,0.332,0.332,0.332,0.332,0.332,0.332,0.332,0.333,0.333,0.333,0.333,0.333,0.333,0.333,0.333,0.333,0.333,0.333,0.334,0.334,0.334,0.334,0,0.335,0.335,0.335,0.335,0.335,0.335,0.335,0.335,0.335,0.335,0.336,0.336,0.336,0.337,0.337,0.337,0.338,0.338,0.339,0.339,0.339,0.34,0,0.341,0,0.342,0.342,0.343,0.344,0.345,0.345,0.345,0.347,0,0.348,0.348,0.35,0.351,0.352,0,0,0.355,0.356,0.358,0.359,0,0.36,0.361,0.362,0.362,0.363,0.363,0.364,0.364,0.365,0.365,0.365,0.366,0.366,0.366,0,0.367,0,0.368,0,0,0,0,0,0,0,0,0,0,0,0.394,0,0.395,0.395,0.396,0.395,0.394,0.395,0.394,0.394,0.394,0.393,0.393,0.392,0.39,0.389,0.389,0.389,0.389,0.389,0.389,0.388,0.388,0.387,0.385,0.385,0.384,0.383,0,0,0,0.38,0.38,0.379,0.379,0.378,0.378,0.378,0.377,0.377,0.377,0.376,0.375,0.374,0.374,0.373,0.373,0.373,0.37,0.369,0.369,0.368,0.367,0.366,0.365,0.365,0.364,0.363,0.363,0.362,0.362,0.362,0.361,0.36,0.359,0.359,0.359,0.358,0.358,0.356,0.356,0.355,0.355,0.355,0,0.353,0.353,0.352,0.352,0.351,0.351,0.351,0.351,0.351,0.351,0.351,0.35,0.35,0.351,0,0,0,0,0,0,0,0,0,0,0,0,0,0,0,0,0,0,0,0,0,0,0,0,0,0,0,0,0,0,0,0,0,0,0,0,0,0,0,0,0,0,0,0,0,0,0,0,0,0,0,0,0,0,0,0,0,0,0,0,0,0,0,0,0,0,0,0,0,0,0,0,0,0
0,0,0,0,0,0,3.298,3.261,3.234,3.216,3.198,3.181,3.155,3.146,3.113,3.096,3.072,3.047,3.039,3.024,3.016,3,3,3,3,3.016,3.024,3.039,3.047,3.072,3.08,3.104,3.113,3.129,3.146,3.146,3.155,3.155,3.163,3.163,3.172,3.172,3.181,3.181,3.181,3.181,3.181,3.181,3.189,3.189,3.198,3.207,3.216,3.225,3.243,3.261,3.27,3.298,3.317,3.317,3.317,3.317,3.326,3.317,3.326,3.326,3.336,3.365,3.404,3.444,3.475,3.528,3.649,3.78,3.842,3.92,4.056,4.07,4.188,4.249,4.28,4.312,4.328,4.344,4.36,4.376,4.393,4.41,4.41,4.426,4.46,4.46,4.477,4.477,4.512,4.53,4.565,4.565,4.565,4.583,4.601,4.638,4.638,4.657,4.694,4.713,4.732,4.771,4.791,4.81,4.81,4.83,4.83,4.83,4.83,4.851,4.851,4.83,4.83,4.83,4.81,4.81,4.81,4.791,4.771,4.752,4.732,4.713,4.694,4.638,4.601,4.601,4.583,4.565,4.53,4.53,4.512,4.512,4.477,4.46,4.46,4.46,4.426,4.41,4.393,4.36,4.328,4.312,4.296,4.264,4.249,4.218,4.173,4.128,4.056,3.868,3.817,3.743,3.649,3.549,3.496,3.444,3.414,3.394,3.365,3.336,3.326,3.317,3.298,3.27,0,0,0,0,0,0,0,0,0,0,0,0,0,0.811,0.809,0.808,0.805,0.804,0.802,0.801,0.801,0.801,0.8,0.798,0.797,0.795,0.792,0.789,0.786,0.782,0.781,0.779,0.777,0.773,0.77,0.768,0.767,0.766,0.765,0.765,0.764,0.761,0.76,0.757,0.756,0.754,0.753,0.751,0.75,0.748,0.745,0.737,0.735,0.734,0.73,0.727,0.723,0.721,0.719,0.715,0.712,0.709,0.708,0.706,0.706,0.704,0.702,0.7,0.695,0.693,0.693,0.691,0.69,0.687,0.686,0.684,0.681,0.68,0.677,0.674,0.672,0.669,0.668,0.668,0.667,0.667,0.667,0.667,0.666,0.664,0.657,0.654,0.649,0.645,0.644,0.64,0.639,0.637,0.636,0.635,0.635,0.634,0.634,0.634,0.633,0,0,0.632,0,0,0,0,0,0,0,0,0,0,0,0,0,0,0,0,0,0,0,0,0,0,0,0,0,0,0,0.34,0.34,0.341,0.341,0.341,0.341,0.341,0.341,0.341,0.341,0.341,0.34,0.339,0.337,0.335,0.334,0.332,0.331,0.331,0.33,0.33,0.33,0.329,0.329,0.329,0.329,0.329,0.329,0.329,0.329,0.329,0.329,0.329,0.328,0.328,0.328,0.328,0.328,0.328,0.328,0.328,0.328,0.328,0.329,0.329,0.329,0.329,0.329,0.329,0.329,0.329,0.329,0.329,0.329,0.329,0.329,0.329,0.33,0.33,0.33,0.33,0.33,0.33,0.33,0.331,0.331,0.331,0.331,0.331,0.331,0.332,0.332,0.332,0.332,0.332,0.332,0.332,0.332,0.332,0.332,0.332,0.333,0.333,0.333,0.333,0.333,0.333,0.333,0.333,0.333,0.333,0.333,0.334,0.334,0.334,0.334,0,0.335,0.335,0.335,0.335,0.335,0.335,0.335,0.335,0.335,0.336,0.336,0.336,0.336,0.337,0.337,0.338,0.338,0.338,0.339,0.339,0.339,0.34,0,0.341,0,0.342,0.342,0.343,0.344,0.345,0.345,0.346,0.347,0,0.348,0.349,0.35,0.351,0.352,0,0.354,0.355,0.356,0.358,0.359,0,0.36,0.361,0.362,0.362,0.363,0.364,0.364,0.364,0.365,0.365,0.366,0.366,0.366,0,0.367,0.367,0.368,0.368,0,0,0,0,0,0,0,0,0,0,0.393,0.393,0.394,0.394,0.394,0.394,0.394,0.394,0.393,0.393,0.393,0.393,0.392,0.391,0.389,0.389,0.389,0.389,0.388,0.388,0.388,0.388,0.387,0.386,0.385,0.384,0.384,0.382,0.381,0.381,0,0.379,0.379,0.378,0.378,0.378,0.377,0.377,0.377,0.377,0.375,0.374,0.374,0.373,0.373,0.373,0.372,0.37,0.369,0.369,0.368,0.367,0.366,0.366,0.365,0.365,0.364,0.364,0.363,0.362,0.362,0.362,0.36,0.36,0.359,0.359,0.358,0.358,0.358,0.356,0.355,0.355,0.355,0.354,0.354,0.353,0.352,0.351,0.351,0.351,0.351,0.351,0.35,0.35,0.35,0.35,0.35,0.349,0.349,0.349,0,0,0,0,0,0,0,0,0,0,0,0,0,0,0,0,0,0,0,0,0,0,0,0,0,0,0,0,0,0,0,0,0,0,0,0,0,0,0,0,0,0,0,0,0,0,0,0,0,0,0,0,0,0,0,0,0,0,0,0,0,0,0,0,0,0,0,0,0,0,0,0,0,0
0,0,0,0,0,0,3.298,3.27,3.234,3.225,3.198,3.189,3.172,3.155,3.129,3.113,3.096,3.072,3.055,3.039,3.024,3.016,3,3,3,3.016,3.024,3.024,3.039,3.047,3.072,3.08,3.104,3.113,3.129,3.146,3.146,3.155,3.163,3.163,3.163,3.172,3.172,3.172,3.181,3.181,3.181,3.181,3.189,3.189,3.189,3.207,3.216,3.234,3.243,3.261,3.27,3.298,3.317,3.317,3.326,3.317,3.317,3.317,3.298,3.317,3.317,3.317,3.336,3.384,3.434,3.465,3.528,3.649,3.767,3.842,3.933,0,4.07,4.188,4.249,4.28,4.312,4.328,4.344,4.376,4.376,4.393,4.41,4.426,4.46,4.46,4.477,4.477,4.512,4.53,4.53,4.565,4.565,4.583,4.601,4.638,4.638,4.657,4.694,4.713,4.732,4.732,4.752,4.771,4.791,4.81,4.81,4.81,4.81,4.791,4.791,4.771,4.752,4.732,4.713,4.713,4.657,4.638,4.601,4.583,4.657,4.638,4.601,4.583,4.565,4.53,4.512,4.477,4.477,4.46,4.46,4.426,4.426,4.41,4.41,4.393,4.376,4.36,4.344,4.328,4.312,4.28,4.264,4.249,4.203,4.173,4.114,4.07,3.92,3.842,3.78,3.696,3.593,3.517,3.475,3.414,3.384,3.336,3.317,3.288,3.27,3.261,0,0,0,0,0,0,0,0,0,0,0,0,0,0.814,0.811,0.81,0.807,0.805,0.803,0.802,0.801,0.801,0.8,0.798,0.797,0.795,0.792,0.79,0.786,0.784,0.781,0.78,0.777,0.775,0.771,0.769,0.767,0.766,0.765,0.765,0.763,0.76,0.759,0.757,0.754,0.753,0.752,0.751,0.75,0.748,0.744,0.737,0.735,0.733,0.729,0.725,0.722,0.72,0.719,0.714,0.71,0.708,0.707,0.706,0.705,0.703,0.7,0.696,0.694,0.693,0.692,0.691,0.688,0.687,0.684,0.682,0.681,0.68,0.677,0.675,0.672,0.669,0.668,0.668,0.667,0.666,0.664,0.663,0.662,0.658,0,0,0,0,0,0,0.637,0.635,0.635,0.634,0.633,0.633,0.633,0.632,0.632,0.632,0.632,0.632,0.631,0,0,0,0,0,0,0,0,0,0,0,0,0,0,0,0,0,0,0,0,0,0,0,0,0,0,0,0.34,0.34,0.34,0.34,0.34,0.341,0.341,0.341,0.341,0.341,0.341,0.341,0.341,0.339,0.336,0.335,0.332,0.332,0.331,0.33,0.33,0.33,0.33,0.329,0.329,0.329,0.329,0.329,0.329,0.329,0.329,0.329,0.328,0.328,0.328,0.328,0.328,0.328,0.328,0.328,0.328,0.328,0.328,0.328,0.328,0.329,0.329,0.329,0.329,0.329,0.329,0.329,0.329,0.329,0.329,0.329,0.329,0.329,0.33,0.33,0.33,0.33,0.33,0.33,0.33,0.33,0.331,0.331,0.331,0.331,0.331,0.332,0.332,0.332,0.332,0.332,0.332,0.332,0.332,0.332,0.332,0.332,0.333,0.333,0.333,0.333,0.333,0.333,0.333,0.333,0.333,0.333,0.334,0.334,0.334,0.334,0.334,0,0.335,0.335,0.335,0.335,0.335,0.335,0.335,0.335,0.335,0.336,0.336,0.336,0.337,0.337,0.338,0.338,0.338,0.339,0.339,0.339,0.34,0.34,0,0.341,0,0.342,0.342,0.343,0.344,0.345,0.345,0,0.347,0.348,0.348,0.349,0.351,0.352,0,0.353,0.354,0.355,0.357,0.358,0.359,0,0.36,0.362,0.362,0.362,0,0.364,0.364,0.365,0.365,0,0,0,0,0,0,0,0,0.37,0,0,0,0.383,0.384,0,0,0,0,0.392,0.393,0.393,0.393,0.393,0.393,0.393,0.393,0.393,0.393,0.392,0.392,0.391,0.389,0.389,0.389,0.388,0.388,0.387,0.386,0.386,0.386,0.385,0.385,0.384,0.384,0.382,0.381,0.381,0.379,0.378,0.378,0.378,0.377,0.377,0.377,0.377,0.377,0.377,0.376,0.374,0.373,0.373,0.373,0.372,0.371,0.371,0.369,0.369,0.369,0.367,0.367,0.366,0.365,0.365,0.364,0.364,0.364,0.363,0.362,0.362,0.362,0.36,0.359,0.359,0.358,0.358,0.358,0.357,0.356,0.355,0.355,0.354,0.354,0.353,0.352,0.351,0.351,0.351,0.35,0.35,0.35,0.35,0.349,0.349,0.349,0.349,0.348,0.348,0.348,0,0,0,0,0,0,0,0,0,0,0,0,0,0,0,0,0,0,0,0,0,0,0,0,0,0,0,0,0,0,0,0,0,0,0,0,0,0,0,0,0,0,0,0,0,0,0,0,0,0,0,0,0,0,0,0,0,0,0,0,0,0,0,0,0,0,0,0,0,0,0,0,0,0,0
0,0,0,0,0,0,0,3.27,3.234,3.216,3.198,3.189,3.163,3.155,3.146,3.121,3.113,3.096,3.072,3.055,3.047,3.039,3.024,3.024,3.024,3.024,3.024,3.024,3.039,3.047,3.055,3.072,3.096,3.104,3.121,3.129,3.146,3.155,3.155,3.155,3.163,3.163,3.163,3.172,3.172,3.172,3.181,3.181,3.181,3.189,3.189,3.198,3.216,3.234,3.243,3.27,3.288,3.317,3.326,3.326,3.336,3.336,3.326,3.317,3.317,3.317,3.298,3.298,3.298,3.336,3.365,3.434,3.465,3.528,3.649,3.767,3.842,3.933,0,4.07,4.188,4.249,4.28,4.312,4.328,4.36,4.376,4.393,4.41,4.426,4.426,4.46,4.477,4.477,4.512,4.512,4.53,4.565,4.565,4.583,4.601,4.638,4.638,4.657,4.694,4.694,4.713,4.732,4.752,4.771,4.771,4.791,4.791,4.771,4.771,4.752,4.732,4.713,4.694,4.657,4.638,4.601,4.583,4.565,4.53,4.512,4.477,4.477,4.46,4.426,4.426,4.41,4.426,4.41,4.41,4.393,4.393,4.393,4.376,4.36,4.344,4.344,4.328,4.328,4.328,4.312,4.28,4.264,4.249,4.203,4.188,4.128,4.085,4.056,3.906,3.829,3.743,3.627,3.528,3.485,3.414,3.355,3.317,3.288,3.243,3.225,0,0,0,0,0,0,0,0,0,0,0,0,0,0.815,0.813,0.811,0.81,0.808,0.807,0.803,0.802,0.801,0.8,0.799,0.798,0.796,0.792,0.79,0.787,0.784,0.782,0.78,0.778,0.776,0.773,0.77,0.768,0.766,0.766,0.765,0.763,0.762,0.757,0.754,0.753,0.752,0.751,0.75,0.748,0.745,0.742,0.736,0.734,0.733,0.728,0.724,0.722,0.72,0.716,0.712,0.709,0.708,0.706,0.706,0.704,0.702,0.7,0.695,0.694,0.693,0.692,0.69,0.688,0.686,0.683,0.682,0.681,0.68,0.679,0.676,0.673,0,0.669,0.668,0.667,0.665,0.664,0.662,0.658,0.657,0.656,0,0,0,0,0,0,0.635,0.634,0.633,0.633,0.632,0.632,0.631,0.631,0.63,0.629,0,0,0,0,0,0,0,0,0,0,0,0,0,0,0,0,0,0,0,0,0,0,0,0,0,0,0,0,0,0,0,0.339,0.34,0.34,0.34,0.34,0.341,0.341,0.341,0.342,0.342,0.342,0.341,0.341,0.34,0,0,0.332,0.331,0.33,0.33,0.33,0.329,0.329,0.329,0.329,0.329,0.329,0.329,0.329,0.329,0.329,0.329,0.328,0.328,0.328,0.328,0.328,0.328,0.328,0.328,0.328,0.328,0.328,0.328,0.328,0.328,0.328,0.328,0.329,0.329,0.329,0.329,0.329,0.329,0.329,0.329,0.329,0.329,0.33,0.33,0.33,0.33,0.33,0.33,0.33,0.33,0.33,0.331,0.331,0.331,0.331,0.332,0.332,0.332,0.332,0.332,0.332,0.332,0.332,0.332,0.332,0.333,0.333,0.333,0.333,0.333,0.333,0.333,0.333,0.333,0.334,0.334,0.334,0.334,0.334,0.334,0.334,0,0.335,0.335,0.335,0.335,0.335,0.335,0.335,0.335,0.336,0.336,0.336,0.336,0.337,0.337,0.338,0.338,0.338,0.339,0.339,0.339,0.34,0,0.341,0.341,0.342,0.342,0.342,0.343,0.344,0.345,0.346,0,0.347,0.348,0.349,0.35,0.351,0.352,0,0.353,0.355,0.355,0.357,0.358,0.359,0,0.361,0.362,0.362,0.363,0.364,0.364,0.365,0,0,0,0,0,0,0,0,0,0,0.393,0.393,0.392,0.391,0.391,0.39,0.39,0.39,0.39,0.391,0.391,0.392,0.392,0.392,0.393,0.393,0.393,0.393,0.392,0.391,0.391,0.389,0.389,0.389,0.388,0.388,0.386,0.386,0.385,0.385,0.385,0.385,0.384,0.384,0,0,0.381,0.381,0.378,0.378,0.377,0.377,0.377,0.377,0.377,0.376,0.376,0.376,0.374,0.373,0.373,0.372,0.371,0.37,0.37,0.369,0.369,0.369,0.368,0.367,0,0.366,0.365,0.364,0.364,0.363,0.363,0.362,0.362,0.362,0.361,0.36,0.359,0.358,0.358,0.358,0.357,0.356,0.355,0.355,0.355,0.354,0.353,0.352,0.352,0.351,0.351,0.35,0.349,0.349,0.349,0.349,0.349,0.349,0.348,0.348,0.348,0.348,0.348,0.348,0,0,0,0,0,0,0,0,0,0,0,0,0,0,0,0,0,0,0,0,0,0,0,0,0,0,0,0,0,0,0,0,0,0,0,0,0,0,0,0,0,0,0,0,0,0,0,0,0,0,0,0,0,0,0,0,0,0,0,0,0,0,0,0,0,0,0,0,0,0,0,0,0,0,0
0,0,0,0,0,0,0,0,3.234,3.216,3.198,3.189,3.181,3.163,3.155,3.138,3.129,3.113,3.104,3.096,3.072,3.055,3.047,3.039,3.039,3.039,3.039,3.039,3.039,3.047,3.055,3.072,3.08,3.096,3.104,3.121,3.138,3.146,3.146,3.155,3.155,3.163,3.163,3.163,3.163,3.172,3.172,3.181,3.181,3.189,3.189,3.198,3.207,3.225,3.243,3.27,3.288,3.317,3.336,3.355,3.355,3.355,3.355,3.336,3.326,3.317,3.317,3.288,3.298,3.298,3.336,3.394,3.444,3.475,3.528,3.661,3.767,3.842,3.933,0,4.07,4.173,4.249,4.28,4.312,4.344,4.36,4.376,4.393,4.41,4.426,4.46,4.46,4.477,4.477,4.512,4.53,4.53,4.565,4.565,4.583,4.601,4.638,4.657,4.657,4.694,4.713,4.732,4.752,4.752,4.752,4.771,4.752,4.732,4.732,4.713,4.657,4.657,4.601,4.583,4.565,4.53,4.512,4.477,4.46,4.46,4.426,4.41,4.41,4.393,4.41,4.41,4.393,4.393,4.393,4.376,4.376,4.376,4.36,4.344,4.344,4.328,4.328,4.312,4.296,4.264,4.249,4.233,4.203,4.158,4.114,4.07,4.014,3.92,3.88,3.804,3.672,3.56,3.496,3.465,3.365,3.317,0,0,0,0,0,0,0,0,0,0,0,0,0.816,0.816,0.816,0.815,0.814,0.812,0.81,0.81,0.809,0.808,0.804,0.802,0.801,0.8,0.798,0.797,0.794,0.791,0.787,0.784,0.783,0.78,0.778,0.775,0.771,0.769,0.768,0.766,0.766,0.765,0.764,0.762,0.757,0.754,0.752,0.751,0.75,0.749,0.747,0.743,0.737,0.735,0.734,0.731,0.727,0.724,0.721,0.719,0.714,0.711,0.709,0.707,0.706,0.705,0.703,0.7,0.698,0.695,0.694,0.693,0.692,0.69,0.688,0.686,0.684,0.682,0.68,0.68,0.679,0.676,0.674,0.671,0.669,0.668,0.667,0.664,0.663,0.658,0.657,0.655,0.655,0.653,0,0,0,0,0.636,0.634,0.633,0.632,0.631,0.63,0.629,0.628,0.627,0.627,0.626,0,0,0,0,0,0,0,0,0,0,0,0,0,0,0,0,0,0,0,0,0,0,0,0,0,0,0,0,0,0,0,0,0.339,0.339,0.339,0.34,0.34,0.34,0.34,0.341,0.341,0.341,0.341,0.342,0,0,0,0,0.332,0.331,0.33,0.33,0.33,0.329,0.329,0.329,0.329,0.329,0.329,0.329,0.329,0.329,0.329,0.328,0.328,0.328,0.328,0.328,0.328,0.328,0.328,0.328,0.328,0.328,0.328,0.328,0.328,0.328,0.328,0.328,0.328,0.328,0.328,0.329,0.329,0.329,0.329,0.329,0.329,0.329,0.329,0.329,0.33,0.33,0.33,0.33,0.33,0.33,0.33,0.33,0.331,0.331,0.331,0.331,0.331,0.332,0.332,0.332,0.332,0.332,0.332,0.332,0.332,0.332,0.332,0.333,0.333,0.333,0.333,0.333,0.333,0.334,0.334,0.334,0.334,0.334,0.334,0.334,0.334,0,0.335,0.335,0.335,0.335,0.335,0.335,0.335,0.335,0.336,0.336,0.336,0.336,0.337,0.337,0.338,0.338,0.338,0.339,0.339,0.339,0.34,0,0.341,0.341,0.341,0.342,0.342,0.343,0.344,0.345,0.345,0.346,0,0.347,0.348,0.349,0.35,0.351,0.352,0,0.354,0.355,0.356,0.357,0.358,0,0.36,0.361,0.362,0.362,0.363,0,0.364,0,0,0,0,0,0,0,0,0,0,0.393,0.393,0.392,0.392,0.392,0.391,0.391,0.39,0.39,0.39,0.39,0.391,0.391,0.391,0.391,0.392,0.392,0.392,0.391,0.391,0.39,0.389,0.389,0.388,0.387,0.386,0.386,0.385,0.385,0.385,0.384,0.384,0.383,0.382,0.382,0,0,0.378,0.377,0.377,0.377,0.377,0.376,0.376,0.376,0.376,0.375,0.374,0.373,0.373,0,0,0,0,0.369,0.369,0.368,0.368,0.367,0.366,0,0,0.364,0.363,0.363,0.362,0.362,0.362,0.362,0.36,0.359,0.359,0.359,0.358,0.358,0.357,0.356,0.355,0.355,0.355,0.354,0.354,0.353,0.352,0.352,0.351,0.351,0.35,0.349,0.349,0.349,0.348,0.348,0.348,0.348,0.348,0.347,0.347,0.347,0,0,0,0,0,0,0,0,0,0,0,0,0,0,0,0,0,0,0,0,0,0,0,0,0,0,0,0,0,0,0,0,0,0,0,0,0,0,0,0,0,0,0,0,0,0,0,0,0,0,0,0,0,0,0,0,0,0,0,0,0,0,0,0,0,0,0,0,0,0,0,0,0,0,0,0,0
0,0,0,0,0,0,0,0,0,3.216,3.198,3.189,3.189,3.172,3.155,3.146,3.146,3.129,3.121,3.113,3.096,3.08,3.072,3.072,3.055,3.055,3.055,3.047,3.047,3.055,3.055,3.072,3.08,3.096,3.104,3.121,3.129,3.138,3.146,3.155,3.155,3.163,3.163,3.163,3.163,3.172,3.172,3.181,3.181,3.181,3.189,3.198,3.207,3.225,3.243,3.27,3.288,3.317,3.336,3.365,3.384,3.384,3.365,3.355,3.355,3.336,3.326,3.317,3.317,3.317,3.326,3.365,3.414,3.454,3.485,3.538,3.661,3.78,3.855,3.933,0,4.07,4.188,4.249,4.28,4.328,4.36,4.376,4.393,4.41,4.426,4.426,4.46,4.477,4.477,4.512,4.53,4.53,4.565,4.565,4.583,4.601,4.638,4.657,4.657,4.694,4.713,4.732,4.732,4.752,4.752,4.732,4.732,4.713,4.694,4.657,4.601,4.583,4.565,4.53,4.477,4.46,4.426,4.41,4.41,4.393,4.393,4.393,4.393,4.393,4.393,4.393,4.376,4.376,4.376,4.376,4.376,4.36,4.36,4.344,4.328,4.328,4.312,4.312,4.28,4.264,4.249,4.218,4.173,4.114,4.07,4.028,3.987,3.946,0,0,0,0,0,3.454,0,0,0,0,0,0,0,0,0,0,0,0,0.814,0.814,0.814,0.814,0.813,0.813,0.813,0.811,0.81,0.807,0.807,0.803,0.801,0.801,0.8,0.799,0.797,0.794,0.79,0.786,0.784,0.781,0.778,0.775,0.772,0.769,0.767,0.767,0.766,0.765,0.763,0.761,0.756,0.753,0.752,0.75,0.749,0.747,0.745,0.742,0.736,0.734,0.733,0.73,0.726,0.722,0.721,0.719,0.712,0.709,0.708,0.706,0.706,0.703,0.7,0.699,0.695,0.694,0.693,0.693,0.691,0.69,0.688,0.686,0.683,0.681,0.68,0.68,0.679,0.675,0.673,0.671,0.669,0.668,0.667,0.667,0.664,0.661,0.657,0.655,0.654,0.651,0.649,0.647,0.645,0.644,0,0,0.632,0.631,0.629,0.628,0.626,0.625,0.623,0.623,0.623,0.622,0.622,0.622,0.622,0.622,0,0,0,0,0,0,0,0,0,0,0,0,0,0,0,0,0,0,0,0,0,0,0,0,0,0,0,0.338,0.338,0.338,0.339,0.339,0.339,0.339,0.34,0.34,0.341,0.341,0.342,0.342,0.342,0.342,0,0,0,0,0,0.33,0.33,0.329,0.329,0.329,0.329,0.329,0.329,0.328,0.328,0.328,0.328,0.328,0.328,0.328,0.328,0.328,0.328,0.328,0.328,0.328,0.328,0.328,0.328,0.328,0.328,0.328,0.328,0.328,0.328,0.328,0.328,0.328,0.328,0.329,0.329,0.329,0.329,0.329,0.329,0.329,0.329,0.33,0.33,0.33,0.33,0.33,0.33,0.33,0.33,0.331,0.331,0.331,0.331,0.331,0.332,0.332,0.332,0.332,0.332,0.332,0.332,0.332,0.332,0.333,0.333,0.333,0.333,0.333,0.333,0,0.334,0.334,0.334,0.334,0.334,0.334,0.334,0,0.335,0.335,0.335,0.335,0.335,0.335,0.335,0.335,0.336,0.336,0.336,0.336,0.337,0.337,0.337,0.338,0.338,0.338,0.339,0.339,0.34,0.34,0,0.341,0.341,0.342,0.342,0.342,0.343,0.344,0.345,0.345,0.346,0,0.348,0.348,0.349,0.351,0.352,0,0.353,0.354,0.355,0.356,0.358,0.359,0,0.36,0.361,0.362,0.362,0.363,0.364,0,0,0,0,0,0,0,0,0,0,0,0.393,0.392,0.392,0.392,0.392,0.391,0.391,0.39,0.39,0.39,0.39,0.39,0.39,0.39,0.39,0.39,0.39,0.39,0.39,0.389,0.389,0.388,0.387,0.386,0.386,0.385,0.385,0.385,0.384,0.383,0.383,0.382,0.381,0.381,0.381,0,0,0.377,0.377,0.376,0.376,0.375,0.375,0.375,0.375,0.374,0.373,0.373,0.373,0.372,0.37,0,0.368,0.367,0.367,0.366,0.366,0.366,0.366,0.366,0.364,0.364,0.363,0.362,0.362,0.362,0.362,0.361,0,0,0,0,0.358,0.358,0.357,0.355,0.355,0.355,0.355,0.354,0.353,0.352,0,0.351,0.351,0.35,0.35,0.349,0.348,0.348,0.348,0.348,0.348,0,0,0,0,0.346,0.345,0,0,0,0,0,0,0,0,0,0,0,0,0,0,0,0,0,0,0,0,0,0,0,0,0,0,0,0,0,0,0,0,0,0,0,0,0,0,0,0,0,0,0,0,0,0,0,0,0,0,0,0,0,0,0,0,0,0,0,0,0,0,0,0,0,0,0,0,0,0,0,0,0,0,0,0,0
0,0,0,0,0,0,0,0,0,0,3.207,3.189,3.189,3.181,3.163,3.155,3.155,3.146,3.146,3.129,3.121,3.113,3.104,3.096,3.096,3.08,3.072,3.072,3.072,3.072,3.072,3.08,3.08,3.096,3.104,3.113,3.129,3.138,3.146,3.146,3.155,3.163,3.163,3.163,3.163,3.172,3.172,3.181,3.181,3.189,3.189,3.198,3.207,3.216,3.234,3.261,3.288,3.317,3.336,3.365,3.384,3.394,3.394,3.384,3.384,3.365,3.355,3.336,3.326,3.326,3.336,3.355,3.384,3.424,3.454,3.496,3.549,3.672,3.792,3.855,3.946,0,4.07,4.188,4.264,4.296,4.328,4.36,4.376,4.393,4.41,4.426,4.46,4.477,4.477,4.512,4.512,4.53,4.565,4.565,4.583,4.601,4.638,4.638,4.657,4.694,4.713,4.713,4.732,4.732,4.713,4.713,4.694,4.657,4.638,4.601,4.565,4.53,4.477,4.46,4.426,4.41,4.393,4.376,4.36,4.376,4.376,4.376,4.36,4.36,4.376,4.376,4.376,4.376,4.376,4.376,4.376,4.36,4.36,4.344,4.328,4.328,4.312,4.296,4.28,4.264,4.249,0,0,4.114,4.056,0,0,0,0,0,0,0,0,0,0,0,0,0,0,0,0,0.815,0,0,0.81,0.812,0.811,0.81,0.811,0.812,0.812,0.811,0.81,0.808,0.806,0.805,0.802,0.802,0.801,0.8,0.798,0.796,0.792,0.789,0.786,0.783,0.779,0.775,0.771,0.769,0.767,0.766,0.765,0.765,0.763,0.757,0.754,0.753,0.751,0.75,0.749,0.746,0.743,0.739,0.735,0.734,0,0.728,0.724,0.722,0.72,0.718,0.711,0.709,0.706,0.706,0.705,0.702,0.7,0.698,0.694,0.693,0.693,0.692,0.691,0.689,0.687,0.685,0.683,0.681,0.68,0.68,0.676,0.674,0.672,0.67,0.669,0.668,0.667,0.666,0.663,0.661,0.656,0.655,0.653,0.651,0.647,0.645,0.643,0.639,0.635,0.633,0.63,0.627,0.625,0.623,0.622,0.622,0.622,0.621,0.621,0.62,0.62,0.619,0.619,0.619,0.619,0,0,0,0,0,0,0,0,0,0,0,0,0,0,0,0,0,0,0,0,0,0,0,0,0,0,0,0,0,0.337,0.338,0.338,0.339,0.339,0.339,0.34,0.34,0.341,0.341,0.342,0.342,0.342,0.342,0,0,0,0,0,0.329,0.329,0.329,0.329,0.329,0.329,0.328,0.328,0.328,0.328,0.328,0.328,0.328,0.328,0.328,0.328,0.328,0.328,0.328,0.328,0.328,0.328,0.328,0.328,0.328,0.328,0.328,0.328,0.328,0.328,0.328,0.328,0.328,0.328,0.329,0.329,0.329,0.329,0.329,0.329,0.329,0.329,0.329,0.33,0.33,0.33,0.33,0.33,0.33,0.33,0.331,0.331,0.331,0.331,0.331,0.332,0.332,0.332,0.332,0.332,0.332,0.332,0.332,0.332,0.333,0.333,0.333,0.333,0.333,0.333,0,0.334,0.334,0.334,0.334,0.334,0.334,0,0.335,0.335,0.335,0.335,0.335,0.335,0.335,0.335,0.336,0.336,0.336,0.336,0.337,0.337,0.338,0.338,0.338,0.338,0.339,0.339,0.339,0.34,0,0.341,0.341,0.341,0.342,0.342,0.343,0.344,0.344,0.345,0.345,0.346,0,0.348,0.349,0.35,0.351,0.352,0,0.353,0.355,0.356,0.357,0.358,0.359,0,0.36,0.361,0.362,0.362,0.363,0.364,0,0,0,0,0,0,0,0,0,0,0.393,0.393,0.392,0.392,0.391,0.391,0.391,0.39,0.39,0.39,0.389,0.389,0.389,0.389,0.389,0.389,0.389,0.389,0.389,0.389,0.388,0.387,0.386,0.386,0.385,0.385,0.385,0.384,0.383,0.382,0.382,0.381,0.381,0.381,0.378,0.378,0.377,0.377,0.376,0.375,0.375,0.374,0.373,0,0.373,0.373,0.373,0.373,0.372,0.371,0,0.368,0.367,0.366,0.366,0.366,0.365,0.365,0.365,0.364,0.364,0.363,0.362,0.362,0.362,0.361,0.361,0.36,0.359,0,0,0,0,0.356,0.356,0.355,0.355,0.354,0.354,0.354,0.352,0.352,0.351,0.35,0.35,0.349,0.349,0.348,0.348,0.348,0.347,0.347,0.347,0.347,0,0,0,0,0.345,0.345,0,0,0,0,0,0,0,0,0,0,0,0,0,0,0,0,0,0,0,0,0,0,0,0,0,0,0,0,0,0,0,0,0,0,0,0,0,0,0,0,0,0,0,0,0,0,0,0,0,0,0,0,0,0,0,0,0,0,0,0,0,0,0,0,0,0,0,0,0,0,0,0,0,0,0,0,0
0,0,0,0,0,0,0,0,0,0,0,3.198,3.198,3.189,3.181,3.163,3.163,3.155,3.155,3.146,3.146,3.138,3.129,3.121,3.113,3.113,3.104,3.104,3.096,3.096,3.096,3.096,3.104,3.104,3.113,3.121,3.129,3.138,3.146,3.155,3.155,3.163,3.163,3.163,3.163,3.172,3.181,3.181,3.181,3.189,3.189,3.198,3.207,3.225,3.234,3.261,3.288,3.317,3.336,3.384,3.394,3.404,3.404,3.404,3.404,3.394,3.384,3.365,3.365,3.355,3.336,3.355,3.384,3.404,3.434,3.465,3.496,3.56,3.696,3.804,3.868,3.973,0,4.114,4.218,4.28,4.312,4.344,4.376,4.393,4.41,4.426,4.46,4.46,4.477,4.477,4.512,4.53,4.53,4.565,4.583,4.601,4.638,4.638,4.657,4.694,4.713,4.713,4.713,4.713,4.694,4.694,4.657,4.638,4.601,4.565,4.53,4.477,4.46,4.41,4.393,4.376,4.376,4.36,4.36,4.344,4.344,4.36,4.36,4.36,4.376,4.376,4.376,4.376,4.376,4.376,4.376,4.36,4.36,4.344,4.344,4.328,4.312,4.312,4.28,0,0,0,0,4.07,0,0,0,0,0,0,0,0,0,0,0,0,0,0,0,0,0.81,0.81,0.806,0.806,0.806,0.806,0.806,0.807,0.806,0.806,0.805,0.805,0.808,0.805,0.803,0.802,0.801,0.801,0.8,0.798,0.796,0.792,0.788,0.784,0.782,0.777,0.773,0.769,0.767,0.766,0.765,0.763,0.762,0.757,0.754,0.753,0.751,0.75,0.748,0.745,0.742,0.739,0.734,0.733,0.731,0.728,0.724,0.722,0.72,0.714,0.71,0.708,0.707,0.706,0.704,0.702,0.699,0.696,0.693,0.693,0.692,0.691,0.69,0.688,0.686,0.684,0.682,0.682,0.68,0.68,0.678,0.674,0.672,0.67,0.669,0.668,0.667,0.665,0.662,0.66,0.657,0.655,0.653,0.649,0,0.645,0.643,0,0,0.633,0.632,0.629,0.626,0.622,0.622,0.621,0.621,0.62,0.619,0.617,0.617,0.616,0.615,0.614,0.614,0.614,0.614,0,0,0,0,0,0,0,0,0,0,0,0,0,0,0,0,0,0,0,0,0,0,0,0,0.336,0.336,0.336,0,0.337,0.337,0.337,0.338,0.338,0.338,0.339,0.339,0.339,0.34,0.341,0.341,0.341,0.342,0.342,0,0,0,0,0.329,0.329,0.329,0.329,0.328,0.328,0.328,0.328,0.328,0.328,0.328,0.328,0.328,0.328,0.328,0.328,0.328,0.328,0.328,0.328,0.328,0.328,0.328,0.328,0.328,0.328,0.328,0.328,0.328,0.328,0.328,0.328,0.328,0.328,0.328,0.329,0.329,0.329,0.329,0.329,0.329,0.329,0.329,0.329,0.33,0.33,0.33,0.33,0.33,0.33,0.33,0.33,0.331,0.331,0.331,0.331,0.332,0.332,0.332,0.332,0.332,0.332,0.332,0.332,0.333,0.333,0.333,0.333,0.333,0.333,0,0.334,0.334,0.334,0.334,0.334,0,0.335,0.335,0.335,0.335,0.335,0.335,0.335,0.335,0.335,0.335,0.336,0.336,0.336,0.337,0.337,0.338,0.338,0.338,0.338,0.339,0.339,0.339,0.34,0.34,0,0.341,0.341,0.342,0.342,0.342,0.343,0.344,0.345,0.345,0.345,0,0.347,0.348,0.349,0.35,0.351,0.352,0,0.354,0.355,0.356,0.357,0.358,0.359,0,0.36,0.361,0.362,0.362,0.364,0,0,0,0,0,0,0,0,0.391,0,0.392,0.392,0.392,0.392,0.392,0.392,0.391,0.391,0.391,0.39,0.39,0.389,0.389,0.389,0.389,0.389,0.389,0.388,0.388,0.388,0.388,0.386,0.386,0.385,0.385,0.385,0.383,0.383,0.382,0.381,0.381,0.381,0.381,0.38,0.379,0.377,0.377,0.376,0.375,0.374,0.373,0.373,0.373,0.373,0.373,0.373,0.372,0.372,0.371,0.37,0.369,0.368,0.366,0.366,0.366,0.365,0.365,0.364,0.363,0.363,0.362,0.362,0.362,0.361,0.361,0.359,0.359,0.359,0.358,0.358,0,0,0,0.355,0.355,0.355,0.354,0.353,0.353,0.352,0.352,0.351,0.35,0.349,0.349,0.348,0.348,0.348,0.348,0.346,0.345,0.345,0.345,0.345,0,0,0,0,0,0,0,0,0,0,0,0,0,0,0,0,0,0,0,0,0,0,0,0,0,0,0,0,0,0,0,0,0,0,0,0,0,0,0,0,0,0,0,0,0,0,0,0,0,0,0,0,0,0,0,0,0,0,0,0,0,0,0,0,0,0,0,0,0,0,0,0,0,0,0,0,0,0,0,0,0,0,0,0
0,0,0,0,0,0,0,0,0,0,0,3.207,3.207,3.198,3.189,3.181,3.181,3.172,3.163,3.163,3.155,3.155,3.155,3.146,3.146,3.138,3.129,3.121,3.121,3.113,3.113,3.113,3.113,3.113,3.121,3.129,3.138,3.146,3.146,3.155,3.155,3.163,3.163,3.163,3.172,3.172,3.181,3.181,3.189,3.189,3.189,3.207,3.216,3.225,3.234,3.261,3.288,3.326,3.355,3.384,3.404,3.414,3.424,3.424,3.424,3.424,3.414,3.404,3.394,3.384,3.384,3.384,3.394,3.404,3.424,3.444,3.465,3.496,3.582,3.707,3.804,3.88,3.987,0,4.128,4.249,4.28,4.328,4.36,4.393,4.393,4.41,4.426,4.46,4.477,4.477,4.512,4.53,4.53,4.565,4.583,4.601,4.601,4.638,4.657,4.694,4.694,4.713,4.713,4.694,4.657,4.657,4.601,4.583,4.565,4.512,4.477,4.46,4.41,4.393,4.376,4.36,4.36,4.344,4.344,4.328,4.344,4.344,4.344,4.36,4.36,4.376,4.376,4.376,4.376,4.376,4.376,4.376,4.36,4.36,4.344,4.328,4.312,4.312,0,0,0,0,0,0,0,0,0,0,0,0,0,0,0,0,0,0,0,0,0.818,0.814,0.803,0.803,0.804,0.803,0.803,0.804,0.803,0.803,0.802,0.802,0.801,0.801,0.801,0.8,0.799,0.798,0.796,0.794,0.791,0.795,0.79,0.786,0.783,0.779,0.775,0.77,0.767,0.766,0.765,0.763,0.761,0.756,0.754,0.753,0.751,0.75,0.748,0.745,0.741,0.738,0.734,0.733,0.729,0.726,0.723,0.721,0.72,0.718,0.711,0.708,0.707,0.706,0.704,0.701,0.698,0.696,0.693,0.693,0.692,0.69,0.688,0.686,0.684,0.683,0.682,0.68,0.68,0.679,0.678,0.674,0.671,0.67,0.668,0.668,0.667,0.665,0.663,0.66,0.656,0.655,0.654,0.651,0.647,0.645,0.644,0.637,0.634,0.632,0.631,0.629,0,0,0.622,0.621,0.62,0.619,0.618,0.617,0.614,0.613,0.613,0.612,0.612,0.612,0.612,0.612,0,0,0,0,0,0,0,0,0,0,0,0,0,0,0,0,0,0,0,0,0,0,0,0,0,0,0.335,0.336,0.336,0.336,0.336,0,0.337,0,0.338,0.338,0.338,0.339,0.339,0.34,0.34,0.34,0,0,0,0,0.328,0.328,0.328,0.328,0.328,0.328,0.328,0.328,0.327,0.327,0.327,0.327,0.327,0,0.328,0.328,0.328,0.328,0.328,0.328,0.328,0.328,0.328,0.328,0.328,0.328,0.328,0.328,0.328,0.328,0.328,0.328,0.328,0.328,0.328,0.328,0.328,0.329,0.329,0.329,0.329,0.329,0.329,0.329,0.329,0.329,0.329,0.33,0.33,0.33,0.33,0.33,0.33,0.33,0.331,0.331,0.331,0.331,0.332,0.332,0.332,0.332,0.332,0.332,0.332,0.332,0.333,0.333,0.333,0.333,0.333,0.333,0,0.334,0.334,0.334,0.334,0,0.335,0.335,0.335,0.335,0.335,0.335,0.335,0.335,0.335,0.335,0.336,0.336,0.336,0.337,0.337,0.337,0.338,0.338,0.338,0.338,0.339,0.339,0.339,0.34,0,0.341,0.341,0.341,0.342,0.342,0.343,0.344,0.344,0.345,0.345,0.346,0,0.348,0.348,0.35,0.351,0.352,0,0.353,0.354,0.355,0.357,0.358,0,0.359,0,0.361,0,0,0.364,0.365,0,0,0,0,0,0,0,0.389,0,0.39,0,0.391,0.391,0.391,0.392,0.391,0.391,0.391,0.39,0.39,0.389,0.389,0.389,0.389,0.389,0.388,0.388,0.387,0.386,0.386,0.386,0.385,0.385,0.384,0.384,0.382,0.382,0.381,0.381,0.381,0.38,0.38,0.379,0.377,0.377,0.377,0.376,0.375,0.374,0.373,0.373,0.372,0.372,0.371,0.371,0.371,0.37,0,0,0.368,0.367,0.366,0.366,0.365,0.364,0.363,0.363,0.362,0.362,0.362,0.361,0.361,0.36,0.359,0.359,0.358,0.358,0.357,0.356,0.355,0.354,0.354,0.353,0.353,0.353,0.353,0.352,0,0,0.351,0.351,0.35,0.349,0.348,0.348,0.348,0.347,0.347,0,0,0.345,0.344,0.343,0.343,0.343,0,0,0,0,0,0,0,0,0,0,0,0,0,0,0,0,0,0,0,0,0,0,0,0,0,0,0,0,0,0,0,0,0,0,0,0,0,0,0,0,0,0,0,0,0,0,0,0,0,0,0,0,0,0,0,0,0,0,0,0,0,0,0,0,0,0,0,0,0,0,0,0,0,0,0,0,0,0,0,0,0,0,0
0,0,0,0,0,0,0,0,0,0,0,3.216,3.216,3.216,3.207,3.207,3.189,3.189,3.189,3.181,3.181,3.172,3.163,3.163,3.155,3.155,3.146,3.146,3.138,3.138,3.129,3.129,3.121,3.129,3.129,3.138,3.146,3.146,3.155,3.155,3.155,3.163,3.163,3.172,3.172,3.181,3.181,3.181,3.189,3.189,3.189,3.198,3.216,3.234,3.243,3.261,3.298,3.326,3.355,3.384,3.414,3.424,3.434,3.444,3.444,3.444,3.444,3.434,3.434,3.424,3.414,3.404,3.404,3.404,3.414,3.434,3.454,3.475,3.517,3.615,3.731,3.829,3.893,4.056,0,4.188,4.264,4.312,4.328,4.376,4.376,4.41,4.426,4.46,4.46,4.477,4.512,4.53,4.53,4.565,4.583,4.601,4.601,4.638,4.657,4.657,4.694,4.694,4.657,4.657,4.638,4.638,4.583,4.565,4.53,4.477,4.46,4.426,4.393,4.376,4.36,4.344,4.344,4.328,4.328,4.328,4.344,4.344,4.344,4.36,4.36,4.376,4.393,4.393,4.393,4.393,4.393,4.376,4.376,4.36,4.344,4.328,4.312,4.312,4.28,0,0,4.173,0,0,0,0,0,0,0,0,0,0,0,0,0,0,0,0,0.803,0.802,0.801,0.802,0.801,0.801,0.801,0.801,0.801,0.801,0.8,0.799,0.798,0.798,0.798,0.796,0.794,0.792,0.79,0.786,0.784,0.783,0.777,0.773,0.768,0.766,0.765,0.766,0.765,0.763,0.76,0.755,0.754,0.752,0.751,0.75,0.748,0.745,0.742,0.738,0.734,0.732,0.728,0.724,0.722,0.72,0.719,0.718,0.711,0.709,0.707,0.706,0.704,0.701,0.698,0.695,0.693,0.692,0.691,0.689,0.687,0.685,0.684,0.682,0.681,0.68,0.68,0.679,0.677,0.674,0.672,0.669,0.668,0.667,0.666,0.665,0.663,0.661,0.657,0.655,0.654,0.653,0.65,0.646,0.644,0,0.635,0.633,0.631,0.628,0.627,0.624,0.622,0,0,0.619,0.616,0.615,0.613,0.613,0.612,0.611,0.611,0.611,0.611,0.611,0.611,0.611,0.611,0,0,0,0,0,0,0,0,0,0,0,0,0,0,0,0,0,0,0,0,0,0,0,0,0,0.335,0.335,0.335,0.335,0.336,0.336,0.336,0.337,0.337,0,0.338,0.338,0.339,0.339,0.339,0.339,0,0,0.327,0.327,0.327,0.327,0.327,0.327,0.327,0.327,0.327,0.327,0.327,0.327,0.327,0.327,0.327,0.327,0.327,0,0.328,0.328,0.328,0.328,0.328,0.328,0.328,0.328,0.328,0.328,0.328,0.328,0.328,0.328,0.328,0.328,0.328,0.328,0.328,0.328,0.328,0.329,0.329,0.329,0.329,0.329,0.329,0.329,0.329,0.329,0.329,0.329,0.33,0.33,0.33,0.33,0.33,0.33,0.331,0.331,0.331,0.331,0.332,0.332,0.332,0.332,0.332,0.332,0.332,0.332,0.333,0.333,0.333,0.333,0.333,0.333,0,0.334,0.334,0.334,0,0.335,0.335,0.335,0.335,0.335,0.335,0.335,0.335,0.335,0.335,0.336,0.336,0.336,0.336,0.337,0.337,0.338,0.338,0.338,0.339,0.339,0.339,0.339,0.34,0,0.341,0.341,0.341,0.342,0.342,0.343,0.344,0.344,0.345,0.345,0.346,0,0.347,0.348,0.349,0.351,0.352,0,0.353,0.354,0.355,0.356,0.358,0.358,0,0.359,0.36,0.361,0,0.362,0.364,0,0,0,0,0,0,0,0,0,0,0.39,0.39,0.391,0.391,0.391,0.391,0.391,0.39,0.39,0.39,0.389,0.389,0.389,0.389,0.388,0.387,0.386,0.386,0.386,0.385,0.385,0.385,0.384,0.384,0.382,0.382,0.381,0.381,0.381,0.38,0.379,0,0,0.377,0.377,0.376,0.376,0.375,0.374,0.373,0.372,0.371,0.371,0.37,0.37,0.37,0.369,0.369,0,0,0,0.366,0.366,0.365,0.364,0.363,0.362,0.362,0.362,0.362,0.361,0.36,0.359,0.358,0.358,0.358,0.357,0.356,0.356,0.355,0.354,0.352,0.352,0.351,0.351,0.351,0.351,0,0,0,0.35,0.349,0.348,0.348,0.348,0.347,0.347,0.345,0.345,0,0,0,0.342,0.342,0.342,0,0,0,0,0,0,0,0,0,0,0,0,0,0,0,0,0,0,0,0,0,0,0,0,0,0,0,0,0,0,0,0,0,0,0,0,0,0,0,0,0,0,0,0,0,0,0,0,0,0,0,0,0,0,0,0,0,0,0,0,0,0,0,0,0,0,0,0,0,0,0,0,0,0,0,0,0,0,0,0,0,0,0,0
0,0,0,0,0,0,0,0,0,0,0,3.234,3.234,3.234,3.234,3.225,3.216,3.216,3.207,3.207,3.198,3.189,3.189,3.189,3.181,3.172,3.163,3.163,3.155,3.155,3.146,3.146,3.138,3.138,3.146,3.146,3.146,3.146,3.155,3.155,3.163,3.163,3.172,3.181,3.181,3.181,3.181,3.189,3.189,3.198,3.198,3.207,3.216,3.234,3.243,3.27,3.298,3.326,3.355,3.394,3.414,3.434,3.444,3.454,3.454,3.454,3.454,3.454,3.454,3.454,3.444,3.444,3.434,3.424,3.434,3.444,3.444,3.454,3.485,3.538,3.649,3.767,3.842,3.933,4.085,0,4.233,4.28,4.312,4.344,4.376,4.41,4.41,4.426,4.46,4.477,4.512,4.512,4.53,4.53,4.565,4.583,4.601,4.601,4.638,4.657,4.657,4.657,4.657,4.638,4.601,4.601,4.565,4.53,4.512,4.46,4.46,4.41,4.393,4.376,4.36,4.344,4.328,4.328,4.328,4.328,4.328,4.344,4.344,4.36,4.36,4.393,4.393,4.393,4.393,4.393,4.393,4.393,4.376,4.36,4.344,4.328,4.328,4.312,0,0,0,0,0,0,0,0,0,0,0,0,0,0,0,0,0.829,0.822,0,0,0.802,0.801,0.801,0.801,0.8,0.8,0.8,0.8,0.798,0.797,0.796,0.794,0.794,0.792,0.791,0.788,0.786,0.784,0.783,0.782,0.781,0.774,0.769,0.767,0.765,0.763,0.759,0.753,0.752,0.751,0.75,0.749,0.748,0.75,0.748,0.745,0.742,0.738,0.736,0.732,0.727,0.724,0.722,0.72,0.719,0.716,0.71,0.708,0.707,0.706,0.704,0.702,0.699,0.696,0.693,0.692,0.691,0.69,0.687,0.684,0.683,0.681,0.681,0.68,0.679,0.678,0.677,0.674,0.672,0.67,0.669,0.668,0.667,0.665,0.663,0.661,0.659,0.656,0.655,0.653,0.65,0.648,0.645,0.643,0.635,0.633,0.632,0.629,0.626,0.622,0.622,0.621,0.62,0.619,0.617,0.615,0.613,0.612,0.612,0.611,0.61,0.61,0.609,0.609,0.609,0.608,0.609,0.609,0.609,0,0,0,0,0,0,0,0,0,0,0,0,0,0,0,0,0,0,0,0,0,0,0.334,0,0.334,0.334,0.335,0.335,0.335,0.335,0.335,0.335,0.335,0.336,0.336,0,0.337,0,0,0,0,0,0,0.327,0.327,0.327,0.327,0.327,0.327,0.327,0.327,0.327,0.327,0.327,0.327,0.327,0.327,0.327,0.327,0.327,0.327,0,0.328,0.328,0.328,0.328,0.328,0.328,0.328,0.328,0.328,0.328,0.328,0.328,0.328,0.328,0.328,0.328,0.328,0.328,0.328,0.328,0.328,0.329,0.329,0.329,0.329,0.329,0.329,0.329,0.329,0.329,0.329,0.329,0.33,0.33,0.33,0.33,0.33,0.331,0.331,0.331,0.331,0.332,0.332,0.332,0.332,0.332,0.332,0.332,0.332,0.333,0.333,0.333,0.333,0.333,0.333,0,0.334,0.334,0.334,0,0.335,0.335,0.335,0.335,0.335,0.335,0.335,0.335,0.335,0.336,0.336,0.336,0.336,0.337,0.337,0.338,0.338,0.338,0.339,0.339,0.339,0.339,0.34,0.34,0,0.341,0.341,0.342,0.342,0.343,0.343,0.344,0.345,0.345,0.346,0,0.347,0.348,0.348,0.35,0.351,0.352,0,0.354,0.355,0.355,0.357,0.358,0,0.359,0.359,0.36,0.361,0.362,0.362,0.363,0,0,0,0,0,0,0,0,0,0,0.39,0.39,0.39,0.39,0.391,0.39,0.39,0.389,0.389,0.389,0.389,0.389,0.388,0.387,0.386,0.386,0.385,0.385,0.385,0.385,0.384,0.384,0.382,0.381,0.381,0.381,0.381,0.38,0.379,0.378,0.377,0.377,0.377,0.377,0.376,0.376,0.374,0.374,0.373,0.372,0.371,0.37,0.37,0.369,0.369,0.369,0.368,0.367,0,0,0.366,0.365,0.364,0.363,0.362,0.362,0.362,0.361,0.361,0.36,0.359,0.358,0.358,0.357,0.357,0.356,0.356,0.355,0.355,0.353,0.352,0.352,0.351,0.351,0.351,0.351,0.35,0.35,0.35,0.349,0.348,0.348,0.348,0.347,0.346,0.345,0.345,0.345,0.344,0.343,0,0.341,0.341,0.34,0.34,0,0,0,0,0,0,0,0,0,0,0,0,0,0,0,0,0,0,0,0,0,0,0,0,0,0,0,0,0,0,0,0,0,0,0,0,0,0,0,0,0,0,0,0,0,0,0,0,0,0,0,0,0,0,0,0,0,0,0,0,0,0,0,0,0,0,0,0,0,0,0,0,0,0,0,0,0,0,0,0,0,0,0,0
0,0,0,0,0,0,0,0,0,0,0,3.261,3.261,3.261,3.261,3.261,3.261,3.261,3.261,3.261,3.243,3.234,3.225,3.216,3.207,3.198,3.189,3.181,3.172,3.163,3.163,3.155,3.155,3.155,3.146,3.146,3.155,3.155,3.163,3.163,3.163,3.172,3.172,3.181,3.181,3.181,3.189,3.189,3.189,3.198,3.198,3.207,3.216,3.234,3.243,3.27,3.298,3.326,3.355,3.394,3.414,3.434,3.444,3.454,3.465,3.465,3.465,3.465,3.475,3.465,3.465,3.454,3.454,3.444,3.444,3.444,3.444,3.454,3.465,3.496,3.56,3.696,3.804,3.868,3.987,0,4.158,4.249,4.296,4.328,4.36,4.393,4.393,4.426,4.46,4.477,4.477,4.512,4.53,4.53,4.565,4.583,4.601,4.601,4.638,4.638,4.638,4.638,4.638,4.601,4.601,4.583,4.565,4.53,4.512,4.46,4.426,4.41,4.393,4.376,4.36,4.344,4.344,4.344,4.328,4.344,4.344,4.344,4.344,4.344,4.376,4.393,4.41,4.41,4.41,4.41,4.41,4.393,4.376,4.36,4.344,4.344,0,0,0,0,0,0,0,0,0,0,0,0,0,0,0,0,0.829,0.819,0.816,0.811,0.806,0,0.801,0.8,0.799,0.799,0.799,0.798,0.797,0.796,0.794,0.791,0.79,0.787,0.786,0.785,0.784,0.783,0.782,0.781,0.78,0.775,0.77,0.767,0.765,0.763,0.759,0.752,0.751,0.75,0.749,0.747,0.745,0.743,0.741,0.739,0.736,0.735,0.73,0.725,0.728,0.724,0.721,0.72,0.718,0.712,0.709,0.708,0.707,0.706,0.705,0.702,0.699,0.697,0.695,0.693,0.691,0.689,0.687,0.685,0.683,0.681,0.68,0.68,0.679,0.678,0.677,0.673,0.671,0.67,0.669,0.668,0.667,0.666,0.664,0.661,0.659,0.656,0.655,0.653,0.651,0.648,0.646,0.644,0.643,0.635,0.633,0.631,0.628,0.622,0.621,0.62,0.618,0.616,0.615,0.614,0.613,0.612,0.611,0.611,0.61,0.609,0.608,0.608,0.607,0.607,0.607,0,0,0,0,0,0,0,0,0,0,0,0,0,0,0,0,0,0,0,0,0,0,0,0,0,0.333,0,0.334,0,0,0.334,0.334,0.334,0.335,0.335,0.335,0.335,0,0.335,0.335,0.335,0.335,0.332,0.331,0.327,0.327,0.326,0.326,0.326,0.326,0.327,0.327,0.327,0.327,0.327,0.326,0.326,0.326,0.326,0.326,0.326,0.327,0.327,0.327,0.327,0,0.328,0.328,0.328,0.328,0.328,0.328,0.328,0.328,0.328,0.328,0.328,0.328,0.328,0.328,0.328,0.328,0.328,0.328,0.328,0.328,0.328,0.328,0.329,0.329,0.329,0.329,0.329,0.329,0.329,0.329,0.329,0.329,0.33,0.33,0.33,0.33,0.33,0.33,0.331,0.331,0.331,0.332,0.332,0.332,0.332,0.332,0.332,0.332,0.332,0.333,0.333,0.333,0.333,0.333,0,0.334,0.334,0.334,0,0.335,0.335,0.335,0.335,0.335,0.335,0.335,0.335,0.335,0.336,0.336,0.336,0.336,0.337,0.337,0.338,0.338,0.338,0.339,0.339,0.339,0.339,0.34,0.34,0,0.341,0.341,0.341,0.342,0.342,0.343,0.344,0.345,0.345,0.345,0.346,0,0.348,0.348,0.349,0.351,0.351,0,0.353,0.354,0.355,0.356,0.357,0.358,0,0.359,0.36,0.361,0.361,0.362,0.362,0,0,0,0,0,0,0,0.388,0,0.389,0.389,0.389,0.39,0.389,0.39,0.39,0.39,0.389,0.389,0.389,0.389,0.388,0.388,0.387,0.386,0.385,0.385,0.385,0.385,0.384,0.384,0.383,0.381,0.381,0.381,0.38,0.38,0.379,0.378,0.377,0.377,0.377,0.376,0.376,0.375,0.374,0.374,0.373,0.372,0.371,0.37,0.37,0.369,0.369,0.369,0.368,0.367,0.366,0.366,0.366,0.365,0.364,0.363,0.362,0.362,0.362,0.361,0.36,0.36,0.359,0.359,0.358,0.357,0.356,0.356,0.355,0.355,0.355,0.353,0.352,0.352,0.351,0.351,0.351,0.349,0.349,0.349,0.349,0.348,0.348,0.348,0.348,0.347,0.346,0.346,0.345,0.344,0.344,0.343,0.342,0.342,0.34,0.34,0.339,0.339,0.339,0.339,0.338,0.338,0,0,0,0,0,0,0,0,0,0,0,0,0,0,0,0,0,0,0,0,0,0,0,0,0,0,0,0,0,0,0,0,0,0,0,0,0,0,0,0,0,0,0,0,0,0,0,0,0,0,0,0,0,0,0,0,0,0,0,0,0,0,0,0,0,0,0,0,0,0,0,0,0,0,0,0,0,0,0,0,0
0,0,0,0,0,0,0,0,0,0,0,3.298,3.298,3.298,3.298,3.317,3.298,3.317,3.317,3.317,3.298,3.288,3.288,3.261,3.243,3.225,3.216,3.198,3.189,3.181,3.181,3.163,3.163,3.163,3.155,3.163,3.163,3.163,3.163,3.163,3.172,3.172,3.181,3.181,3.181,3.189,3.189,3.189,3.198,3.198,3.207,3.216,3.225,3.234,3.243,3.27,3.288,3.326,3.336,3.384,3.404,3.434,3.444,3.454,3.465,3.475,3.485,3.485,3.496,3.485,3.485,3.485,3.475,3.465,3.465,3.454,3.454,3.454,3.465,3.485,3.528,3.615,3.731,3.817,3.88,4.028,0,4.188,4.264,4.312,4.328,4.36,4.393,4.426,4.426,4.46,4.477,4.512,4.53,4.53,4.565,4.583,4.601,4.601,4.601,4.638,4.638,4.601,4.601,4.601,4.583,4.565,4.53,4.53,4.477,4.46,4.426,4.41,4.393,4.376,4.376,4.344,4.344,4.344,4.344,4.344,4.328,4.344,4.344,4.36,4.393,0,0,0,0,0,0,0,0,4.376,4.36,0,0,0,0,0,0,0,0,0,0,0,0,0,0,0.832,0.832,0.83,0.827,0.818,0.814,0.808,0.803,0,0.799,0.798,0.798,0.797,0.796,0.794,0.792,0.79,0.787,0.786,0.784,0.783,0.782,0.781,0.781,0.779,0.775,0.772,0.769,0.767,0.765,0.764,0.76,0.756,0.751,0.75,0.748,0.745,0.744,0.741,0.739,0.737,0.736,0.735,0.732,0.728,0.724,0.721,0.719,0.716,0.709,0.708,0.706,0.708,0.706,0.706,0.705,0.702,0.699,0.696,0.695,0.693,0.691,0.689,0.687,0.684,0.682,0.681,0.68,0.68,0.678,0.677,0.674,0.673,0.671,0.669,0.669,0.668,0.668,0.667,0.665,0.663,0.661,0.658,0.655,0.654,0.652,0.649,0.646,0.644,0.643,0.638,0.634,0.632,0.629,0.626,0.622,0.621,0.619,0.617,0.615,0.613,0.612,0.612,0.611,0.61,0.609,0.608,0.606,0.604,0.603,0.603,0.603,0.602,0,0,0,0,0,0,0,0,0,0,0,0,0,0,0,0,0,0,0,0,0,0,0,0,0,0.333,0.333,0.333,0.333,0.333,0.333,0.333,0.333,0.333,0.334,0.333,0.333,0,0.333,0.333,0.332,0.332,0,0,0,0.327,0,0.326,0.326,0.326,0.326,0.326,0.326,0.326,0.326,0.326,0.326,0.326,0.326,0.326,0.326,0.326,0.326,0.327,0.327,0.327,0.327,0,0.328,0.328,0.328,0.328,0.328,0.328,0.328,0.328,0.328,0.328,0.328,0.328,0.328,0.328,0.328,0.328,0.328,0.328,0.328,0.328,0.328,0,0.329,0.329,0.329,0.329,0.329,0.329,0.329,0.329,0.329,0.33,0.33,0.33,0.33,0.33,0.331,0.331,0.331,0.331,0.332,0.332,0.332,0.332,0.332,0.332,0.332,0.333,0.333,0.333,0.333,0.333,0.333,0,0.334,0.334,0.334,0.335,0.335,0.335,0.335,0.335,0.335,0.335,0.335,0.335,0.336,0.336,0.336,0.336,0.337,0.337,0.338,0.338,0.338,0.339,0.339,0.339,0.34,0.34,0.34,0,0.341,0.341,0.341,0.342,0.342,0.343,0.344,0.345,0.345,0.346,0.346,0,0.348,0.348,0.349,0.35,0.351,0.352,0,0.354,0.355,0.355,0.356,0.358,0.358,0,0.359,0.36,0.361,0.361,0.362,0,0,0,0,0,0,0,0.385,0.386,0,0.389,0.389,0.389,0.389,0.389,0.389,0.389,0.389,0.389,0.389,0.388,0.388,0.386,0.386,0.386,0.385,0.385,0.385,0.384,0.383,0.383,0.381,0.381,0.381,0.38,0.38,0.379,0.378,0.378,0.377,0.377,0.376,0.376,0.375,0.374,0.374,0.373,0.373,0.371,0.371,0.37,0.37,0.369,0.369,0.368,0.367,0.366,0.366,0.365,0.365,0.365,0.364,0.362,0.362,0.362,0.361,0.361,0.36,0.359,0.359,0.358,0.357,0.357,0.356,0.355,0.355,0.354,0.353,0.352,0.352,0.351,0.351,0.351,0.35,0.35,0.349,0.348,0.348,0.348,0.348,0.347,0.347,0.346,0,0.345,0,0,0,0.342,0.342,0.341,0.34,0.339,0.339,0.338,0.338,0.338,0.338,0.337,0,0,0,0,0,0,0,0,0,0,0,0,0,0,0,0,0,0,0,0,0,0,0,0,0,0,0,0,0,0,0,0,0,0,0,0,0,0,0,0,0,0,0,0,0,0,0,0,0,0,0,0,0,0,0,0,0,0,0,0,0,0,0,0,0,0,0,0,0,0,0,0,0,0,0,0,0,0,0,0,0,0
0,0,0,0,0,0,0,0,0,0,0,0,3.365,3.365,3.384,3.365,3.365,3.365,3.365,3.384,3.365,3.355,3.355,3.336,3.326,3.298,3.261,3.243,3.216,3.207,3.189,3.181,3.181,3.172,3.163,3.163,3.163,3.163,3.163,3.163,3.172,3.181,3.181,3.181,3.181,3.189,3.189,3.198,3.198,3.198,3.207,3.216,3.225,3.234,3.243,3.27,3.288,3.317,3.355,3.384,3.404,3.434,3.444,3.454,3.465,3.485,3.496,3.496,3.506,3.506,3.506,3.506,3.496,3.496,3.485,3.475,3.465,3.465,3.465,3.485,3.506,3.549,3.649,3.767,3.842,3.92,4.07,0,4.218,4.264,4.312,4.328,4.376,4.393,4.41,4.46,4.477,4.512,4.512,4.53,4.565,4.583,4.583,4.601,4.601,4.601,4.601,4.601,4.601,4.601,4.583,4.565,4.53,4.512,4.477,4.477,4.46,4.41,4.41,4.393,4.376,4.36,4.36,4.344,4.344,4.344,4.344,4.344,4.344,0,0,0,0,0,0,0,0,0,0,0,0,0,0,0,0,0,0,0,0,0,0,0,0,0.83,0.832,0.83,0.83,0.826,0.819,0.815,0.809,0,0.801,0.799,0.797,0.795,0.794,0.794,0.791,0.79,0.787,0.784,0.783,0.782,0.781,0.779,0.777,0.774,0.771,0.769,0.767,0.766,0.765,0.764,0.76,0.757,0.751,0.75,0.748,0.745,0.742,0.74,0.738,0.737,0.735,0.734,0.734,0.728,0.725,0.722,0.72,0.718,0.71,0.708,0.706,0.706,0.703,0.701,0.699,0.696,0.694,0.693,0.695,0.693,0.691,0.69,0.687,0.684,0.682,0.681,0.68,0.679,0.679,0.677,0.673,0.672,0.671,0.669,0.668,0.668,0.667,0.666,0.665,0.664,0.661,0.658,0.655,0.654,0.651,0.649,0.646,0.644,0.644,0.642,0.636,0.634,0.632,0.629,0.625,0.623,0.62,0.617,0.615,0.613,0.612,0.612,0.611,0.61,0.609,0.606,0.605,0.603,0.602,0.601,0.601,0.601,0.601,0.6,0,0,0,0,0,0,0,0,0,0,0,0,0,0,0,0,0,0,0,0,0,0,0,0,0,0.333,0.333,0.333,0.333,0.333,0.333,0.333,0.333,0.333,0.333,0.333,0.332,0.332,0.332,0.331,0.331,0,0,0,0.326,0.326,0.326,0,0,0.326,0.326,0.326,0.326,0.326,0.326,0.326,0.326,0.326,0.326,0.326,0.326,0.326,0.326,0.326,0.327,0.327,0.327,0.327,0,0.328,0.328,0.328,0.328,0.328,0.328,0.328,0.328,0.328,0.328,0.328,0.328,0.328,0.328,0.328,0.328,0.328,0.328,0.328,0.328,0.328,0,0.329,0.329,0.329,0.329,0.329,0.329,0.329,0.329,0.33,0.33,0.33,0.33,0.33,0.331,0.331,0.331,0.331,0.332,0.332,0.332,0.332,0.332,0.332,0.332,0.333,0.333,0.333,0.333,0.333,0,0.334,0.334,0.334,0.334,0.335,0.335,0.335,0.335,0.335,0.335,0.335,0.336,0.336,0.336,0.336,0.336,0.337,0.337,0.338,0.338,0.338,0.339,0.339,0.339,0.34,0.34,0,0.341,0.341,0.341,0.341,0.342,0.342,0.343,0.344,0.344,0.345,0.345,0.346,0,0.347,0.348,0.349,0.35,0.351,0.352,0,0.353,0.354,0.355,0.356,0.357,0.358,0.358,0,0.359,0.36,0.361,0.361,0.362,0,0,0,0,0,0,0,0.388,0,0,0.389,0.389,0.389,0.389,0.389,0.389,0.389,0.389,0.388,0.388,0.386,0.386,0.385,0.385,0.385,0.385,0.384,0.384,0.383,0.381,0.381,0.381,0.38,0.38,0.379,0.378,0.377,0.377,0.377,0.376,0.376,0.375,0.374,0.373,0.373,0.373,0.372,0.371,0.37,0.37,0.369,0.369,0.368,0.368,0.366,0.366,0.366,0.365,0.364,0.364,0.364,0.362,0.362,0.361,0.361,0.36,0.359,0.359,0.358,0.358,0.357,0.356,0.355,0.355,0.355,0.353,0.353,0.352,0.352,0,0,0.35,0.35,0.348,0.348,0.348,0.348,0.348,0.347,0.347,0.346,0.345,0.345,0.345,0.344,0.344,0.343,0.342,0.341,0.341,0.34,0.339,0.339,0.338,0.338,0.337,0.336,0,0,0,0,0,0,0,0,0,0,0,0,0,0,0,0,0,0,0,0,0,0,0,0,0,0,0,0,0,0,0,0,0,0,0,0,0,0,0,0,0,0,0,0,0,0,0,0,0,0,0,0,0,0,0,0,0,0,0,0,0,0,0,0,0,0,0,0,0,0,0,0,0,0,0,0,0,0,0,0,0,0,0,0
0,0,0,0,0,0,0,0,0,0,0,0,3.424,3.424,3.424,3.424,3.424,3.424,3.424,3.434,3.424,3.424,3.414,3.404,3.394,3.384,3.355,3.298,3.261,3.234,3.216,3.198,3.189,3.181,3.181,3.172,3.163,3.163,3.163,3.163,3.172,3.172,3.181,3.181,3.181,3.189,3.189,3.189,3.198,3.198,3.207,3.216,3.225,3.234,3.243,3.27,3.288,3.317,3.355,3.365,3.404,3.424,3.444,3.454,3.475,3.485,3.496,3.517,3.528,3.538,3.538,3.538,3.528,3.528,3.517,3.496,3.485,3.485,3.475,3.485,3.496,3.528,3.582,3.672,3.792,3.855,3.946,4.114,0,4.218,4.28,4.312,4.344,4.376,4.41,4.426,4.46,4.477,4.512,4.53,4.53,4.565,4.583,4.583,4.601,4.601,4.601,4.601,4.601,4.583,4.565,4.565,4.53,4.512,4.477,4.477,4.46,4.426,4.41,4.393,4.376,4.376,4.36,4.36,4.36,4.344,4.344,0,0,0,0,0,0,0,0,0,0,0,0,0,0,0,0,0,0,0,0,0,0,0,0,0,0.829,0.829,0.829,0.827,0.824,0.819,0.816,0.81,0.803,0,0.798,0.792,0.79,0.79,0.79,0.788,0.786,0.784,0.783,0.782,0.781,0.778,0.771,0.769,0.768,0.767,0.766,0.765,0.764,0.763,0.76,0.757,0.753,0.75,0.749,0.746,0.743,0.741,0.738,0.736,0.735,0.734,0.731,0.728,0.725,0.722,0.721,0.719,0.716,0.709,0.706,0.706,0.703,0.7,0.698,0.696,0.694,0.693,0.691,0.689,0.687,0.684,0.683,0.681,0.682,0.681,0.68,0.679,0.678,0.677,0.673,0.671,0.669,0.668,0.668,0.667,0.666,0.665,0.663,0.662,0.661,0.658,0.655,0.654,0.651,0.648,0.645,0.644,0.643,0.641,0.635,0.634,0.633,0.631,0.629,0.624,0.621,0.619,0.617,0.614,0.612,0.611,0.611,0.61,0.609,0.606,0.605,0.603,0.602,0.601,0.601,0.599,0.599,0.598,0,0.596,0.596,0,0,0,0,0,0,0,0,0,0,0,0,0,0,0,0,0,0,0,0,0,0,0,0,0.332,0.332,0.333,0.332,0.332,0.332,0.332,0.332,0.332,0.332,0.332,0.332,0.331,0.33,0.33,0.329,0.327,0.327,0.326,0.326,0.326,0.326,0.326,0.326,0.326,0.326,0.326,0.326,0.326,0.326,0.326,0.326,0.326,0.326,0.326,0.326,0.326,0.326,0.326,0.326,0.327,0.327,0.327,0,0.328,0.328,0.328,0.328,0.328,0.328,0.328,0.328,0.327,0.327,0.327,0.327,0.327,0.327,0,0.328,0.328,0.328,0.328,0.328,0.328,0.328,0,0.329,0.329,0.329,0.329,0.329,0.329,0.33,0.33,0.33,0.33,0.33,0.331,0.331,0.331,0.331,0.332,0.332,0.332,0.332,0.332,0.332,0.332,0.332,0.333,0.333,0.333,0.333,0.333,0,0.334,0.334,0.334,0.335,0.335,0.335,0.335,0.335,0.335,0.335,0.336,0.336,0.336,0.336,0.337,0.337,0.337,0.338,0.338,0.338,0.339,0.339,0.339,0.34,0.34,0,0.341,0.341,0.341,0.342,0.342,0.342,0.343,0.344,0.344,0.345,0.345,0.346,0,0.347,0.348,0.349,0.35,0.351,0.352,0.352,0,0.354,0.355,0.355,0.356,0.357,0.358,0,0.359,0.359,0.36,0.361,0.361,0,0,0,0,0,0,0,0,0,0.389,0.389,0.389,0.389,0.389,0.389,0.389,0.389,0.388,0.388,0.386,0.386,0.385,0.385,0.385,0.385,0.384,0.384,0.383,0.382,0.381,0.381,0.38,0.38,0.379,0.378,0.378,0.377,0.377,0.376,0.375,0.375,0.374,0.373,0.373,0.373,0.371,0.37,0.37,0.369,0.369,0.369,0.368,0.368,0.366,0.366,0.366,0.366,0.365,0.364,0.364,0.363,0.362,0.362,0.361,0.36,0,0.359,0.359,0.358,0.357,0.356,0.356,0.355,0.355,0.354,0.354,0.352,0.352,0.351,0.351,0,0,0.348,0.348,0.348,0.348,0.348,0.348,0.347,0.347,0.346,0.345,0.345,0.344,0.343,0.343,0.342,0.342,0.34,0.34,0.339,0.339,0.338,0.338,0.337,0.336,0.336,0.336,0,0,0,0,0,0,0,0,0,0,0,0,0,0,0,0,0,0,0,0,0,0,0,0,0,0,0,0,0,0,0,0,0,0,0,0,0,0,0,0,0,0,0,0,0,0,0,0,0,0,0,0,0,0,0,0,0,0,0,0,0,0,0,0,0,0,0,0,0,0,0,0,0,0,0,0,0,0,0,0,0,0,0,0
0,0,0,0,0,0,0,0,0,0,0,0,3.465,3.465,3.465,3.454,3.454,3.454,3.454,3.454,3.454,3.454,3.454,3.444,3.434,3.414,3.404,3.365,3.298,3.27,3.243,3.216,3.198,3.189,3.181,3.172,3.163,3.163,3.163,3.163,3.172,3.172,3.172,3.181,3.181,3.181,3.189,3.189,3.189,3.198,3.207,3.216,3.225,3.234,3.243,3.27,3.288,3.317,3.355,3.384,3.404,3.424,3.444,3.465,3.475,3.485,3.506,3.528,3.549,3.56,3.582,3.593,3.593,3.582,3.56,3.538,3.517,3.496,3.496,3.485,3.496,3.506,3.538,3.615,3.707,3.804,3.868,3.987,4.128,4.233,0,4.28,4.312,4.344,4.393,4.41,4.46,4.477,4.512,4.512,4.53,4.565,4.583,4.583,4.583,4.601,4.601,4.583,4.583,4.565,4.565,4.53,4.53,4.512,4.477,4.477,4.46,4.426,4.41,4.41,4.376,4.376,4.36,4.36,4.36,4.344,0,0,0,0,0,0,0,0,0,0,0,0,0,0,0,0,0,0,0,0,0,0,0,0,0,0.826,0.826,0.824,0.826,0.823,0.818,0.816,0.81,0.803,0,0.792,0.79,0.788,0.786,0.786,0.785,0.784,0.783,0.782,0.78,0.777,0.77,0.767,0.766,0.765,0.765,0.763,0.762,0.76,0.757,0.755,0.753,0.751,0.75,0.748,0.745,0.741,0.739,0.736,0.735,0.734,0.73,0.727,0.724,0.722,0.721,0.719,0.717,0.709,0.707,0.706,0.703,0.7,0.698,0.696,0.694,0.693,0.693,0.689,0.686,0.684,0.682,0.681,0.68,0.679,0.678,0.676,0.672,0.67,0.672,0.67,0.669,0.668,0.667,0.666,0.664,0.662,0.66,0.658,0.657,0.655,0.655,0.653,0.65,0.647,0.645,0.644,0.642,0.638,0.635,0.634,0.633,0.631,0.629,0.627,0.624,0.621,0.618,0.615,0.613,0.612,0.611,0.61,0.609,0.608,0.605,0.603,0.603,0.602,0.601,0.6,0.598,0.597,0,0,0,0,0,0,0,0,0,0,0,0,0,0,0,0,0,0,0,0,0,0,0,0,0,0,0,0,0.332,0.332,0.332,0.332,0.332,0.332,0.332,0.332,0.332,0.332,0.331,0.331,0.33,0.33,0.329,0.329,0.327,0.327,0.326,0.326,0.326,0.326,0.325,0.325,0.325,0.325,0.325,0.325,0.325,0.325,0.325,0.325,0.325,0.325,0.326,0.326,0.326,0.326,0.326,0.326,0.326,0.326,0.327,0.327,0.327,0.327,0,0.328,0.328,0.328,0.328,0.328,0.327,0.327,0.327,0.327,0.327,0.327,0.327,0.327,0.327,0,0.328,0.328,0.328,0.328,0.328,0,0.329,0.329,0.329,0.329,0.329,0.329,0.33,0.33,0.33,0.33,0.33,0.331,0.331,0.331,0.331,0.332,0.332,0.332,0.332,0.332,0.332,0.332,0.333,0.333,0.333,0.333,0.333,0,0.334,0.334,0.334,0.334,0.335,0.335,0.335,0.335,0.335,0.335,0.335,0.336,0.336,0.336,0.337,0.337,0.337,0.338,0.338,0.338,0.339,0.339,0.339,0.34,0.34,0,0.341,0.341,0.342,0.342,0.342,0.342,0.343,0.344,0.344,0.345,0.345,0.346,0,0.347,0.348,0.348,0.349,0.351,0.351,0.352,0,0.353,0.354,0.355,0.356,0.357,0.357,0.358,0,0.359,0.359,0.36,0.361,0.361,0,0,0,0,0,0,0,0,0.389,0.389,0.389,0.389,0.389,0.389,0.389,0.388,0.388,0.387,0.386,0.385,0.385,0.385,0.385,0.384,0.384,0.383,0.383,0.382,0.381,0.381,0.38,0.379,0.378,0.378,0.377,0.377,0.376,0.375,0.374,0.374,0.373,0.373,0.373,0.372,0.37,0.37,0.369,0.369,0.369,0.368,0.367,0.366,0.366,0.366,0.365,0.365,0.365,0.364,0.363,0.362,0.362,0.362,0.361,0,0,0,0.358,0.357,0.356,0.356,0.355,0.355,0.354,0.354,0.352,0.352,0.351,0.351,0.35,0.349,0.348,0.348,0.348,0.348,0.347,0.347,0.347,0.347,0.346,0.346,0.345,0.345,0.344,0.343,0.342,0.342,0.342,0.34,0.34,0.339,0.339,0.338,0.338,0.337,0.336,0.336,0.335,0.335,0.335,0.334,0.333,0.332,0,0,0,0,0,0,0,0,0,0,0,0,0,0,0,0,0,0,0,0,0,0,0,0,0,0,0,0,0,0,0,0,0,0,0,0,0,0,0,0,0,0,0,0,0,0,0,0,0,0,0,0,0,0,0,0,0,0,0,0,0,0,0,0,0,0,0,0,0,0,0,0,0,0,0,0,0,0,0,0
0,0,0,0,0,0,0,0,0,0,0,0,0,3.496,3.496,3.485,3.485,3.485,3.485,3.485,3.485,3.475,3.465,3.465,3.454,3.444,3.434,3.404,3.384,3.298,3.261,3.234,3.207,3.189,3.181,3.181,3.163,3.163,3.163,3.163,3.163,3.163,3.163,3.172,3.181,3.181,3.181,3.189,3.189,3.198,3.207,3.216,3.225,3.234,3.243,3.27,3.298,3.326,3.355,3.384,3.404,3.434,3.444,3.454,3.475,3.496,3.506,3.538,3.582,3.593,3.627,3.649,3.661,3.661,3.649,3.615,3.582,3.538,3.517,3.506,3.496,3.496,3.528,3.56,3.627,3.743,3.817,3.88,4.014,4.158,4.249,4.28,0,4.328,4.36,4.393,4.426,4.46,4.477,4.512,4.53,4.565,4.583,4.583,4.583,4.583,4.583,4.583,4.565,4.565,4.565,4.53,4.512,4.512,4.477,4.46,4.426,4.426,4.41,4.41,4.393,4.376,4.36,4.36,4.36,4.344,0,0,0,0,0,0,0,0,0,0,0,0,0,0,0,0,0,0,0,0,0,0,0,0,0.822,0.822,0.822,0.822,0.82,0.817,0.814,0.808,0,0,0.79,0.786,0.784,0.784,0.783,0.783,0.782,0.781,0.78,0.777,0.77,0.767,0.766,0.765,0.762,0.76,0.758,0.756,0.756,0.754,0.753,0.752,0.75,0.749,0.747,0.745,0.741,0.737,0.735,0.734,0.729,0.726,0.724,0.722,0.72,0.719,0.717,0.714,0.708,0.706,0.705,0.701,0.698,0.695,0.694,0.693,0.69,0.688,0.686,0.684,0.682,0.68,0.68,0.679,0.677,0.674,0.671,0.669,0.668,0.667,0.666,0.664,0.662,0.66,0.662,0.66,0.658,0.657,0.655,0.654,0.653,0.651,0.649,0.646,0.645,0.644,0.642,0.639,0.634,0.633,0.632,0.631,0.629,0.626,0.624,0.623,0.62,0.617,0.614,0.612,0.611,0.611,0.609,0.608,0.605,0.604,0.603,0.602,0.601,0.601,0.6,0.598,0.596,0.594,0.593,0.592,0.592,0.591,0,0,0,0,0,0,0,0,0,0,0,0,0,0,0,0,0,0,0,0,0,0,0.332,0.332,0.332,0.332,0.332,0.332,0.332,0.332,0.332,0.332,0.331,0.331,0.33,0.33,0.33,0.329,0.329,0.327,0,0.326,0.326,0.326,0.325,0.325,0.324,0.324,0.325,0.325,0.325,0.324,0.325,0.325,0.325,0.325,0.325,0.325,0.325,0.325,0.325,0.326,0.326,0.326,0.326,0.326,0.326,0.327,0.327,0.327,0.327,0,0.327,0.327,0.327,0.327,0.327,0.327,0.327,0.327,0.327,0.327,0.327,0.327,0.327,0.327,0,0.328,0.328,0.328,0.328,0,0.329,0.329,0.329,0.329,0.329,0.329,0.33,0.33,0.33,0.33,0.331,0.331,0.331,0.331,0.332,0.332,0.332,0.332,0.332,0.332,0.332,0.332,0.333,0.333,0.333,0.333,0.333,0,0.334,0.334,0.334,0.335,0.335,0.335,0.335,0.335,0.335,0.335,0.336,0.336,0.336,0.337,0.337,0.337,0.338,0.338,0.338,0.339,0.339,0.339,0.34,0.34,0,0.341,0.341,0.342,0.342,0.342,0.342,0.343,0.344,0.344,0.345,0.345,0.346,0.346,0,0.348,0.348,0.349,0.35,0.351,0.352,0,0.353,0.354,0.355,0.355,0.356,0.356,0.357,0.358,0,0.359,0,0,0.361,0,0,0,0,0,0,0,0.388,0.389,0.389,0.389,0.389,0.389,0.389,0.389,0.388,0.388,0.386,0.385,0.385,0.385,0.384,0.384,0.383,0.383,0.382,0.382,0.382,0.381,0.381,0.38,0.379,0.378,0.377,0.377,0.376,0.375,0.374,0.373,0.373,0.373,0.373,0.372,0.37,0,0,0.369,0.368,0.368,0.367,0.366,0.366,0.365,0.365,0.365,0.364,0.364,0.363,0.362,0.362,0.361,0.361,0.36,0.359,0,0,0,0.356,0.356,0.355,0.355,0.355,0.354,0.352,0.352,0.351,0.351,0.35,0.35,0.349,0.348,0.348,0.347,0.346,0.345,0.345,0.345,0.345,0.345,0.344,0.345,0.342,0.342,0.342,0.341,0.341,0.341,0.339,0.339,0.338,0.338,0.338,0.337,0.336,0.336,0.335,0.334,0.333,0.333,0.332,0.331,0.331,0.33,0.33,0.33,0,0,0,0,0,0,0,0,0,0,0,0,0,0,0,0,0,0,0,0,0,0,0,0,0,0,0,0,0,0,0,0,0,0,0,0,0,0,0,0,0,0,0,0,0,0,0,0,0,0,0,0,0,0,0,0,0,0,0,0,0,0,0,0,0,0,0,0,0,0,0,0,0,0,0,0,0,0
0,0,0,0,0,0,0,0,0,0,3.582,3.582,3.56,3.56,3.549,3.538,3.528,3.528,3.528,3.517,3.517,3.506,3.496,3.485,3.475,3.465,3.454,3.444,3.414,3.384,3.288,3.243,3.216,3.198,3.189,3.181,3.163,3.163,3.163,3.155,3.155,3.155,3.163,3.163,3.163,3.172,3.181,3.181,3.189,3.189,3.198,3.207,3.216,3.234,3.243,3.27,3.298,3.326,3.355,3.384,3.404,3.424,3.444,3.454,3.465,3.485,3.517,3.538,3.593,3.627,3.661,3.707,3.731,3.731,3.707,3.696,3.661,3.615,3.56,3.538,3.528,3.517,3.517,3.538,3.582,3.661,3.767,3.842,3.906,4.056,4.203,4.264,0,4.312,4.344,4.393,4.426,4.46,4.477,4.512,4.53,4.565,4.583,4.583,4.583,4.583,4.565,4.565,4.565,4.565,4.53,4.512,4.512,4.512,4.477,4.477,4.46,4.426,4.426,4.41,4.393,4.376,4.376,4.376,4.36,4.344,0,0,0,0,0,0,0,0,0,0,0,0,0,0,0,0,0,0,0,0,0,0,0,0.819,0.819,0.819,0.819,0.818,0.816,0.813,0.806,0.801,0.798,0.787,0.784,0.783,0.782,0.782,0.781,0.781,0.779,0.777,0.774,0.767,0.766,0.764,0.762,0.758,0.756,0.754,0.753,0.752,0.752,0.751,0.75,0.749,0.748,0.746,0.743,0.739,0.736,0.734,0.733,0.725,0.723,0.721,0.72,0.718,0.716,0.714,0.708,0.706,0.705,0.702,0.699,0.695,0.694,0.693,0.691,0.687,0.684,0.683,0.681,0.68,0.679,0.678,0.676,0.674,0.67,0.669,0.668,0.667,0.666,0.664,0.661,0.659,0.657,0.656,0.654,0.652,0.649,0.653,0.651,0.649,0.647,0.646,0.644,0.643,0.641,0.635,0.633,0.632,0.631,0.629,0.627,0.625,0.624,0.622,0.621,0.618,0.615,0.613,0.612,0.611,0.61,0.609,0.605,0.604,0.603,0.603,0.602,0.601,0.601,0.6,0.599,0.596,0.594,0.593,0,0.591,0.591,0,0,0,0,0,0,0,0,0,0,0,0,0,0,0,0,0,0,0,0,0,0,0,0.332,0.332,0.332,0.332,0.332,0.331,0.332,0.331,0.331,0.331,0.33,0.33,0.33,0.329,0.329,0.328,0.327,0.326,0.326,0.326,0.326,0.325,0.324,0.324,0.324,0.324,0.324,0.324,0.324,0.324,0.324,0.324,0.324,0.324,0.324,0.324,0.325,0.325,0.325,0.325,0.325,0.326,0.326,0.326,0.326,0.326,0.327,0.327,0.327,0.327,0.327,0.327,0.327,0.327,0.327,0.327,0.327,0.327,0.327,0.327,0.327,0.327,0.327,0.327,0.327,0.328,0.328,0.328,0.328,0,0.329,0.329,0.329,0.329,0.329,0.33,0.33,0.33,0.33,0.331,0.331,0.331,0.331,0.331,0.332,0.332,0.332,0.332,0.332,0.332,0.332,0.333,0.333,0.333,0.333,0.333,0,0.334,0.334,0.334,0.334,0.335,0.335,0.335,0.335,0.335,0.335,0.335,0.336,0.336,0.336,0.337,0.337,0.338,0.338,0.338,0.339,0.339,0.339,0,0.34,0,0.341,0.341,0.342,0.342,0.342,0.343,0.343,0.344,0.344,0.345,0.345,0.345,0.346,0,0.347,0.348,0.348,0.349,0.351,0.351,0.352,0,0.353,0.354,0.355,0.355,0.356,0.357,0.357,0.358,0,0,0,0,0.361,0,0,0,0,0,0,0.386,0.388,0.388,0.389,0.389,0.389,0.388,0.388,0.388,0.388,0.386,0.385,0.385,0.384,0.384,0.383,0.382,0.382,0.381,0.381,0.381,0.38,0.38,0.379,0.378,0.377,0.377,0.376,0.375,0.374,0.374,0.373,0.373,0.372,0.371,0.37,0.369,0.369,0.368,0.368,0.367,0.366,0.366,0.366,0.365,0.365,0.365,0.364,0.364,0.363,0.363,0.361,0.36,0.359,0.359,0.358,0.358,0.357,0.356,0.355,0.355,0.354,0.354,0.353,0.353,0.352,0.351,0.35,0.35,0.349,0.348,0.348,0.347,0.346,0.346,0.346,0.345,0.345,0.345,0.345,0.345,0.344,0.343,0,0,0,0,0.341,0.34,0.339,0.339,0.338,0.338,0.338,0.337,0.336,0.335,0.335,0.334,0.333,0.333,0.332,0.331,0.331,0.33,0.33,0.329,0.329,0.329,0,0,0,0,0,0,0,0,0,0,0,0,0,0,0,0,0,0,0,0,0,0,0,0,0,0,0,0,0,0,0,0,0,0,0,0,0,0,0,0,0,0,0,0,0,0,0,0,0,0,0,0,0,0,0,0,0,0,0,0,0,0,0,0,0,0,0,0,0,0,0,0,0,0,0,0,0,0
0,0,0,0,0,0,0,0,0,0,3.649,3.649,3.649,3.649,3.627,3.627,3.615,3.615,3.615,3.615,3.593,3.593,3.56,3.538,3.528,3.496,3.485,3.465,3.444,3.424,3.326,3.27,3.234,3.207,3.189,3.181,3.163,3.163,3.155,3.155,3.155,3.155,3.155,3.163,3.163,3.163,3.172,3.181,3.181,3.189,3.189,3.207,3.216,3.234,3.261,3.27,3.298,3.326,3.355,3.384,3.404,3.424,3.444,3.454,3.465,3.485,3.506,3.549,3.593,3.649,3.696,3.743,3.767,3.78,3.78,3.767,3.743,3.696,3.649,3.615,3.56,3.538,3.528,3.528,3.549,3.615,3.707,3.804,3.855,3.946,4.114,4.233,4.28,4.328,0,4.376,4.41,4.46,4.477,4.512,4.53,4.565,4.583,4.583,4.583,4.565,4.565,4.565,4.565,4.53,4.512,4.512,4.477,4.477,4.477,4.46,4.46,4.426,4.426,4.41,4.393,4.393,4.376,4.376,4.36,4.344,0,0,0,0,0,0,0,0,0,0,0,0,0,0,0,0,0,0,0,0,0,0.815,0.816,0.816,0.816,0.816,0.815,0.813,0.809,0.803,0,0.79,0.786,0.783,0.782,0.781,0.78,0.779,0.778,0.776,0.773,0.768,0.766,0.764,0.762,0.757,0.754,0.753,0.751,0.751,0.75,0.75,0.748,0.748,0.746,0.744,0.743,0.739,0.737,0.735,0.734,0.726,0.723,0.721,0.719,0.718,0.716,0.712,0.708,0.706,0.706,0.703,0.699,0.696,0.694,0.693,0.688,0.686,0.684,0.682,0.681,0.68,0.679,0.678,0.675,0.671,0.669,0.668,0.668,0.667,0.665,0.663,0.661,0.658,0.657,0.655,0.653,0.651,0.648,0.646,0.645,0.644,0.643,0.642,0.64,0.643,0.637,0.634,0.633,0.632,0.629,0.627,0.625,0.623,0.623,0.621,0.621,0.619,0.617,0.614,0.613,0.612,0.611,0.609,0.608,0.605,0.603,0.602,0.602,0.601,0.601,0.601,0.599,0.598,0.596,0.594,0.592,0.592,0.59,0.588,0,0,0,0,0,0,0,0,0,0,0,0,0,0,0,0,0,0,0,0,0,0,0,0.332,0.332,0.332,0.332,0.332,0.332,0.331,0.331,0.331,0.33,0.33,0.33,0.329,0.329,0.329,0.328,0.327,0.326,0.326,0.326,0.325,0.325,0.324,0.324,0.324,0.324,0.324,0.324,0.324,0.324,0.324,0.324,0.324,0.324,0.324,0.324,0.324,0.324,0.324,0.324,0.325,0.325,0.326,0.326,0.326,0.326,0.326,0.327,0.327,0.327,0.327,0.327,0.327,0.327,0.327,0.327,0.327,0.327,0.327,0.327,0.327,0.327,0.327,0.327,0.327,0.327,0.327,0.328,0.328,0.328,0,0.329,0.329,0.329,0.329,0.329,0.33,0.33,0.33,0.33,0.331,0.331,0.331,0.331,0.332,0.332,0.332,0.332,0.332,0.332,0.332,0.332,0.333,0.333,0.333,0.333,0,0.334,0.334,0.334,0.334,0.335,0.335,0.335,0.335,0.335,0.335,0.335,0.336,0.336,0.336,0.337,0.337,0.338,0.338,0.338,0.339,0.339,0.339,0,0.34,0.34,0.341,0.341,0.342,0.342,0.342,0.343,0.343,0.344,0.344,0.345,0.345,0.345,0.346,0,0.347,0.348,0.348,0.349,0.35,0.351,0.352,0.352,0,0.354,0.354,0.355,0.355,0.356,0.357,0.357,0.358,0,0.359,0.359,0.36,0,0,0,0,0,0,0.385,0.386,0.386,0.387,0.388,0.388,0.388,0.388,0.388,0.387,0.386,0.385,0.385,0.384,0.383,0.382,0.382,0.381,0.381,0.381,0.38,0.38,0.379,0.378,0.377,0.377,0.376,0.375,0.374,0.373,0.373,0.373,0.372,0.37,0.37,0.369,0.369,0.366,0.366,0.365,0.365,0.364,0.364,0.364,0.364,0.363,0.363,0.362,0.362,0.362,0.36,0.36,0.359,0.359,0.358,0.358,0.356,0.355,0.355,0.355,0.354,0.354,0.353,0.352,0.352,0.351,0.351,0.35,0.349,0.348,0.348,0.347,0.347,0.346,0.345,0.345,0.345,0.345,0.345,0.344,0.343,0.343,0.342,0.342,0,0,0,0.339,0.339,0.339,0.339,0,0,0,0,0.335,0.335,0.335,0.334,0.333,0.332,0.331,0.331,0.33,0,0.329,0.329,0.329,0.329,0.329,0,0,0,0,0,0,0,0,0,0,0,0,0,0,0,0,0,0,0,0,0,0,0,0,0,0,0,0,0,0,0,0,0,0,0,0,0,0,0,0,0,0,0,0,0,0,0,0,0,0,0,0,0,0,0,0,0,0,0,0,0,0,0,0,0,0,0,0,0,0,0,0,0,0,0,0,0,0
0,0,0,0,0,0,0,0,0,0,3.829,3.817,3.817,3.804,3.804,3.78,3.78,3.78,3.792,3.78,3.767,3.743,3.707,3.672,3.615,3.549,3.528,3.496,3.475,3.444,3.414,3.298,3.261,3.225,3.198,3.181,3.163,3.163,3.155,3.155,3.155,3.155,3.155,3.155,3.155,3.163,3.163,3.172,3.181,3.189,3.189,3.198,3.216,3.234,3.243,3.27,3.298,3.326,3.355,3.384,3.404,3.424,3.444,3.454,3.465,3.485,3.496,3.538,3.593,3.661,3.707,3.755,3.804,3.817,3.817,3.817,3.804,3.78,3.731,3.696,3.649,3.593,3.56,3.549,3.549,3.582,3.649,3.743,3.817,3.88,4.014,4.188,4.264,4.312,0,4.36,4.393,4.426,4.477,4.512,4.53,4.565,4.565,4.583,4.583,4.565,4.565,4.53,4.53,4.512,4.512,4.477,4.477,4.477,4.46,4.46,4.426,4.426,4.426,4.41,4.41,4.393,4.376,4.376,4.376,4.36,0,0,0,0,0,0,0,0,0,0,0,0,0,0,0,0,0,0,0,0,0.812,0,0.813,0.814,0.813,0.811,0.809,0.806,0.801,0.8,0.79,0.784,0.782,0.781,0.779,0.777,0.776,0.775,0.773,0.768,0.766,0.765,0.762,0.758,0.754,0.752,0.75,0.75,0.749,0.747,0.746,0.745,0.744,0.743,0.741,0.738,0.737,0.735,0.734,0.727,0.723,0.721,0.719,0.718,0.715,0.712,0.709,0.707,0.706,0.704,0.702,0.698,0.695,0.693,0.692,0.687,0.683,0.681,0.68,0.679,0.678,0.676,0.674,0.67,0.669,0.668,0.667,0.667,0.665,0.663,0.661,0.658,0.657,0.655,0.653,0.649,0.647,0.645,0.644,0.643,0.642,0.64,0.636,0.634,0.633,0.631,0.628,0.625,0.629,0.625,0.623,0.622,0.622,0.62,0.619,0.618,0.616,0.614,0.613,0.612,0.611,0.61,0.609,0.607,0.604,0.603,0.601,0.601,0.6,0.599,0.598,0.597,0.595,0.593,0.592,0.592,0.589,0.588,0.586,0.584,0,0,0,0,0,0,0,0,0,0,0,0,0,0,0,0,0,0,0,0,0,0,0.332,0.332,0.331,0.331,0.331,0.331,0.331,0.331,0.33,0.33,0.33,0.33,0.329,0.329,0.328,0.327,0.327,0.326,0.326,0.326,0.325,0.324,0.324,0.324,0.324,0.324,0.324,0.324,0.324,0.324,0.324,0.324,0.324,0.324,0.324,0.324,0.324,0.324,0.324,0.324,0.324,0.325,0.325,0.325,0.325,0.326,0.326,0.326,0.326,0.326,0.327,0.327,0.327,0.327,0.327,0.327,0.327,0.327,0.327,0.327,0.327,0.327,0.327,0.327,0.327,0.327,0.327,0.327,0.328,0.328,0.328,0,0.329,0.329,0.329,0.329,0.329,0.33,0.33,0.33,0.331,0.331,0.331,0.331,0.332,0.332,0.332,0.332,0.332,0.332,0.332,0.332,0.332,0.333,0.333,0.333,0.333,0,0.334,0.334,0.334,0.335,0.335,0.335,0.335,0.335,0.335,0.335,0.336,0.336,0.336,0.337,0.337,0.338,0.338,0.338,0.339,0.339,0.339,0,0.34,0.34,0.341,0.341,0.342,0.342,0.342,0.343,0.343,0.344,0.344,0.345,0.345,0.345,0.345,0.346,0,0.347,0.348,0.348,0.349,0.35,0.351,0.352,0,0.353,0.354,0.355,0.355,0.355,0.356,0.357,0.358,0.358,0.358,0,0,0,0,0,0,0,0,0.385,0,0.385,0.386,0.386,0.387,0.387,0.387,0.386,0.386,0.385,0.385,0.384,0.383,0.382,0.382,0.381,0.381,0.381,0.38,0.38,0.379,0.378,0.377,0.377,0.374,0.373,0.373,0.372,0.371,0.371,0.37,0.369,0.369,0.368,0.367,0.366,0.366,0.365,0.365,0.364,0.364,0.363,0.363,0.363,0.362,0.362,0.362,0.362,0.361,0.36,0.359,0.359,0.358,0.358,0.357,0.355,0.355,0.355,0.355,0.354,0.353,0.352,0.351,0.351,0.351,0.35,0.349,0.348,0.348,0.347,0.346,0.346,0.345,0.345,0.345,0.345,0.344,0.344,0.343,0.343,0.342,0.342,0.341,0.341,0.34,0.339,0.338,0.338,0.338,0.338,0.338,0,0,0,0.335,0.335,0.335,0.334,0.333,0.332,0.331,0.33,0,0.329,0.329,0.329,0.328,0.328,0.328,0.328,0,0,0,0,0,0,0,0,0,0,0,0,0,0,0,0,0,0,0,0,0,0,0,0,0,0,0,0,0,0,0,0,0,0,0,0,0,0,0,0,0,0,0,0,0,0,0,0,0,0,0,0,0,0,0,0,0,0,0,0,0,0,0,0,0,0,0,0,0,0,0,0,0,0,0,0,0,0
0,0,0,0,0,0,0,0,0,0,4.028,3.973,0,0,3.893,3.868,3.868,3.868,3.868,3.868,3.868,3.868,3.855,3.817,3.78,3.743,3.661,3.582,3.517,3.485,3.444,3.326,3.27,3.234,3.198,3.181,3.172,3.155,3.155,3.155,3.146,3.146,3.146,3.155,3.155,3.163,3.163,3.163,3.172,3.181,3.189,3.189,3.207,3.225,3.243,3.27,3.298,3.326,3.355,3.384,3.404,3.414,3.434,3.444,3.454,3.475,3.496,3.528,3.582,3.649,3.731,3.78,3.804,3.829,3.842,3.842,3.829,3.817,3.804,3.755,3.707,3.661,3.615,3.582,3.549,3.582,3.627,3.696,3.78,3.855,3.933,4.114,4.233,4.296,4.344,0,4.393,4.426,4.46,4.512,4.53,4.565,4.565,4.583,4.565,4.565,4.53,4.53,4.512,4.512,4.477,4.477,4.46,4.46,4.46,4.46,4.426,4.426,4.41,4.41,4.41,4.393,4.376,4.376,4.376,0,0,0,0,0,0,0,0,0,0,0,0,0,0,0,0,0,0,0.806,0.806,0.806,0.808,0.809,0.808,0.808,0.807,0.805,0.802,0.801,0.798,0.789,0.784,0.782,0.78,0.777,0.775,0.773,0.77,0.77,0.767,0.765,0.764,0.76,0.756,0.753,0.751,0.749,0.748,0.745,0.744,0.743,0.742,0.741,0.739,0.738,0.736,0.735,0.734,0.733,0.724,0.722,0.719,0.718,0.714,0.712,0.709,0.706,0.706,0.704,0.703,0.7,0.697,0.694,0.693,0.691,0.685,0.682,0.68,0.679,0.677,0.674,0.672,0.669,0.668,0.667,0.666,0.665,0.663,0.662,0.661,0.658,0.657,0.656,0.653,0.65,0.647,0.645,0.644,0.643,0.641,0.636,0.635,0.634,0.633,0.632,0.63,0.626,0.623,0.622,0.618,0.616,0.614,0.617,0.616,0.615,0.614,0.613,0.612,0.612,0.611,0.611,0.61,0.608,0.604,0.603,0.602,0.601,0.599,0.598,0.595,0.594,0.593,0.592,0.59,0.589,0,0,0,0,0,0,0,0,0,0,0,0,0,0,0,0,0,0,0,0,0,0,0,0,0,0,0,0,0.331,0.331,0.331,0.331,0.331,0.331,0.33,0.33,0.33,0.33,0.329,0.329,0.329,0.327,0.327,0.326,0.326,0.326,0.325,0.324,0.324,0.324,0.324,0.324,0.323,0.323,0.323,0.323,0.323,0.323,0.323,0.323,0.323,0.323,0.323,0.324,0.324,0.324,0.324,0.324,0.324,0.324,0.325,0.325,0.325,0.326,0.326,0.326,0.326,0.326,0.326,0.327,0.327,0.327,0.327,0.327,0.327,0.327,0.327,0.327,0.327,0.327,0.327,0,0.327,0.327,0.327,0.327,0.328,0.328,0.328,0,0.329,0.329,0.329,0.329,0.329,0.33,0.33,0.33,0.331,0.331,0.331,0.332,0.332,0.332,0.332,0.332,0.332,0.332,0.332,0.333,0.333,0.333,0.333,0.333,0,0.334,0.334,0.334,0.335,0.335,0.335,0.335,0.335,0.335,0.335,0.336,0.336,0.336,0.336,0.337,0.337,0.338,0.338,0.338,0.339,0.339,0,0.34,0.34,0.341,0.341,0.342,0.342,0.342,0.343,0.343,0.344,0.344,0.345,0.345,0.345,0.345,0.346,0,0.347,0.348,0.348,0.349,0.35,0.351,0.351,0.352,0,0.353,0.354,0.355,0.355,0.355,0.356,0.356,0.357,0,0,0,0,0,0,0,0.383,0,0.384,0.384,0.385,0.385,0.385,0.385,0.386,0.385,0.385,0.385,0.385,0.385,0.384,0,0,0,0.379,0.378,0.378,0.378,0.377,0.377,0.377,0.376,0.374,0.373,0.373,0.372,0.371,0.37,0.37,0.369,0.369,0.368,0.367,0.366,0.366,0.365,0.365,0.364,0.364,0.363,0.363,0.363,0.362,0.362,0.362,0.361,0.361,0.36,0,0,0,0,0.357,0.356,0.355,0.355,0.355,0.354,0.353,0.352,0.352,0.351,0.351,0.35,0.349,0.349,0.348,0.348,0.346,0.345,0.345,0.345,0.345,0.344,0.344,0.343,0.343,0.342,0.342,0.342,0.342,0.341,0.341,0.34,0.339,0.338,0.338,0.337,0.337,0.337,0.337,0,0,0.335,0.335,0.334,0.334,0.333,0.332,0.332,0.33,0.329,0.329,0.329,0.328,0.328,0.327,0.327,0.327,0,0,0,0,0,0,0,0,0,0,0,0,0,0,0,0,0,0,0,0,0,0,0,0,0,0,0,0,0,0,0,0,0,0,0,0,0,0,0,0,0,0,0,0,0,0,0,0,0,0,0,0,0,0,0,0,0,0,0,0,0,0,0,0,0,0,0,0,0,0,0,0,0,0,0,0,0,0,0
0,0,0,0,0,0,0,0,0,0,0,4.218,4.173,4.114,4.07,4.028,4.056,4.07,4.07,4.07,4.07,4.07,4.056,4.014,3.946,3.855,3.804,3.743,3.627,3.528,3.475,3.424,3.298,3.243,3.207,3.189,3.181,3.163,3.155,3.155,3.146,3.146,3.146,3.155,3.155,3.155,3.163,3.163,3.172,3.181,3.189,3.189,3.216,3.225,3.243,3.288,3.317,3.336,3.365,3.384,3.404,3.414,3.434,3.444,3.454,3.465,3.485,3.517,3.582,3.649,3.707,3.767,3.804,3.842,3.855,3.868,3.868,3.855,3.829,3.817,3.78,3.755,3.696,3.649,3.615,3.593,3.627,3.696,3.767,3.829,3.893,4.028,4.203,4.28,4.328,0,4.393,4.41,4.46,4.512,4.53,4.565,4.565,4.565,4.565,4.53,4.53,4.512,4.477,4.477,4.46,4.46,4.46,4.426,4.426,4.426,4.426,4.41,4.41,4.41,4.41,4.393,4.393,4.393,0,0,0,0,0,0,0,0,0,0,0,0,0,0,0,0,0,0.802,0.803,0.803,0.803,0.804,0.804,0.804,0.803,0.803,0.802,0.801,0.8,0.798,0.788,0.784,0.782,0.78,0.777,0.775,0.772,0.77,0.769,0.766,0.765,0.763,0.76,0.755,0.752,0.75,0.745,0.743,0.741,0.741,0.739,0.738,0.738,0.737,0.736,0.735,0.734,0.733,0.73,0.723,0,0.718,0.714,0.71,0.706,0.706,0.704,0.703,0.7,0.698,0.696,0.694,0.693,0.692,0.686,0.683,0.681,0.68,0.678,0.674,0.669,0.668,0.667,0.666,0.665,0.663,0.661,0.66,0.658,0.657,0.656,0.655,0.655,0.651,0.648,0.646,0.644,0.643,0.641,0.64,0.634,0.633,0.632,0.632,0.63,0.627,0.624,0.622,0.618,0.615,0.613,0.612,0.611,0.611,0.611,0.61,0.612,0.611,0.611,0.61,0.609,0.608,0.604,0.603,0.601,0.601,0.599,0.597,0.594,0.593,0.592,0.591,0,0,0,0,0,0,0,0,0,0,0,0,0,0,0,0,0,0,0,0,0,0,0,0,0,0,0,0,0.336,0,0.333,0,0.331,0.331,0.331,0.331,0.33,0.33,0.33,0.33,0.329,0.329,0.329,0.329,0.327,0.327,0.326,0.326,0.325,0.325,0.324,0.324,0.324,0.324,0.323,0.323,0.323,0.323,0.323,0.323,0.323,0.323,0.323,0.323,0.323,0.323,0.323,0.323,0.323,0.324,0.324,0.324,0.324,0.324,0.324,0.325,0.325,0.325,0.326,0.326,0.326,0.326,0.326,0.326,0.326,0.326,0.327,0.327,0.327,0.327,0.327,0.327,0.327,0.327,0.327,0.327,0.327,0.327,0.327,0.327,0.328,0.328,0.328,0,0.329,0.329,0.329,0.329,0.329,0.33,0.33,0.331,0.331,0.331,0.331,0.332,0.332,0.332,0.332,0.332,0.332,0.332,0.333,0.333,0.333,0.333,0.333,0,0.334,0.334,0.334,0.335,0.335,0.335,0.335,0.335,0.335,0.335,0.335,0.336,0.336,0.336,0.337,0.337,0.338,0.338,0.338,0.339,0.339,0.339,0,0.34,0.341,0.341,0.342,0.342,0.342,0.342,0.343,0.344,0.344,0.345,0.345,0.345,0.345,0,0.346,0.347,0.347,0.348,0.348,0.349,0.35,0.351,0.352,0,0.353,0.354,0.355,0.355,0.355,0.356,0.356,0.357,0.357,0,0,0,0,0,0,0.382,0.383,0,0.384,0.384,0.384,0,0.385,0.385,0.385,0.384,0.383,0.382,0.382,0.381,0.381,0,0.379,0.378,0.377,0.377,0.377,0.377,0.377,0.376,0,0,0.373,0.372,0.372,0.371,0.369,0.369,0.369,0.368,0.367,0.366,0.366,0.365,0.364,0.363,0.363,0.363,0.362,0.362,0.362,0.362,0.362,0.361,0.361,0.359,0.359,0.358,0,0,0,0.355,0.355,0.355,0.355,0.354,0.353,0.353,0.352,0.351,0.351,0,0.35,0,0,0,0.348,0.346,0.345,0.345,0.345,0.344,0.344,0.343,0.342,0.342,0.342,0.342,0.341,0.341,0.341,0.34,0.339,0.338,0.338,0.337,0.337,0.336,0.336,0.336,0.336,0.336,0.335,0.335,0.334,0.333,0.333,0,0.332,0.33,0.329,0.329,0.329,0.328,0.328,0.327,0.327,0.327,0.327,0,0,0,0,0,0,0,0,0,0,0,0,0,0,0,0,0,0,0,0,0,0,0,0,0,0,0,0,0,0,0,0,0,0,0,0,0,0,0,0,0,0,0,0,0,0,0,0,0,0,0,0,0,0,0,0,0,0,0,0,0,0,0,0,0,0,0,0,0,0,0,0,0,0,0,0,0,0,0
0,0,0,0,0,0,0,0,0,0,0,0,0,0,0,4.249,4.249,4.264,4.264,4.264,4.264,4.264,4.249,4.249,4.218,4.128,4.014,3.855,3.78,3.649,3.506,3.454,3.317,3.261,3.225,3.198,3.181,3.163,3.155,3.146,3.146,3.146,3.146,3.146,3.155,3.155,3.163,3.163,3.172,3.181,3.189,3.189,3.207,3.225,3.261,3.288,3.317,3.336,3.365,3.394,3.404,3.414,3.434,3.444,3.454,3.465,3.485,3.506,3.549,3.627,3.696,3.767,3.817,3.842,3.868,3.893,3.893,3.88,3.868,3.855,3.829,3.804,3.767,3.731,3.672,3.661,3.661,3.696,3.755,3.817,3.868,3.973,4.128,4.249,4.312,4.36,0,4.41,4.46,4.477,4.512,4.53,4.565,4.565,4.53,4.53,4.512,4.477,4.46,4.46,4.46,4.426,4.426,4.426,4.426,4.41,4.41,4.41,4.41,4.41,4.393,4.41,4.41,0,0,0,0,0,0,0,0,0,0,0,0,0,0,0,0,0,0,0.801,0.801,0.801,0.801,0.801,0.801,0.801,0.801,0.8,0.8,0.798,0.797,0.788,0.784,0.782,0.781,0.779,0.776,0.773,0.77,0.769,0.766,0.765,0.763,0.758,0.753,0.751,0.749,0.742,0.739,0.737,0.736,0.736,0.736,0.735,0.735,0.734,0.734,0.734,0.731,0.724,0.722,0.72,0.716,0.711,0.708,0.704,0.703,0.7,0.699,0.696,0.695,0.694,0.693,0.692,0.687,0.684,0.681,0.68,0.678,0.675,0.672,0.668,0.666,0.664,0.663,0.661,0.659,0.658,0.657,0.656,0.655,0.655,0.654,0.651,0.649,0.647,0.645,0.644,0.642,0.64,0.635,0.633,0.632,0.631,0.629,0.627,0.624,0.622,0.621,0.617,0.614,0.612,0.611,0.61,0.61,0.609,0.608,0.607,0.606,0.603,0.602,0.604,0.603,0.602,0.601,0.6,0.598,0.597,0.594,0.592,0.591,0.589,0.586,0.585,0.584,0,0,0,0,0.579,0,0,0,0,0,0,0,0,0,0,0,0,0,0,0,0,0,0,0,0,0,0,0,0,0.332,0.332,0.331,0.331,0.33,0.33,0.33,0.33,0.33,0.329,0.329,0.329,0.328,0.327,0.326,0.326,0.326,0.325,0.324,0.324,0.324,0.324,0.323,0.323,0.323,0.323,0.323,0.323,0.323,0.323,0.323,0.323,0.323,0.323,0.323,0.323,0.323,0.323,0.323,0.323,0.323,0.324,0.324,0.324,0.324,0.324,0.324,0.325,0.325,0.326,0.326,0.326,0.326,0.326,0.326,0.326,0.326,0.326,0.326,0.326,0.326,0.327,0.327,0.327,0.327,0.327,0.327,0.327,0.327,0.328,0.328,0.328,0.328,0,0.329,0.329,0.329,0.329,0.329,0.33,0.33,0.331,0.331,0.331,0.332,0.332,0.332,0.332,0.332,0.332,0.332,0.333,0.333,0.333,0.333,0.333,0,0.334,0.334,0.334,0.335,0.335,0.335,0.335,0.335,0.335,0.335,0.335,0.336,0.336,0.336,0.336,0.337,0.337,0.338,0.338,0.338,0.339,0.339,0,0.34,0.34,0.341,0.341,0.342,0.342,0.342,0.343,0.344,0.344,0.344,0.345,0.345,0.345,0,0.346,0.347,0.347,0.348,0.348,0.349,0.35,0.351,0,0.352,0,0.354,0.354,0.355,0.355,0.356,0.356,0.357,0.357,0,0,0,0,0,0,0,0.382,0.383,0.382,0.382,0.383,0.382,0.382,0.383,0.383,0.383,0.382,0.382,0.381,0.381,0.381,0.379,0.378,0.377,0.377,0.377,0.377,0.376,0.376,0.375,0.374,0,0,0.371,0.37,0.37,0.369,0.369,0.368,0.367,0.366,0.366,0.365,0.365,0.363,0.363,0.362,0.362,0.362,0.362,0.361,0.361,0.36,0.359,0.359,0.359,0.358,0.358,0.357,0.356,0.355,0.355,0.354,0.354,0.354,0.353,0.353,0.352,0.352,0.351,0.35,0.35,0.349,0.348,0.348,0,0.346,0.346,0.345,0.345,0.344,0.344,0.343,0.342,0.342,0.341,0.341,0.341,0.341,0.341,0.34,0.34,0.338,0.338,0.338,0.337,0.337,0.336,0.336,0.335,0.335,0.335,0.335,0.335,0,0.333,0.333,0.332,0.332,0.33,0.329,0.329,0.328,0.327,0.327,0.326,0.327,0.326,0.326,0,0,0,0,0,0,0,0,0,0,0,0,0,0,0,0,0,0,0,0,0,0,0,0,0,0,0,0,0,0,0,0,0,0,0,0,0,0,0,0,0,0,0,0,0,0,0,0,0,0,0,0,0,0,0,0,0,0,0,0,0,0,0,0,0,0,0,0,0,0,0,0,0,0,0,0,0,0,0,0
0,0,0,0,0,8.955,0,0,0,4.851,4.771,4.657,4.565,0,4.36,4.344,4.36,4.36,4.36,4.376,4.41,4.41,4.393,4.376,4.328,4.28,4.233,0,3.829,3.731,3.549,3.465,3.326,3.288,3.225,3.207,3.181,3.163,3.155,3.155,3.146,3.146,3.146,3.146,3.155,3.155,3.163,3.172,3.181,3.181,3.189,3.198,3.225,3.234,3.261,3.288,3.317,3.336,3.365,3.394,3.404,3.414,3.434,3.444,3.444,3.454,3.465,3.496,3.528,3.582,3.661,3.743,3.804,3.842,3.88,3.92,3.933,3.92,3.906,3.893,3.868,3.842,3.817,3.792,3.755,3.731,3.707,3.743,3.767,3.804,3.855,3.92,4.07,4.218,4.28,4.328,4.393,4.426,0,4.46,4.512,4.512,4.53,4.53,4.512,4.477,4.477,4.46,4.46,4.426,4.426,4.41,4.41,4.41,4.41,4.41,4.41,4.41,4.41,0,0,0,0,0,0,0,0,0,0,0,0,0,0,0,0,0,0,0.804,0,0,0,0.8,0.8,0.8,0.8,0.8,0.8,0.799,0.798,0.798,0.796,0.794,0.787,0.784,0.783,0.781,0.779,0.777,0.774,0.77,0.769,0.766,0.765,0.763,0.758,0.753,0.751,0.748,0.739,0.737,0.735,0.735,0.734,0.734,0.734,0.733,0.733,0.732,0.73,0.728,0.723,0.721,0.719,0.714,0.709,0.704,0.702,0.699,0.698,0.695,0.694,0.693,0.693,0.692,0.69,0.684,0.682,0.68,0.679,0.676,0.673,0.668,0.667,0.664,0.661,0.658,0.657,0.657,0.656,0.655,0.655,0.654,0.651,0.65,0.648,0.647,0.645,0.644,0.643,0.641,0.635,0.633,0.632,0.631,0.629,0.626,0.624,0.623,0.622,0.618,0.616,0.613,0.612,0.611,0.609,0.608,0.607,0.604,0.603,0.603,0.602,0.601,0.601,0.6,0.598,0.597,0.599,0.596,0.593,0.592,0.591,0.588,0,0.584,0.582,0.582,0.581,0.58,0.578,0,0.574,0.573,0,0,0,0,0,0,0,0,0,0,0,0,0,0,0,0,0,0,0,0,0,0,0,0,0.332,0.332,0.331,0.33,0.33,0.33,0.33,0.33,0.329,0.329,0.329,0.328,0.327,0.326,0.326,0.325,0.325,0.324,0.324,0.323,0.323,0.323,0.323,0.323,0.323,0.323,0.323,0.323,0.323,0.323,0.323,0.323,0.323,0.323,0.323,0.323,0.323,0.323,0.323,0.323,0.323,0.324,0.324,0.324,0.324,0.324,0.324,0.324,0.325,0.325,0.325,0.326,0.326,0.326,0.326,0.326,0.326,0.326,0.326,0.326,0.326,0.326,0.327,0.327,0.327,0.327,0.327,0.327,0.327,0.328,0.328,0.328,0.328,0,0.329,0.329,0.329,0.329,0.33,0.33,0.33,0.331,0.331,0.331,0.332,0.332,0.332,0.332,0.332,0.332,0.333,0.333,0.333,0.333,0.333,0.333,0,0.334,0.334,0.334,0.335,0.335,0.335,0.335,0.335,0.335,0.335,0.336,0.336,0.336,0.336,0.336,0.337,0.337,0.338,0.338,0.338,0.339,0.339,0,0.34,0.341,0.341,0.342,0.342,0.342,0.343,0.343,0.344,0.344,0.345,0.345,0.345,0,0.346,0.346,0.347,0.348,0.348,0.348,0.349,0.351,0.351,0,0.352,0.353,0.354,0.355,0.355,0.356,0.356,0.357,0.357,0.358,0,0,0,0,0,0,0,0.382,0.382,0.382,0.382,0.382,0.382,0.382,0.382,0.381,0.381,0.381,0.381,0.38,0.378,0.378,0.377,0.377,0.377,0.376,0.375,0.375,0.374,0.373,0.373,0.372,0.371,0.37,0.37,0.369,0.369,0.368,0.367,0.366,0.366,0.366,0.365,0.364,0.363,0.362,0.362,0.362,0.362,0.362,0.361,0.361,0.359,0.359,0.359,0.358,0.358,0.357,0.357,0.356,0.355,0.354,0.353,0.353,0.352,0.352,0.352,0.352,0.351,0.351,0.35,0.349,0.349,0.348,0.348,0.348,0.346,0.345,0.345,0.345,0.344,0.343,0.342,0.342,0.342,0.341,0.341,0.34,0.34,0.339,0.339,0.339,0.339,0,0,0,0.336,0.336,0.336,0.335,0.335,0.335,0.335,0,0,0,0,0,0,0,0,0,0.328,0.327,0.327,0.326,0.326,0.326,0,0,0,0,0,0,0,0,0,0,0,0,0,0,0,0,0,0,0,0,0,0,0,0,0,0,0,0,0,0,0,0,0,0,0,0,0,0,0,0,0,0,0,0,0,0,0,0,0,0,0,0,0,0,0,0,0,0,0,0,0,0,0,0,0,0,0,0,0,0,0,0,0,0,0,0,0,0,0,0,0,0
0,0,0,0,8.256,0,0,0,0,4.996,4.912,4.83,4.81,4.713,4.638,4.583,4.565,4.583,4.583,4.565,4.565,4.583,4.565,4.53,4.426,4.344,4.28,4.218,3.868,3.78,3.593,3.485,3.336,3.298,3.243,3.207,3.189,3.163,3.155,3.155,3.146,3.146,3.146,3.146,3.155,3.163,3.172,3.181,3.189,3.189,3.207,3.216,3.234,3.261,3.288,3.317,3.336,3.355,3.384,3.394,3.414,3.424,3.434,3.444,3.444,3.454,3.465,3.485,3.517,3.56,3.627,3.707,3.78,3.829,3.868,3.906,3.946,3.973,3.946,3.933,3.92,3.88,3.855,3.829,3.804,3.792,3.767,3.767,3.78,3.804,3.842,3.88,4.014,4.158,4.249,4.312,4.36,4.393,4.426,4.46,4.477,4.477,4.512,4.477,4.477,4.477,4.46,4.46,4.426,4.426,4.41,4.41,4.41,4.41,4.41,4.41,4.41,0,0,0,0,0,0,0,0,0,0,0,0,0,0,0,0,0.812,0.81,0.808,0.804,0.802,0.801,0.801,0.8,0.799,0.799,0.799,0.798,0.798,0.798,0.797,0.796,0.794,0.792,0.787,0.784,0.783,0.782,0.78,0.778,0.775,0.771,0.769,0.767,0.765,0.762,0.758,0.753,0.75,0.743,0.738,0.735,0.734,0.734,0.733,0.732,0.73,0.73,0.729,0.729,0.728,0.724,0.722,0.72,0.717,0.712,0.708,0.702,0.698,0.696,0.694,0.693,0.693,0.692,0.691,0.686,0.684,0.682,0.68,0.679,0.677,0.673,0.668,0.667,0.665,0.662,0.659,0.657,0.656,0.655,0.655,0.654,0.65,0.649,0.648,0.646,0.645,0.645,0.644,0.643,0.64,0.635,0.633,0.632,0.63,0.628,0.625,0.624,0.622,0.622,0.618,0.615,0.614,0.612,0.611,0.61,0.608,0.607,0.603,0.603,0.602,0.601,0.601,0.6,0.599,0.598,0.596,0.594,0.592,0.592,0.588,0.585,0.588,0.585,0.583,0.582,0.581,0.579,0.578,0.575,0.574,0.573,0.572,0.571,0.571,0.569,0.568,0,0,0,0,0,0,0,0,0,0,0,0,0,0,0,0,0,0,0,0,0.333,0.332,0,0.331,0.33,0.33,0.33,0.33,0.33,0.329,0.329,0.329,0.328,0.327,0.326,0.326,0.325,0.324,0.324,0.324,0.323,0.323,0.323,0.323,0.323,0.322,0,0.323,0.323,0.323,0.323,0.323,0.323,0.323,0.323,0.323,0.323,0.323,0.323,0.323,0.323,0.323,0.323,0.323,0.323,0.324,0.324,0.324,0.324,0.324,0.324,0.325,0.325,0.325,0.326,0.326,0.326,0.326,0.326,0.326,0.326,0.326,0.326,0.326,0.326,0.327,0.327,0.327,0.327,0.327,0.327,0.328,0.328,0.328,0.328,0,0.329,0.329,0.329,0.329,0.33,0.33,0.33,0.331,0.331,0.331,0.332,0.332,0.332,0.332,0.332,0.333,0.333,0.333,0.333,0.333,0.333,0,0.334,0.334,0.334,0.335,0.335,0.335,0.335,0.335,0.335,0.335,0.336,0.336,0.336,0.336,0.336,0.336,0.337,0.337,0.338,0.338,0.338,0.339,0.339,0,0.34,0.341,0.341,0.342,0.342,0.342,0.343,0.344,0.344,0.344,0.345,0.345,0.345,0,0.346,0.347,0.348,0.348,0.348,0.349,0.35,0.351,0,0.352,0,0.354,0.354,0.355,0.355,0.356,0.358,0.358,0.358,0.359,0.359,0,0,0,0,0,0,0.382,0.382,0.382,0.382,0.381,0.381,0.381,0.381,0.381,0.38,0.38,0.378,0.378,0.377,0.377,0.377,0.376,0.376,0.375,0.373,0.373,0.373,0.372,0.371,0.37,0.37,0.369,0.368,0.368,0.367,0.366,0.366,0.366,0.365,0.364,0.363,0.362,0.362,0.362,0.362,0.361,0.361,0.36,0.359,0.359,0.358,0.358,0.358,0.357,0.356,0.356,0.355,0.354,0.353,0,0.352,0.352,0.351,0.351,0.351,0.351,0.351,0.35,0.349,0.348,0.348,0.348,0.346,0.345,0.345,0.344,0.344,0.343,0.342,0.342,0.341,0.341,0.341,0.34,0.34,0.339,0.339,0.339,0.338,0.338,0,0,0,0,0.335,0.335,0.335,0.335,0.335,0,0,0,0,0,0,0,0,0,0,0,0,0,0,0.326,0,0,0,0,0,0,0,0,0,0,0,0,0,0,0,0,0,0,0,0,0,0,0,0,0,0,0,0,0,0,0,0,0,0,0,0,0,0,0,0,0,0,0,0,0,0,0,0,0,0,0,0,0,0,0,0,0,0,0,0,0,0,0,0,0,0,0,0,0,0,0,0,0,0,0,0,0,0,0,0,0,0,0,0
0,0,0,0,0,7.559,6.54,0,5.415,5.151,4.996,4.912,4.871,4.83,4.81,4.771,4.771,4.752,4.752,4.752,4.732,4.732,4.752,4.694,4.583,4.46,4.344,4.28,4.173,3.804,3.649,3.496,3.355,3.298,3.261,3.216,3.189,3.172,3.155,3.155,3.155,3.155,3.155,3.155,3.155,3.163,3.172,3.189,3.189,3.207,3.225,3.243,3.27,3.288,3.317,3.326,3.355,3.365,3.394,3.404,3.414,3.424,3.434,3.434,3.444,3.444,3.454,3.475,3.496,3.528,3.582,3.661,3.743,3.804,3.855,3.893,3.933,3.973,3.987,3.973,3.973,3.92,3.893,3.868,3.842,3.817,3.804,3.804,3.804,3.804,3.829,3.855,3.893,3.946,4.07,4.173,4.233,4.249,4.28,4.312,4.328,4.344,4.376,4.376,4.41,4.426,4.426,4.426,4.41,4.41,4.393,4.393,4.393,4.393,4.393,4.393,0,0,0,0,0,0,0,0,0,0,0,0,0,0,0.809,0.81,0.81,0.808,0.806,0.803,0.802,0.801,0.801,0.8,0.799,0.798,0.798,0.797,0.797,0.796,0.796,0.794,0.792,0.79,0.788,0.784,0.783,0.782,0.78,0.777,0.775,0.771,0.768,0.765,0.763,0.76,0.754,0.752,0.749,0.741,0,0.735,0.733,0.732,0.73,0.728,0.727,0.726,0.725,0.724,0.723,0.721,0.72,0.718,0.714,0.71,0.707,0.7,0.695,0.693,0.693,0.692,0.691,0.69,0.688,0.684,0.681,0.68,0.679,0.678,0.674,0.671,0.667,0.666,0.662,0.66,0.657,0.656,0.655,0.654,0.65,0.649,0.647,0.646,0.645,0.644,0.644,0.643,0.642,0.64,0.638,0.633,0.632,0.63,0.627,0.624,0.623,0.622,0.621,0.618,0.616,0.614,0.612,0.611,0.611,0.609,0.608,0.603,0.602,0.602,0.601,0.6,0.599,0.598,0.597,0.595,0.593,0.592,0.592,0.591,0.586,0.584,0.582,0.581,0.579,0.576,0.578,0.574,0.573,0.573,0.572,0.572,0.571,0.569,0.568,0.567,0.567,0.567,0,0,0,0,0,0,0,0,0,0,0,0,0,0,0,0,0,0,0,0,0.333,0.332,0,0.331,0.33,0.33,0.33,0.33,0.329,0.329,0.329,0.327,0.327,0.326,0.326,0.325,0.324,0,0.323,0.323,0.322,0.322,0.322,0.322,0.322,0.322,0.322,0.322,0.322,0.322,0.322,0,0.323,0.323,0.323,0.323,0.323,0.323,0.323,0.323,0.323,0.323,0.323,0.323,0.323,0.323,0.323,0.324,0.324,0.324,0.324,0.324,0.324,0.325,0.325,0.326,0.326,0.326,0.326,0.326,0.326,0.326,0.326,0.326,0.326,0.327,0.327,0.327,0.327,0.327,0.327,0.327,0.328,0.328,0.328,0,0.329,0.329,0.329,0.329,0.33,0.33,0.33,0.331,0.331,0.332,0.332,0.332,0.332,0.332,0.333,0.333,0.333,0.333,0.333,0.333,0,0.334,0.334,0.334,0.335,0.335,0.335,0.335,0.335,0.335,0.335,0.335,0.336,0.336,0.336,0.336,0.336,0.337,0.337,0.337,0.338,0.338,0.338,0.339,0.339,0,0.34,0.341,0.341,0.342,0.342,0.342,0.343,0.344,0.344,0.345,0.345,0.345,0,0.346,0.346,0.347,0.348,0.348,0.348,0.349,0.351,0.351,0,0.352,0.354,0.355,0.355,0.356,0.358,0.358,0.359,0.359,0.359,0,0,0,0,0,0,0.381,0.381,0.381,0.381,0.381,0.381,0.381,0.381,0.381,0.38,0.38,0.378,0.378,0.377,0.377,0.377,0.376,0.376,0.375,0.373,0.373,0.373,0.372,0.371,0.37,0.37,0.369,0.368,0.367,0.367,0.366,0.366,0.366,0.365,0.365,0.363,0.362,0.362,0.362,0.361,0.361,0.36,0.36,0.359,0.358,0.358,0.358,0.357,0.357,0.356,0.356,0.355,0.354,0.354,0.353,0.352,0.352,0.351,0.351,0.351,0.35,0.35,0.35,0.349,0,0.348,0.348,0.347,0.345,0.345,0.344,0.343,0.343,0.342,0.342,0.341,0.341,0.341,0.341,0.34,0.339,0.339,0.339,0.338,0.338,0.337,0.337,0.336,0,0,0.335,0.335,0.334,0,0,0,0,0,0,0,0,0,0,0,0,0,0,0,0,0,0,0,0,0,0,0,0,0,0,0,0,0,0,0,0,0,0,0,0,0,0,0,0,0,0,0,0,0,0,0,0,0,0,0,0,0,0,0,0,0,0,0,0,0,0,0,0,0,0,0,0,0,0,0,0,0,0,0,0,0,0,0,0,0,0,0,0,0,0,0,0,0,0,0,0,0,0,0,0,0,0,0,0,0,0
0,0,0,7.098,6.888,6.614,6.259,0,5.465,5.268,5.106,5.018,4.933,4.912,4.871,4.851,4.851,4.851,4.851,4.83,4.83,4.83,4.81,4.81,4.771,4.583,4.46,4.328,4.249,4.014,3.672,3.496,3.355,3.298,3.261,3.225,3.189,3.181,3.163,3.155,3.155,3.155,3.155,3.163,3.163,3.172,3.181,3.189,3.207,3.225,3.243,3.27,3.298,3.326,3.336,3.365,3.384,3.394,3.404,3.414,3.424,3.434,3.434,3.434,3.444,3.444,3.454,3.465,3.475,3.496,3.528,3.593,3.672,3.767,3.817,3.868,3.906,3.946,3.973,3.987,3.987,3.973,3.933,3.906,3.868,3.855,3.829,3.817,3.817,3.817,3.817,3.829,3.842,3.868,3.893,3.933,3.987,4.056,4.114,4.173,4.233,4.264,4.28,4.312,4.328,4.36,4.393,4.393,4.393,4.393,4.393,4.376,4.376,4.393,4.376,0,0,0,0,0,0,0,0,0,0,0,0,0,0,0.805,0.806,0.806,0.806,0.805,0.803,0.802,0.801,0.8,0.799,0.798,0.798,0.797,0.796,0.796,0.795,0.794,0.792,0.79,0.788,0.784,0.782,0.781,0.779,0.777,0.773,0.77,0.767,0.766,0.763,0.76,0.755,0.752,0.75,0.748,0.739,0,0.734,0.732,0.728,0.727,0.725,0.724,0.723,0.722,0.722,0.721,0.72,0.719,0.717,0.713,0.709,0.703,0.699,0.694,0.693,0.692,0.69,0.688,0.684,0.682,0.681,0.68,0.679,0.678,0.675,0.672,0.67,0.666,0.664,0.66,0.657,0.656,0.655,0.654,0.649,0.647,0.646,0.645,0.644,0.644,0.643,0.642,0.641,0.64,0.637,0.633,0.632,0.63,0.627,0.624,0.622,0.622,0.62,0.618,0.616,0.614,0.612,0.611,0.611,0.61,0.609,0.607,0.602,0.602,0.601,0.6,0.599,0.597,0.595,0,0.593,0.592,0.591,0.589,0.587,0.585,0.583,0.582,0.58,0.577,0.573,0.572,0.571,0.57,0.572,0.571,0.57,0.57,0.569,0.567,0.566,0.566,0.566,0,0,0,0,0,0,0,0,0,0,0,0,0,0,0,0,0,0,0,0,0,0.332,0.332,0.331,0.331,0.33,0.33,0.33,0.329,0.329,0.329,0.327,0.327,0.326,0.326,0.325,0.324,0,0,0.323,0.322,0.322,0.322,0.322,0.322,0.322,0.322,0.322,0.322,0.322,0.322,0.322,0.322,0.322,0,0.323,0.323,0.323,0.323,0.323,0.323,0.323,0.323,0.323,0.323,0.323,0.323,0.323,0.323,0.324,0.324,0.324,0.324,0.324,0.324,0.325,0.325,0.326,0.326,0.326,0.326,0.326,0.326,0.326,0.326,0.326,0.327,0.327,0.327,0.327,0.327,0.327,0.328,0.328,0.328,0.328,0,0.329,0.329,0.329,0.329,0.33,0.33,0.33,0.331,0.331,0.332,0.332,0.332,0.332,0.332,0.333,0.333,0.333,0.333,0,0.334,0.334,0.334,0.334,0.335,0.335,0.335,0.335,0.335,0.335,0.335,0.335,0.336,0.336,0.336,0.336,0.336,0.336,0.337,0.337,0.337,0.338,0.338,0.338,0.339,0.339,0,0.34,0.341,0.341,0.341,0.342,0.342,0.343,0.344,0.344,0.345,0.345,0,0.346,0.346,0.347,0.348,0.348,0.349,0.35,0.35,0.351,0.351,0.352,0.352,0.354,0.355,0.355,0,0.358,0.359,0.36,0,0,0,0,0,0,0,0.38,0.38,0.38,0.381,0.381,0.381,0.381,0.381,0.38,0.38,0.379,0.378,0.377,0.377,0.377,0.376,0.376,0.374,0.374,0.373,0.373,0.373,0.372,0.371,0.37,0.369,0.369,0.368,0.367,0.366,0.366,0.366,0.366,0.365,0.364,0.363,0.362,0.362,0.361,0.361,0.36,0.359,0.359,0.358,0.358,0,0,0.356,0.356,0.355,0.355,0.354,0.354,0.353,0,0.352,0.351,0.351,0.351,0.35,0.349,0.349,0.349,0.348,0.348,0.348,0.347,0.345,0.345,0.344,0.344,0.342,0.342,0.342,0.341,0.341,0.341,0.34,0.34,0.339,0.339,0.339,0.338,0.337,0.336,0.336,0.336,0.335,0.335,0.335,0.333,0.333,0.333,0.332,0,0,0,0,0,0,0,0,0,0,0,0,0,0,0,0,0,0,0,0,0,0,0,0,0,0,0,0,0,0,0,0,0,0,0,0,0,0,0,0,0,0,0,0,0,0,0,0,0,0,0,0,0,0,0,0,0,0,0,0,0,0,0,0,0,0,0,0,0,0,0,0,0,0,0,0,0,0,0,0,0,0,0,0,0,0,0,0,0,0,0,0,0,0,0,0,0,0,0,0,0,0
