3.047,3.055,3.072,3.096,3.096,3.113,3.121,3.129,3.129,3.138,3.138,3.146,3.146,3.146,3.146,3.155,3.155,3.172,3.189,3.216,3.298,3.414,3.485,3.582,3.6624999999999996,3.743,3.829,3.88,4.014,4.114,4.158,4.173,4.188,4.203,4.233,4.249,4.249,4.264,4.28,4.28,4.296,4.312,4.312,4.312,4.328,4.328,4.328,4.344,4.344,4.344,4.36,4.376,4.393,4.41,4.46,4.477,4.565,4.601,4.657,4.752,4.81,4.83,4.871,4.912,4.975,5.018,5.106,5.174,5.244,5.268,5.34,5.389,5.415,5.465,5.491,5.543,5.543,5.57,5.597,5.597,5.597,5.597,5.624,5.624,5.624,5.624,5.624,5.624,5.624,5.624,5.624,5.624,5.651,5.624,5.651,5.624,5.624,5.624,5.624,5.597,5.597,5.57,5.543,5.543,5.491,5.465,5.44,5.389,5.389,5.316,5.316,5.316,5.316,5.316,5.316,5.316,5.316,5.389,5.415,5.44,5.465,5.491,5.491,5.491,5.517,5.517,5.517,5.543,5.543,5.57,5.57,5.57,5.57,5.597,5.597,5.597,5.597,5.597,5.597,5.57,5.543,5.543,5.244,5.018,4.9345,4.851,4.771,4.694,4.583,4.512,4.46,4.393,4.344,4.312,4.28,4.264,4.249,4.218,4.188,4.173,4.158,4.128,4.128,4.114,4.114,4.114,4.114,4.114,4.128,4.158,4.188,4.233,4.249,4.28,4.312,4.328,4.36,4.41,4.46,4.512,4.583,4.638,4.732,4.771,4.81,4.83,4.8405000000000005,4.851,4.851,4.851,4.851,4.851,4.851,4.83,4.83,4.83,4.81,4.81,4.81,0.0,0.0,0.0,0.0,0.0,0.0,0.0,0.0,0.0,1.314,1.312,1.312,1.311,1.311,1.308,1.307,1.304,1.298,1.293,1.288,1.285,1.281,1.278,1.275,1.271,1.265,1.257,1.249,1.244,1.24,1.237,1.232,1.225,0.0,0.0,0.0,1.188,1.168,1.162,1.159,1.157,1.155,1.153,1.151,0.0,0.0,0.0,0.0,0.0,0.0,0.0,0.0,0.0,0.0,0.0,0.0,0.0,0.0,0.0,0.0,0.0,0.0,0.0,0.0,0.0,0.0,0.0,0.0,0.0,0.0,0.0,0.0,0.0,0.0,0.0,0.397,0.397,0.397,0.397,0.397,0.397,0.397,0.397,0.397,0.396,0.395,0.394,0.393,0.392,0.389,0.389,0.388,0.388,0.387,0.386,0.386,0.386,0.386,0.385,0.385,0.385,0.385,0.385,0.385,0.386,0.386,0.386,0.386,0.387,0.387,0.388,0.388,0.389,0.389,0.389,0.389,0.38950000000000007,0.39,0.39,0.391,0.391,0.391,0.391,0.391,0.391,0.392,0.392,0.391,0.391,0.391,0.391,0.392,0.392,0.392,0.392,0.392,0.392,0.393,0.393,0.393,0.393,0.393,0.394,0.394,0.394,0.394,0.395,0.395,0.395,0.396,0.396,0.397,0.397,0.397,0.397,0.397,0.397,0.397,0.397,0.397,0.397,0.398,0.398,0.398,0.398,0.398,0.3985,0.399,0.399,0.399,0.399,0.39949999999999997,0.4,0.4,0.4,0.4,0.401,0.401,0.401,0.401,0.401,0.401,0.402,0.402,0.402,0.402,0.402,0.402,0.403,0.403,0.404,0.404,0.405,0.405,0.406,0.406,0.407,0.408,0.409,0.41,0.411,0.411,0.413,0.415,0.416,0.416,0.417,0.4175,0.418,0.419,0.42,0.421,0.421,0.423,0.424,0.425,0.426,0.426,0.427,0.4275,0.428,0.429,0.43,0.431,0.431,0.432,0.433,0.435,0.436,0.436,0.43724999999999997,0.438,0.439,0.44,0.441,0.442,0.444,0.446,0.447,0.447375,0.448,0.45,0.451,0.452,0.453,0.454,0.456,0.457,0.458,0.458,0.4585,0.459,0.46,0.461,0.463,0.463,0.464,0.466,0.468,0.469,0.47,0.470875,0.472,0.474,0.475,0.476,0.476,0.477,0.479,0.48,0.481,0.481,0.482,0.482,0.483,0.483,0.484,0.485,0.4855,0.486,0.487,0.487,0.488,0.488,0.488,0.489,0.489,0.489,0.49,0.49,0.0,0.0,0.0,0.0,0.0,0.0,0.0,0.0,0.0,0.0,0.0,0.0,0.0,0.0,0.0,0.668,0.668,0.668,0.668,0.668,0.668,0.667,0.666,0.665,0.663,0.661,0.658,0.657,0.656,0.655,0.654,0.653,0.653,0.651,0.65,0.649,0.648,0.647,0.646,0.645,0.645,0.645,0.645,0.641,0.636,0.634,0.632,0.626,0.624,0.622,0.621,0.619,0.616,0.614,0.613,0.611,0.61,0.608,0.606,0.604,0.603,0.602,0.602,0.602,0.601,0.601,0.601,0.601,0.601,0.601,0.0,0.0,0.0,0.0,0.0
3.047,3.055,3.072,3.096,3.096,3.113,3.121,3.121,3.129,3.138,3.138,3.138,3.146,3.146,3.146,3.155,3.155,3.172,3.189,3.216,3.298,3.424,3.485,3.56,3.6334999999999997,3.707,3.817,3.868,3.946,4.056,4.07,4.085,4.128,4.173,4.203,4.218,4.249,4.249,4.264,4.28,4.296,4.312,4.312,4.312,4.312,4.312,4.312,4.328,4.328,4.328,4.344,4.344,4.376,4.393,4.41,4.46,4.512,4.53,4.601,4.694,4.771,4.81,4.851,4.891,4.912,4.975,5.04,5.106,5.174,5.22,5.244,5.316,5.389,5.415,5.44,5.465,5.491,5.543,5.57,5.57,5.57,5.57,5.597,5.597,5.597,5.597,5.597,5.597,5.597,5.624,5.597,5.597,5.624,5.624,5.597,5.624,5.597,5.624,5.597,5.597,5.57,5.57,5.543,5.517,5.491,5.44,5.415,5.389,5.34,5.316,5.268,5.268,5.244,5.268,5.268,5.268,5.268,5.34,5.34,5.415,5.44,5.465,5.465,5.491,5.491,5.491,5.517,5.517,5.543,5.543,5.57,5.57,5.57,5.597,5.597,5.597,5.597,5.597,5.57,5.57,5.543,5.543,5.244,5.084,4.975,4.9025,4.83,4.791,4.732,4.657,4.601,4.565,4.512,4.376,4.328,4.28,4.264,4.249,4.233,4.203,4.188,4.173,4.158,4.128,4.128,4.128,4.128,4.128,4.158,4.173,4.218,4.249,4.264,4.296,4.328,4.344,4.393,4.46,4.53,4.583,4.638,4.694,4.771,4.81,4.82,4.83,4.871,4.891,4.891,4.912,4.912,4.912,4.912,4.891,4.891,4.891,4.891,4.871,4.871,0.0,0.0,0.0,0.0,0.0,0.0,0.0,0.0,0.0,1.315,1.314,1.314,1.314,1.312,1.312,1.311,1.308,1.304,1.298,1.292,1.286,1.282,1.279,1.276,1.274,1.268,1.259,1.253,1.248,1.241,1.238,1.233,1.228,0.0,0.0,0.0,1.19,1.169,1.164,1.159,1.158,1.155,1.154,1.151,0.0,0.0,0.0,0.0,0.0,0.0,0.0,0.0,0.0,0.0,0.0,0.0,0.0,0.0,0.0,0.0,0.0,0.0,0.0,0.0,0.0,0.0,0.0,0.0,0.0,0.0,0.0,0.0,0.0,0.0,0.0,0.396,0.396,0.396,0.396,0.396,0.397,0.397,0.396,0.395,0.394,0.393,0.393,0.391,0.389,0.388,0.387,0.386,0.386,0.385,0.385,0.385,0.385,0.385,0.385,0.385,0.385,0.385,0.385,0.385,0.385,0.385,0.385,0.386,0.386,0.386,0.387,0.388,0.388,0.389,0.389,0.389,0.389,0.38950000000000007,0.39,0.39,0.39,0.39,0.391,0.391,0.391,0.391,0.391,0.391,0.391,0.391,0.391,0.391,0.391,0.391,0.391,0.392,0.392,0.392,0.392,0.393,0.393,0.393,0.393,0.393,0.393,0.394,0.394,0.394,0.394,0.395,0.395,0.396,0.396,0.396,0.396,0.397,0.397,0.397,0.397,0.397,0.397,0.397,0.398,0.398,0.398,0.398,0.398,0.398,0.399,0.399,0.399,0.399,0.399,0.39949999999999997,0.4,0.4,0.4,0.4,0.4,0.401,0.4,0.401,0.401,0.401,0.402,0.402,0.402,0.402,0.402,0.402,0.403,0.404,0.404,0.405,0.406,0.406,0.407,0.407,0.409,0.4095,0.41,0.411,0.412,0.413,0.415,0.416,0.416,0.417,0.4175,0.418,0.419,0.42,0.421,0.422,0.423,0.425,0.425,0.426,0.427,0.427375,0.428,0.429,0.429,0.43,0.431,0.431,0.433,0.434,0.435,0.436,0.437,0.4375,0.438,0.44,0.441,0.442,0.443,0.445,0.446,0.447,0.448,0.449,0.451,0.452,0.453,0.455,0.456,0.457,0.458,0.458,0.4585,0.459,0.46,0.461,0.462,0.463,0.464,0.466,0.468,0.469,0.47,0.471,0.473,0.475,0.475,0.476,0.477,0.478,0.48,0.481,0.481,0.482,0.482,0.483,0.483,0.484,0.48449999999999993,0.485,0.48562500000000003,0.486,0.487,0.487,0.488,0.488,0.488,0.489,0.489,0.489,0.489,0.49,0.0,0.0,0.0,0.0,0.0,0.0,0.0,0.0,0.0,0.0,0.0,0.0,0.0,0.0,0.0,0.667,0.667,0.667,0.667,0.667,0.667,0.665,0.664,0.662,0.661,0.658,0.657,0.656,0.655,0.655,0.654,0.653,0.651,0.65,0.649,0.648,0.646,0.646,0.645,0.644,0.644,0.64,0.638,0.632,0.6282500000000001,0.624,0.622,0.621,0.62,0.618,0.616,0.614,0.613,0.611,0.611,0.609,0.608,0.605,0.603,0.602,0.602,0.602,0.601,0.601,0.601,0.601,0.601,0.601,0.601,0.601,0.0,0.0,0.0,0.0,0.0
3.039,3.055,3.072,3.08,3.096,3.113,3.121,3.121,3.129,3.138,3.138,3.138,3.146,3.146,3.146,3.155,3.155,3.172,3.181,3.216,3.298,3.414,3.475,3.538,3.617625,3.672,3.804,3.855,3.92,3.973,3.987,4.028,4.07,4.114,4.173,4.203,4.218,4.249,4.264,4.28,4.296,4.312,4.312,4.312,4.312,4.312,4.312,4.312,4.312,4.328,4.328,4.328,4.344,4.36,4.393,4.41,4.46,4.477,4.565,4.638,4.732,4.791,4.83,4.851,4.891,4.933,4.996,5.04,5.106,5.106,5.174,5.244,5.268,5.268,5.316,5.389,5.415,5.44,5.491,5.491,5.543,5.543,5.57,5.57,5.57,5.57,5.57,5.57,5.597,5.597,5.597,5.597,5.597,5.597,5.597,5.597,5.57,5.597,5.597,5.57,5.57,5.543,5.543,5.465,5.44,5.415,5.389,5.34,5.316,5.268,5.244,5.22,5.22,5.22,5.22,5.22,5.244,5.268,5.34,5.389,5.44,5.465,5.465,5.465,5.491,5.491,5.491,5.517,5.543,5.543,5.543,5.57,5.57,5.57,5.57,5.57,5.57,5.57,5.57,5.57,5.543,5.517,5.415,5.174,5.04,4.954,4.891,4.851,4.83,4.791,4.752,4.696,4.657,4.583,4.393,4.328,4.312,4.28,4.264,4.249,4.218,4.203,4.188,4.173,4.158,4.158,4.158,4.158,4.173,4.188,4.233,4.249,4.28,4.312,4.344,4.376,4.426,4.53,4.583,4.657,4.713,4.752,4.781,4.81,4.83,4.851,4.912,4.912,4.933,4.954,4.954,4.975,4.975,4.975,4.954,4.912,4.912,4.912,4.912,4.912,0.0,0.0,0.0,0.0,0.0,0.0,0.0,0.0,1.317,1.317,1.317,1.315,1.315,1.315,1.314,1.312,1.308,1.307,1.298,1.292,1.285,1.281,1.278,1.275,1.269,1.263,1.256,1.249,1.244,1.24,1.237,1.233,1.225,1.214,1.198,1.192,1.169,1.164,1.161,1.158,1.157,1.154,1.151,0.0,0.0,0.0,0.0,0.0,0.0,0.0,0.0,0.0,0.0,0.0,0.0,0.0,0.0,0.0,0.0,0.0,0.0,0.0,0.0,0.0,0.0,0.0,0.0,0.0,0.0,0.0,0.0,0.0,0.394,0.395,0.395,0.395,0.395,0.395,0.395,0.396,0.395,0.395,0.394,0.393,0.392,0.389,0.388,0.387,0.386,0.385,0.385,0.385,0.385,0.385,0.384,0.385,0.384,0.384,0.384,0.384,0.384,0.385,0.385,0.385,0.385,0.385,0.385,0.385,0.386,0.386,0.387,0.388,0.388,0.389,0.389,0.389,0.389,0.389,0.38950000000000007,0.39,0.39,0.39,0.39,0.39,0.39,0.39,0.39,0.39,0.39,0.39,0.3905,0.391,0.391,0.391,0.391,0.391,0.391,0.392,0.392,0.393,0.393,0.393,0.393,0.393,0.393,0.393,0.394,0.394,0.394,0.395,0.395,0.395,0.395,0.396,0.396,0.396,0.396,0.396,0.397,0.397,0.397,0.397,0.397,0.398,0.398,0.398,0.398,0.398,0.398,0.398,0.399,0.399,0.399,0.399,0.399,0.399,0.399,0.399,0.4,0.4,0.4,0.4005,0.401,0.401,0.402,0.402,0.402,0.402,0.402,0.403,0.403,0.404,0.404,0.405,0.406,0.406,0.407,0.408,0.40887499999999993,0.41,0.41,0.411,0.412,0.414,0.415,0.416,0.416,0.417,0.4175,0.418,0.42,0.42,0.421,0.422,0.424,0.425,0.425,0.426,0.427,0.4275,0.428,0.429,0.43,0.431,0.431,0.432,0.433,0.434,0.435,0.436,0.437,0.438,0.439,0.44,0.441,0.443,0.445,0.446,0.447,0.448,0.449,0.451,0.452,0.453,0.455,0.456,0.457,0.458,0.458,0.45837500000000003,0.459,0.46,0.461,0.463,0.463,0.465,0.467,0.469,0.47,0.47075,0.472,0.474,0.475,0.476,0.477,0.478,0.479,0.481,0.481,0.482,0.482,0.483,0.483,0.484,0.48449999999999993,0.485,0.485,0.486,0.486,0.487,0.487,0.488,0.488,0.488,0.489,0.489,0.489,0.49,0.49,0.0,0.0,0.0,0.0,0.0,0.0,0.0,0.0,0.0,0.0,0.0,0.0,0.0,0.0,0.665,0.665,0.665,0.665,0.665,0.664,0.664,0.663,0.661,0.66,0.658,0.657,0.656,0.655,0.655,0.654,0.653,0.652,0.65,0.649,0.648,0.647,0.646,0.645,0.645,0.638,0.633,0.63,0.628,0.623,0.621,0.618,0.615,0.613,0.612,0.612,0.61,0.609,0.608,0.608,0.607,0.605,0.604,0.603,0.602,0.601,0.601,0.601,0.601,0.601,0.601,0.601,0.601,0.601,0.601,0.601,0.0,0.0,0.0,0.0,0.0
3.039,3.055,3.072,3.08,3.096,3.104,3.121,3.121,3.129,3.129,3.138,3.138,3.146,3.146,3.146,3.146,3.155,3.163,3.181,3.207,3.298,3.394,3.454,3.517,3.627,3.697,3.767,3.817,3.868,3.906,3.933,3.973,4.014,4.07,4.114,4.173,4.203,4.233,4.264,4.28,4.296,4.296,4.312,4.312,4.312,4.312,4.312,4.312,4.312,4.312,4.328,4.328,4.328,4.344,4.36,4.376,4.393,4.426,4.512,4.583,4.694,4.752,4.81,4.83,4.871,4.912,4.933,4.975,5.018,5.04,5.084,5.106,5.151,5.174,5.174,5.244,5.316,5.34,5.389,5.415,5.44,5.491,5.517,5.517,5.543,5.543,5.543,5.543,5.57,5.57,5.57,5.57,5.57,5.597,5.597,5.57,5.57,5.57,5.57,5.543,5.543,5.543,5.517,5.465,5.44,5.415,5.389,5.34,5.316,5.268,5.244,5.22,5.22,5.22,5.22,5.22,5.244,5.268,5.316,5.389,5.415,5.44,5.465,5.465,5.491,5.491,5.491,5.491,5.517,5.543,5.543,5.543,5.543,5.543,5.57,5.57,5.57,5.57,5.543,5.543,5.543,5.491,5.44,5.268,5.174,5.04,4.975,4.912,4.891,4.851,4.851,4.81,4.771,4.713,4.601,4.41,4.344,4.312,4.296,4.264,4.249,4.233,4.218,4.203,4.188,4.188,4.173,4.173,4.188,4.203,4.233,4.264,4.28,4.312,4.344,4.41,4.46,4.565,4.601,4.694,4.752,4.7715,4.791,4.83,4.851,4.891,4.912,4.954,4.996,4.996,5.018,5.018,5.018,5.018,4.996,4.996,4.933,4.933,4.933,4.9435,0.0,0.0,0.0,0.0,0.0,0.0,0.0,0.0,1.318,1.318,1.317,1.317,1.317,1.317,1.315,1.314,1.312,1.311,1.307,1.296,1.289,1.285,1.281,1.276,1.274,1.269,1.263,1.257,1.252,1.244,1.241,1.237,1.229,1.215,1.201,1.18975,1.171,1.165,1.162,1.159,1.157,1.155,0.0,0.0,0.0,0.0,0.0,0.0,0.0,0.0,0.0,0.0,0.0,0.0,0.0,0.0,0.0,0.0,0.0,0.0,0.0,0.0,0.0,0.0,0.0,0.0,0.0,0.0,0.0,0.0,0.0,0.0,0.3935,0.394,0.394,0.394,0.394,0.394,0.394,0.394,0.394,0.394,0.393,0.392,0.389,0.0,0.3865,0.385,0.385,0.385,0.384,0.384,0.384,0.384,0.383,0.384,0.384,0.383,0.383,0.383,0.384,0.384,0.384,0.384,0.385,0.385,0.385,0.385,0.385,0.386,0.386,0.387,0.388,0.388,0.389,0.389,0.389,0.389,0.389,0.389,0.389,0.389,0.389,0.389,0.39,0.389,0.39,0.39,0.39,0.39,0.39,0.39,0.39,0.39,0.3905,0.391,0.391,0.391,0.391,0.392,0.392,0.392,0.393,0.393,0.393,0.393,0.393,0.394,0.394,0.394,0.394,0.394,0.395,0.395,0.395,0.395,0.396,0.396,0.396,0.396,0.397,0.397,0.397,0.397,0.398,0.398,0.398,0.398,0.398,0.398,0.398,0.398,0.398,0.398,0.398,0.399,0.399,0.399,0.399,0.4,0.4,0.4,0.4005,0.401,0.401,0.401,0.402,0.402,0.402,0.402,0.403,0.403,0.403,0.404,0.405,0.406,0.406,0.407,0.408,0.40924999999999995,0.41,0.411,0.411,0.413,0.414,0.415,0.416,0.416,0.417,0.418,0.419,0.42,0.421,0.421,0.423,0.424,0.425,0.426,0.426,0.427,0.428,0.429,0.43,0.43,0.431,0.431,0.432,0.434,0.435,0.436,0.437,0.4375,0.438,0.44,0.441,0.442,0.444,0.446,0.447,0.448,0.449,0.451,0.452,0.453,0.455,0.456,0.457,0.458,0.458,0.458,0.459,0.46,0.461,0.463,0.464,0.465,0.468,0.469,0.47,0.471,0.473,0.475,0.476,0.476,0.477,0.479,0.48,0.481,0.482,0.482,0.483,0.483,0.484,0.48449999999999993,0.485,0.485,0.486,0.486,0.487,0.487,0.487,0.488,0.488,0.488,0.489,0.489,0.489,0.49,0.491,0.491,0.0,0.0,0.0,0.0,0.0,0.0,0.0,0.0,0.0,0.0,0.0,0.0,0.0,0.0,0.663,0.663,0.663,0.662,0.662,0.662,0.66,0.659,0.658,0.6567500000000001,0.656,0.655,0.655,0.653,0.653,0.651,0.65,0.649,0.648,0.647,0.646,0.644,0.644,0.635,0.632,0.623,0.6205,0.618,0.614,0.612,0.608,0.608,0.608,0.607,0.606,0.605,0.605,0.604,0.603,0.6025,0.601,0.601,0.6,0.599,0.596,0.596,0.596,0.598,0.598,0.599,0.599,0.5984999999999999,0.6,0.601,0.601,0.601,0.0,0.0,0.0,0.0
3.039,3.055,3.055,3.08,3.096,3.104,3.113,3.121,3.129,3.129,3.138,3.138,3.146,3.146,3.146,3.146,3.155,3.163,3.181,3.198,3.27,3.365,3.444,3.496,3.582,3.6587500000000004,3.707,3.804,3.842,3.868,3.88,3.906,3.946,4.014,4.07,4.128,4.188,4.218,4.264,4.28,4.28,4.296,4.312,4.312,4.312,4.312,4.312,4.312,4.312,4.312,4.312,4.312,4.328,4.328,4.328,4.344,4.36,4.393,4.46,4.53,4.638,4.713,4.771,4.81,4.83,4.891,4.912,4.933,4.954,4.975,4.975,4.996,5.018,5.04,5.084,5.151,5.174,5.244,5.268,5.316,5.34,5.389,5.415,5.44,5.465,5.491,5.517,5.543,5.543,5.543,5.57,5.57,5.57,5.57,5.57,5.543,5.543,5.543,5.543,5.543,5.517,5.517,5.491,5.44,5.415,5.415,5.389,5.34,5.316,5.268,5.268,5.244,5.22,5.22,5.22,5.244,5.244,5.316,5.316,5.389,5.415,5.44,5.465,5.465,5.465,5.465,5.465,5.491,5.491,5.517,5.517,5.543,5.543,5.543,5.543,5.543,5.543,5.543,5.543,5.517,5.491,5.491,5.44,5.415,5.268,5.174,5.106,5.04,4.996,4.954,4.912,4.891,4.851,4.81,4.752,4.694,4.46,4.393,4.36,4.328,4.312,4.28,4.264,4.249,4.233,4.218,4.203,4.188,4.188,4.218,4.233,4.264,4.28,4.328,4.36,4.41,4.477,4.565,4.657,4.713,4.771,4.7905,4.81,4.83,4.871,4.912,4.954,4.996,5.04,5.04,5.04,5.084,5.084,5.084,5.04,5.04,4.996,4.996,4.975,4.975,0.0,0.0,0.0,0.0,0.0,0.0,0.0,0.0,0.0,1.32,1.32,1.318,1.318,1.318,1.318,1.317,1.315,1.314,1.312,1.307,1.296,1.289,1.283,1.279,1.276,1.274,1.269,1.265,1.257,1.252,1.248,1.241,1.232,1.22,1.208,1.195,1.188,1.175,0.0,0.0,0.0,0.0,0.0,0.0,0.0,0.0,0.0,0.0,0.0,0.0,0.0,0.0,0.0,0.0,0.0,0.0,0.0,0.0,0.0,0.0,0.0,0.0,0.0,0.0,0.0,0.0,0.0,0.0,0.0,0.0,0.0,0.0,0.393,0.393,0.393,0.393,0.394,0.394,0.393,0.393,0.393,0.393,0.391,0.39,0.3875,0.38625,0.385,0.384,0.384,0.384,0.383,0.382,0.382,0.382,0.382,0.382,0.382,0.382,0.382,0.382,0.38275000000000003,0.383,0.383,0.384,0.384,0.384,0.384,0.385,0.385,0.385,0.386,0.386,0.387,0.388,0.388,0.389,0.389,0.389,0.389,0.389,0.389,0.389,0.389,0.389,0.389,0.389,0.389,0.389,0.389,0.389,0.389,0.389,0.39,0.39,0.39,0.39,0.39,0.3905,0.391,0.391,0.391,0.391,0.392,0.392,0.392,0.393,0.393,0.393,0.394,0.394,0.394,0.394,0.394,0.394,0.395,0.395,0.395,0.395,0.396,0.396,0.397,0.397,0.397,0.397,0.397,0.397,0.397,0.397,0.397,0.397,0.398,0.398,0.398,0.398,0.398,0.398,0.398,0.399,0.399,0.399,0.4,0.4,0.4,0.4005,0.401,0.401,0.401,0.402,0.402,0.402,0.402,0.403,0.403,0.404,0.404,0.405,0.406,0.407,0.408,0.409,0.4095,0.41,0.411,0.412,0.414,0.415,0.415,0.416,0.417,0.418,0.4185,0.419,0.42,0.421,0.422,0.423,0.425,0.425,0.426,0.427,0.4275,0.428,0.429,0.43,0.431,0.431,0.432,0.433,0.435,0.436,0.436,0.437125,0.438,0.44,0.441,0.442,0.444,0.446,0.447,0.4475,0.448,0.451,0.452,0.453,0.454,0.456,0.457,0.457,0.458,0.458,0.459,0.46,0.461,0.463,0.464,0.466,0.468,0.47,0.4705,0.471,0.474,0.475,0.476,0.477,0.478,0.48,0.481,0.482,0.482,0.482,0.483,0.4835,0.484,0.485,0.486,0.486,0.487,0.487,0.487,0.487,0.488,0.488,0.488,0.488,0.489,0.489,0.49,0.491,0.491,0.492,0.0,0.0,0.0,0.0,0.0,0.0,0.0,0.0,0.0,0.0,0.0,0.0,0.0,0.0,0.0,0.0,0.0,0.0,0.0,0.0,0.0,0.0,0.656,0.655,0.655,0.0,0.0,0.0,0.0,0.0,0.649,0.648,0.647,0.646,0.646,0.645,0.6234999999999999,0.6185,0.617125,0.616,0.611,0.607,0.604,0.603,0.602,0.602,0.602,0.601,0.601,0.601,0.601,0.6,0.6,0.599,0.596,0.594,0.593,0.593,0.592,0.592,0.591,0.592,0.592,0.592,0.592,0.594,0.596,0.597,0.599,0.0,0.0,0.0,0.0,0.0
3.039,3.047,3.055,3.08,3.096,3.104,3.113,3.121,3.121,3.129,3.138,3.138,3.138,3.146,3.146,3.146,3.155,3.163,3.172,3.189,3.243,3.336,3.424,3.475,3.538,3.649,3.702,3.755,3.817,3.829,3.855,3.868,3.92,3.973,4.028,4.114,4.173,4.218,4.264,4.28,4.296,4.296,4.312,4.312,4.312,4.312,4.312,4.312,4.312,4.312,4.312,4.312,4.312,4.312,4.328,4.328,4.344,4.36,4.41,4.477,4.583,4.657,4.732,4.791,4.81,4.851,4.891,4.912,4.912,4.912,4.912,4.954,4.975,4.996,4.996,5.04,5.084,5.151,5.174,5.22,5.244,5.268,5.316,5.34,5.389,5.415,5.44,5.465,5.491,5.517,5.543,5.543,5.543,5.543,5.543,5.543,5.543,5.543,5.517,5.517,5.491,5.465,5.415,5.415,5.389,5.389,5.34,5.34,5.316,5.316,5.268,5.268,5.244,5.244,5.244,5.244,5.268,5.316,5.34,5.389,5.415,5.465,5.44,5.465,5.465,5.465,5.465,5.465,5.491,5.491,5.491,5.517,5.517,5.491,5.491,5.517,5.517,5.517,5.491,5.491,5.491,5.465,5.465,5.44,5.415,5.316,5.244,5.22,5.174,5.106,5.04,4.975,4.933,4.891,4.83,4.791,4.732,4.638,4.477,4.426,4.376,4.344,4.328,4.312,4.28,4.264,4.249,4.233,4.218,4.218,4.233,4.264,4.28,4.328,4.36,4.41,4.477,4.583,4.638,4.713,4.771,4.7905,4.81,4.83,4.871,4.912,4.954,4.996,5.04,5.084,5.106,5.151,5.151,5.151,5.106,5.084,5.04,5.04,5.018,5.018,5.018,0.0,0.0,0.0,0.0,0.0,0.0,0.0,0.0,1.32,1.32,1.32,1.32,1.32,1.32,1.318,1.318,1.315,1.314,1.308,1.298,1.292,1.286,1.281,1.279,1.276,1.274,1.268,1.263,1.257,1.2514999999999998,1.244,1.238,1.228,0.0,0.0,0.0,0.0,0.0,0.0,0.0,0.0,0.0,0.0,0.0,0.0,0.0,0.0,0.0,0.0,0.0,0.0,0.0,0.0,0.0,0.0,0.0,0.0,0.0,0.0,0.0,0.0,0.0,0.0,0.0,0.0,0.0,0.0,0.0,0.0,0.0,0.0,0.393,0.393,0.393,0.393,0.393,0.393,0.393,0.393,0.392,0.391,0.389,0.3875,0.386,0.385,0.384,0.383,0.382,0.382,0.381,0.381,0.381,0.381,0.381,0.381,0.381,0.381,0.382,0.382,0.382,0.382,0.383,0.383,0.38349999999999995,0.384,0.384,0.384,0.385,0.385,0.385,0.385,0.386,0.386,0.387,0.388,0.388,0.388,0.388,0.389,0.389,0.389,0.389,0.389,0.389,0.389,0.389,0.389,0.389,0.389,0.389,0.389,0.389,0.389,0.389,0.39,0.39,0.39,0.39,0.3905,0.391,0.391,0.391,0.392,0.392,0.393,0.393,0.393,0.393,0.393,0.394,0.394,0.394,0.394,0.394,0.394,0.394,0.395,0.395,0.396,0.396,0.396,0.396,0.397,0.397,0.397,0.397,0.397,0.397,0.397,0.397,0.397,0.398,0.398,0.398,0.398,0.398,0.398,0.399,0.399,0.399,0.399,0.4,0.4,0.4,0.4005,0.401,0.401,0.402,0.402,0.402,0.402,0.402,0.403,0.404,0.405,0.406,0.406,0.407,0.408,0.40912499999999996,0.41,0.411,0.411,0.413,0.414,0.415,0.416,0.416,0.417,0.418125,0.419,0.42,0.42,0.421,0.422,0.424,0.425,0.426,0.426,0.427125,0.428,0.429,0.43,0.43,0.431,0.432,0.433,0.435,0.436,0.436,0.437,0.438,0.439,0.441,0.441,0.443,0.445,0.446,0.447125,0.448,0.45,0.452,0.452,0.454,0.455,0.457,0.457,0.458,0.458,0.459,0.46,0.461,0.463,0.464,0.466,0.469,0.47,0.471,0.472,0.475,0.476,0.477,0.478,0.479,0.481,0.481,0.482,0.483,0.483,0.48375,0.484,0.485,0.486,0.487,0.487,0.487,0.487,0.487,0.488,0.488,0.488,0.488,0.488,0.489,0.489,0.49,0.491,0.491,0.492,0.0,0.0,0.0,0.0,0.0,0.0,0.0,0.0,0.0,0.0,0.0,0.0,0.0,0.0,0.0,0.0,0.0,0.0,0.0,0.0,0.0,0.0,0.0,0.0,0.0,0.0,0.0,0.0,0.0,0.0,0.0,0.0,0.0,0.0,0.0,0.603,0.603,0.602,0.602,0.602,0.601,0.6,0.599,0.598,0.597,0.597,0.596,0.595,0.594,0.594,0.594,0.593,0.592,0.592,0.591,0.589,0.588,0.586,0.585,0.584,0.584,0.584,0.584,0.585,0.589,0.59,0.591,0.591,0.592,0.0,0.0,0.0,0.0,0.0
3.039,3.047,3.055,3.08,3.096,3.104,3.113,3.121,3.121,3.129,3.129,3.138,3.138,3.146,3.146,3.146,3.146,3.155,3.163,3.189,3.225,3.317,3.404,3.454,3.496,3.593,3.6599999999999997,3.696,3.78,3.817,3.829,3.855,3.893,3.946,4.028,4.085,4.158,4.218,4.264,4.28,4.296,4.312,4.312,4.312,4.312,4.312,4.312,4.312,4.296,4.296,4.296,4.296,4.312,4.312,4.312,4.312,4.328,4.344,4.376,4.426,4.512,4.601,4.713,4.752,4.81,4.83,4.851,4.871,4.891,4.891,4.891,4.912,4.912,4.933,4.954,4.975,4.996,5.04,5.084,5.106,5.151,5.174,5.244,5.244,5.268,5.34,5.389,5.415,5.465,5.491,5.517,5.543,5.543,5.543,5.543,5.517,5.517,5.491,5.491,5.465,5.44,5.44,5.415,5.389,5.389,5.34,5.34,5.34,5.34,5.34,5.316,5.316,5.268,5.268,5.268,5.268,5.316,5.34,5.34,5.415,5.415,5.465,5.44,5.465,5.465,5.465,5.465,5.465,5.465,5.465,5.465,5.465,5.465,5.465,5.465,5.491,5.491,5.491,5.465,5.465,5.465,5.465,5.465,5.44,5.44,5.389,5.34,5.316,5.268,5.244,5.174,5.106,5.04,4.954,4.891,4.851,4.81,4.771,4.713,4.657,4.601,4.477,4.41,4.36,4.328,4.312,4.28,4.249,4.233,4.233,4.233,4.249,4.28,4.312,4.344,4.41,4.477,4.583,4.657,4.713,4.771,4.7905,4.81,4.83,4.871,4.912,4.954,5.018,5.084,5.106,5.151,5.174,5.174,5.174,5.174,5.151,5.106,5.084,5.084,5.084,5.061999999999999,0.0,0.0,0.0,0.0,0.0,0.0,0.0,0.0,1.321,1.321,1.321,1.321,1.321,1.321,1.32,1.32,1.318,1.315,1.312,1.308,1.296,1.289,1.283,1.281,1.278,1.275,1.272,1.268,1.261,1.257,1.252,1.242,1.236,0.0,0.0,0.0,0.0,0.0,0.0,0.0,0.0,0.0,0.0,0.0,0.0,0.0,0.0,0.0,0.0,0.0,0.0,0.0,0.0,0.0,0.0,0.0,0.0,0.0,0.0,0.0,0.0,0.0,0.0,0.0,0.0,0.0,0.0,0.0,0.0,0.0,0.0,0.392,0.392,0.392,0.392,0.392,0.392,0.392,0.391,0.391,0.389,0.0,0.38625,0.38456250000000003,0.384,0.382,0.381,0.381,0.381,0.381,0.381,0.381,0.381,0.381,0.381,0.381,0.381,0.381,0.382,0.382,0.382,0.382,0.382,0.383,0.383,0.38325,0.384,0.384,0.384,0.385,0.385,0.385,0.386,0.386,0.387,0.387,0.388,0.388,0.388,0.388,0.388,0.388,0.389,0.389,0.389,0.389,0.389,0.389,0.389,0.389,0.389,0.389,0.389,0.389,0.389,0.389,0.389,0.39,0.39,0.39,0.3905,0.391,0.391,0.391,0.392,0.392,0.393,0.393,0.393,0.393,0.393,0.393,0.394,0.394,0.394,0.394,0.394,0.394,0.394,0.395,0.396,0.396,0.396,0.396,0.397,0.397,0.397,0.397,0.397,0.397,0.397,0.397,0.397,0.398,0.398,0.398,0.398,0.398,0.398,0.399,0.399,0.399,0.399,0.4,0.4,0.4005,0.401,0.401,0.402,0.402,0.402,0.402,0.403,0.403,0.404,0.405,0.406,0.407,0.408,0.409,0.41,0.411,0.411,0.412,0.414,0.415,0.415,0.416,0.417,0.418,0.4185,0.419,0.42,0.421,0.422,0.423,0.425,0.425,0.426,0.427,0.4275,0.428,0.43,0.43,0.431,0.431,0.433,0.434,0.435,0.436,0.437,0.438,0.439,0.44,0.441,0.442,0.445,0.446,0.447,0.448,0.449,0.451,0.452,0.453,0.455,0.456,0.457,0.458,0.458,0.459,0.46,0.461,0.463,0.464,0.466,0.469,0.47,0.47124999999999995,0.473,0.475,0.476,0.477,0.479,0.48,0.481,0.482,0.482,0.483,0.484,0.485,0.485,0.486,0.487,0.487,0.488,0.488,0.488,0.488,0.488,0.488,0.488,0.488,0.489,0.489,0.49,0.49,0.491,0.492,0.492,0.493,0.0,0.0,0.0,0.0,0.0,0.0,0.0,0.0,0.0,0.0,0.0,0.0,0.0,0.0,0.0,0.0,0.0,0.0,0.0,0.0,0.0,0.0,0.0,0.0,0.0,0.0,0.0,0.0,0.0,0.0,0.0,0.0,0.0,0.0,0.594,0.598,0.598,0.6,0.598,0.596,0.594,0.593,0.592,0.592,0.592,0.591,0.591,0.591,0.591,0.59,0.59,0.588,0.586,0.584,0.582,0.581,0.581,0.579,0.5785,0.578,0.5785,0.0,0.0,0.0,0.0,0.0,0.0,0.0,0.586,0.0,0.0,0.0,0.0
3.039,3.047,3.055,3.08,3.08,3.104,3.113,3.121,3.121,3.129,3.129,3.138,3.138,3.138,3.146,3.146,3.146,3.155,3.163,3.181,3.207,3.288,3.365,3.444,3.485,3.549,3.649,3.6959999999999997,3.743,3.804,3.829,3.855,3.88,3.933,4.014,4.085,4.173,4.218,4.249,4.28,4.296,4.312,4.312,4.312,4.312,4.312,4.296,4.296,4.296,4.28,4.296,4.28,4.28,4.28,4.296,4.296,4.312,4.312,4.344,4.393,4.477,4.565,4.638,4.713,4.771,4.81,4.83,4.851,4.871,4.871,4.871,4.891,4.891,4.912,4.912,4.933,4.954,4.975,4.996,5.018,5.04,5.084,5.151,5.174,5.22,5.268,5.316,5.389,5.415,5.465,5.517,5.517,5.517,5.517,5.517,5.517,5.517,5.517,5.491,5.465,5.44,5.415,5.389,5.389,5.389,5.34,5.34,5.34,5.34,5.34,5.34,5.34,5.316,5.34,5.34,5.34,5.34,5.389,5.415,5.415,5.44,5.465,5.465,5.465,5.465,5.465,5.44,5.44,5.465,5.44,5.44,5.44,5.44,5.44,5.44,5.465,5.465,5.44,5.44,5.465,5.465,5.44,5.44,5.44,5.415,5.415,5.34,5.316,5.316,5.244,5.22,5.174,5.106,5.018,4.954,4.912,4.891,4.851,4.81,4.791,4.752,4.713,4.657,4.477,4.393,4.328,4.312,4.264,4.249,4.249,4.233,4.249,4.28,4.312,4.344,4.41,4.477,4.565,4.657,4.713,4.771,4.7906249999999995,4.81,4.83,4.871,4.912,4.954,5.04,5.106,5.151,5.174,5.22,5.22,5.22,5.22,5.174,5.151,5.151,5.151,5.151,5.106,0.0,0.0,0.0,0.0,0.0,0.0,0.0,0.0,1.322,1.321,1.321,1.321,1.321,1.321,1.321,1.32,1.32,1.318,1.314,1.312,1.301,1.292,1.288,1.282,1.281,1.278,1.275,1.272,1.268,0.0,1.2574999999999998,0.0,0.0,0.0,0.0,0.0,0.0,0.0,0.0,0.0,0.0,0.0,0.0,0.0,0.0,0.0,0.0,0.0,0.0,0.0,0.0,0.0,0.0,0.0,0.0,0.0,0.0,0.0,0.0,0.0,0.0,0.0,0.0,0.0,0.0,0.0,0.0,0.0,0.0,0.0,0.391,0.391,0.391,0.391,0.391,0.391,0.391,0.391,0.389,0.389,0.388,0.3865,0.385,0.382,0.381,0.381,0.381,0.381,0.381,0.381,0.381,0.381,0.381,0.381,0.381,0.381,0.381,0.381,0.381,0.381,0.381,0.382,0.382,0.382,0.382,0.382,0.383,0.38349999999999995,0.384,0.384,0.385,0.385,0.385,0.385,0.386,0.386,0.386,0.386,0.387,0.387,0.387,0.388,0.388,0.388,0.388,0.389,0.389,0.389,0.389,0.389,0.389,0.389,0.389,0.389,0.389,0.389,0.389,0.389,0.39,0.39,0.39,0.3905,0.391,0.391,0.391,0.392,0.392,0.393,0.393,0.393,0.393,0.393,0.393,0.393,0.394,0.394,0.394,0.394,0.394,0.394,0.395,0.396,0.396,0.396,0.396,0.396,0.397,0.397,0.397,0.397,0.397,0.397,0.397,0.397,0.398,0.398,0.398,0.398,0.398,0.398,0.399,0.399,0.399,0.399,0.4,0.4,0.4005,0.401,0.401,0.402,0.402,0.402,0.402,0.403,0.404,0.405,0.406,0.406,0.407,0.409,0.4095,0.41,0.411,0.412,0.413,0.415,0.415,0.416,0.417,0.418,0.418375,0.419,0.42,0.421,0.421,0.423,0.424,0.425,0.426,0.427,0.427375,0.428,0.429,0.43,0.431,0.431,0.432,0.434,0.435,0.436,0.436,0.43724999999999997,0.438,0.44,0.441,0.442,0.444,0.446,0.447,0.448,0.449,0.451,0.452,0.453,0.455,0.456,0.457,0.457,0.458,0.459,0.46,0.461,0.463,0.464,0.467,0.469,0.47,0.471,0.474,0.475,0.477,0.478,0.48,0.481,0.482,0.482,0.4825,0.483,0.485,0.486,0.486,0.487,0.487,0.488,0.488,0.488,0.488,0.488,0.488,0.488,0.488,0.489,0.489,0.489,0.49,0.491,0.491,0.492,0.493,0.494,0.495,0.0,0.0,0.0,0.0,0.0,0.0,0.0,0.0,0.0,0.0,0.0,0.0,0.0,0.0,0.0,0.0,0.0,0.0,0.0,0.0,0.0,0.0,0.0,0.0,0.0,0.0,0.0,0.0,0.0,0.0,0.0,0.0,0.0,0.589,0.5894999999999999,0.59,0.591,0.59,0.59,0.59,0.59,0.59,0.589,0.589,0.589,0.588,0.588,0.588,0.587,0.585,0.583,0.582,0.579,0.576,0.575,0.574,0.573,0.573,0.572,0.573,0.0,0.0,0.0,0.0,0.0,0.0,0.0,0.0,0.0,0.0,0.0,0.0
3.039,3.047,3.055,3.08,3.08,3.104,3.113,3.113,3.121,3.129,3.129,3.138,3.138,3.138,3.146,3.146,3.146,3.155,3.155,3.172,3.189,3.261,3.355,3.434,3.475,3.528,3.627,3.6904999999999997,3.743,3.804,3.829,3.868,3.893,3.933,4.014,4.085,4.173,4.218,4.249,4.28,4.296,4.312,4.312,4.312,4.312,4.312,4.296,4.296,4.296,4.28,4.28,4.28,4.28,4.28,4.28,4.28,4.28,4.312,4.328,4.36,4.41,4.512,4.583,4.638,4.732,4.791,4.81,4.83,4.83,4.851,4.851,4.851,4.871,4.891,4.891,4.912,4.933,4.933,4.954,4.996,4.996,5.04,5.084,5.106,5.174,5.22,5.268,5.34,5.415,5.465,5.491,5.517,5.543,5.517,5.543,5.517,5.517,5.491,5.491,5.465,5.44,5.415,5.389,5.389,5.34,5.34,5.34,5.389,5.389,5.389,5.389,5.389,5.389,5.389,5.389,5.389,5.389,5.415,5.415,5.44,5.465,5.465,5.465,5.465,5.465,5.465,5.465,5.44,5.44,5.44,5.44,5.44,5.415,5.415,5.415,5.44,5.44,5.44,5.44,5.44,5.44,5.44,5.44,5.44,5.415,5.415,5.34,5.34,5.316,5.268,5.244,5.174,5.106,5.084,5.018,4.975,4.933,4.912,4.891,4.851,4.83,4.81,4.791,4.713,4.601,4.376,4.328,4.28,4.249,4.249,4.233,4.249,4.264,4.312,4.344,4.41,4.477,4.583,4.657,4.732,4.7615,4.791,4.83,4.851,4.871,4.912,4.975,5.04,5.151,5.174,5.22,5.244,5.244,5.268,5.268,5.244,5.22,5.22,5.174,5.174,5.151,0.0,0.0,0.0,0.0,0.0,0.0,0.0,0.0,1.323,1.323,1.323,1.323,1.323,1.321,1.321,1.321,1.32,1.32,1.317,1.314,1.308,1.296,1.289,1.285,1.282,1.279,1.276,1.274,1.271,1.267,1.263,0.0,0.0,0.0,0.0,0.0,0.0,0.0,0.0,0.0,0.0,0.0,0.0,0.0,0.0,0.0,0.0,0.0,0.0,0.0,0.0,0.0,0.0,0.0,0.0,0.0,0.0,0.0,0.0,0.0,0.0,0.0,0.0,0.0,0.0,0.0,0.0,0.0,0.0,0.39,0.39,0.39,0.39,0.39,0.39,0.39,0.389,0.389,0.388,0.3875,0.38625,0.385,0.382,0.381,0.381,0.381,0.381,0.381,0.381,0.381,0.381,0.381,0.381,0.381,0.381,0.381,0.381,0.381,0.381,0.381,0.381,0.381,0.381,0.382,0.382,0.382,0.382,0.383,0.38349999999999995,0.384,0.384,0.384,0.385,0.385,0.385,0.385,0.385,0.385,0.386,0.386,0.386,0.386,0.387,0.388,0.388,0.388,0.388,0.388,0.388,0.389,0.389,0.389,0.389,0.389,0.389,0.389,0.389,0.389,0.389,0.389,0.39,0.39,0.3905,0.391,0.391,0.392,0.392,0.392,0.392,0.392,0.393,0.393,0.393,0.393,0.393,0.393,0.394,0.394,0.394,0.394,0.395,0.395,0.395,0.396,0.396,0.396,0.396,0.396,0.396,0.397,0.397,0.397,0.397,0.397,0.397,0.397,0.398,0.398,0.398,0.398,0.398,0.398,0.398,0.399,0.399,0.4,0.4,0.4005,0.401,0.4015,0.402,0.402,0.402,0.403,0.404,0.405,0.406,0.406,0.407,0.408,0.40912499999999996,0.41,0.411,0.411,0.413,0.414,0.415,0.416,0.416,0.417,0.418,0.419,0.42,0.42,0.421,0.422,0.424,0.425,0.425,0.426,0.427,0.4275,0.428,0.429,0.43,0.431,0.432,0.433,0.435,0.436,0.436,0.437,0.4385,0.44,0.441,0.442,0.444,0.446,0.447,0.448,0.4495,0.451,0.452,0.453,0.454,0.456,0.457,0.458,0.458,0.459,0.46,0.461,0.463,0.464,0.467,0.469,0.47,0.471,0.474,0.476,0.477,0.478,0.48,0.481,0.482,0.482,0.483,0.484,0.485,0.486,0.487,0.488,0.488,0.488,0.488,0.488,0.488,0.488,0.488,0.489,0.489,0.489,0.489,0.489,0.49,0.491,0.492,0.493,0.493,0.494,0.494,0.0,0.0,0.0,0.0,0.0,0.0,0.0,0.0,0.0,0.0,0.0,0.0,0.0,0.0,0.0,0.0,0.0,0.0,0.0,0.0,0.0,0.0,0.0,0.0,0.0,0.0,0.0,0.0,0.0,0.578,0.58,0.0,0.0,0.585,0.5852499999999999,0.5855625,0.585,0.585,0.585,0.586,0.586,0.586,0.585,0.585,0.585,0.585,0.585,0.585,0.584,0.583,0.58,0.577,0.574,0.573,0.571,0.57,0.567,0.565,0.565,0.565,0.565,0.568,0.566,0.0,0.0,0.0,0.0,0.0,0.0,0.0,0.0,0.0
3.039,3.047,3.055,3.08,3.08,3.104,3.113,3.113,3.121,3.121,3.129,3.138,3.138,3.138,3.138,3.146,3.146,3.146,3.155,3.163,3.189,3.234,3.326,3.414,3.454,3.496,3.582,3.696,3.738,3.78,3.817,3.855,3.868,3.92,4.014,4.085,4.158,4.218,4.249,4.28,4.28,4.296,4.312,4.312,4.312,4.312,4.296,4.296,4.28,4.28,4.28,4.28,4.28,4.28,4.28,4.28,4.28,4.296,4.312,4.344,4.376,4.46,4.53,4.583,4.694,4.732,4.791,4.81,4.83,4.83,4.83,4.83,4.851,4.871,4.891,4.891,4.912,4.912,4.933,4.954,4.975,5.018,5.04,5.106,5.174,5.244,5.268,5.34,5.44,5.491,5.491,5.517,5.517,5.543,5.543,5.517,5.517,5.491,5.491,5.465,5.44,5.44,5.389,5.34,5.34,5.389,5.389,5.389,5.415,5.415,5.415,5.415,5.415,5.415,5.44,5.44,5.44,5.44,5.44,5.44,5.465,5.465,5.465,5.465,5.44,5.44,5.44,5.44,5.44,5.415,5.415,5.415,5.415,5.415,5.415,5.415,5.415,5.415,5.44,5.44,5.44,5.44,5.44,5.44,5.44,5.415,5.389,5.34,5.316,5.268,5.244,5.22,5.174,5.106,5.084,5.04,5.018,4.996,4.954,4.933,4.891,4.871,4.851,4.81,4.713,4.426,4.344,4.312,4.264,4.249,4.233,4.249,4.264,4.312,4.344,4.41,4.477,4.583,4.657,4.752,4.773624999999999,4.81,4.83,4.851,4.891,4.912,4.996,5.04,5.151,5.22,5.22,5.244,5.268,5.268,5.268,5.268,5.244,5.22,5.22,5.22,5.22,0.0,0.0,0.0,0.0,0.0,0.0,0.0,0.0,0.0,1.324,1.323,1.323,1.323,1.323,1.323,1.321,1.321,1.32,1.318,1.317,1.312,1.301,1.293,1.288,1.286,1.282,1.281,1.276,0.0,0.0,0.0,0.0,0.0,0.0,0.0,0.0,0.0,0.0,0.0,0.0,0.0,0.0,0.0,0.0,0.0,0.0,0.0,0.0,0.0,0.0,0.0,0.0,0.0,0.0,0.0,0.0,0.0,0.0,0.0,0.0,0.0,0.0,0.0,0.0,0.0,0.0,0.0,0.0,0.0,0.3895,0.389,0.389,0.389,0.389,0.389,0.389,0.389,0.388,0.387,0.386,0.38456250000000003,0.384,0.382,0.381,0.381,0.381,0.381,0.381,0.381,0.38,0.38,0.38,0.38,0.38,0.38,0.381,0.381,0.381,0.381,0.381,0.381,0.381,0.381,0.381,0.381,0.382,0.382,0.382,0.383,0.383,0.38325,0.384,0.384,0.384,0.384,0.385,0.385,0.385,0.385,0.385,0.385,0.386,0.386,0.386,0.387,0.387,0.388,0.388,0.388,0.388,0.388,0.388,0.388,0.389,0.389,0.389,0.389,0.389,0.389,0.389,0.389,0.39,0.39,0.39,0.391,0.391,0.391,0.39149999999999996,0.392,0.392,0.392,0.393,0.393,0.393,0.393,0.393,0.394,0.394,0.394,0.394,0.394,0.394,0.395,0.395,0.395,0.395,0.396,0.396,0.396,0.396,0.396,0.397,0.397,0.397,0.397,0.397,0.398,0.398,0.398,0.398,0.398,0.398,0.398,0.398,0.399,0.399,0.4,0.4,0.401,0.40137500000000004,0.402,0.402,0.402,0.403,0.403,0.404,0.405,0.406,0.407,0.407,0.409,0.41,0.411,0.411,0.412,0.413,0.415,0.416,0.416,0.417,0.418,0.4185,0.419,0.42,0.421,0.422,0.423,0.425,0.425,0.426,0.427,0.427375,0.428,0.429,0.43,0.431,0.431,0.433,0.434,0.435,0.436,0.437,0.438,0.439,0.441,0.441,0.443,0.445,0.447,0.448,0.4495,0.451,0.452,0.453,0.454,0.456,0.457,0.458,0.458,0.459,0.46,0.461,0.463,0.464,0.467,0.469,0.4705,0.472,0.474,0.476,0.477,0.479,0.48,0.481,0.482,0.0,0.483,0.485,0.486,0.487,0.487,0.488,0.488,0.488,0.488,0.489,0.488,0.489,0.489,0.489,0.489,0.489,0.489,0.49,0.491,0.491,0.492,0.493,0.494,0.494,0.494,0.0,0.0,0.0,0.0,0.0,0.0,0.0,0.0,0.0,0.0,0.0,0.0,0.0,0.0,0.0,0.0,0.0,0.0,0.0,0.0,0.0,0.0,0.0,0.0,0.0,0.0,0.0,0.57,0.5714999999999999,0.573,0.574,0.576,0.579,0.581,0.581,0.582,0.582,0.583,0.583,0.583,0.584,0.583,0.583,0.583,0.583,0.584,0.584,0.584,0.583,0.582,0.577,0.574,0.572,0.565,0.564,0.563,0.563,0.563,0.563,0.562,0.562,0.563,0.563,0.0,0.0,0.0,0.0,0.0,0.0,0.0,0.0,0.0
3.039,3.047,3.055,3.08,3.08,3.104,3.113,3.121,3.121,3.129,3.129,3.138,3.138,3.138,3.146,3.146,3.146,3.146,3.155,3.163,3.181,3.216,3.298,3.384,3.444,3.485,3.538,3.649,3.7065,3.743,3.804,3.829,3.868,3.906,3.987,4.07,4.158,4.218,4.249,4.264,4.28,4.296,4.296,4.296,4.312,4.296,4.296,4.28,4.28,4.28,4.28,4.28,4.28,4.264,4.28,4.264,4.28,4.28,4.312,4.328,4.36,4.41,4.477,4.53,4.601,4.694,4.752,4.791,4.81,4.81,4.81,4.83,4.851,4.851,4.871,4.891,4.912,4.912,4.933,4.954,4.975,5.018,5.084,5.151,5.22,5.268,5.34,5.389,5.44,5.491,5.517,5.543,5.543,5.543,5.543,5.517,5.517,5.517,5.465,5.465,5.44,5.415,5.389,5.34,5.34,5.389,5.389,5.389,5.415,5.415,5.44,5.44,5.44,5.44,5.44,5.465,5.465,5.465,5.465,5.465,5.465,5.491,5.465,5.465,5.44,5.44,5.44,5.415,5.415,5.415,5.415,5.389,5.389,5.389,5.389,5.389,5.415,5.415,5.415,5.415,5.415,5.415,5.415,5.415,5.415,5.415,5.34,5.316,5.316,5.268,5.244,5.22,5.174,5.151,5.151,5.106,5.084,5.04,5.018,4.996,4.954,4.933,4.891,4.851,4.771,4.512,4.376,4.312,4.28,4.249,4.233,4.249,4.264,4.312,4.328,4.393,4.477,4.583,4.694,4.7325,4.771,4.81,4.83,4.871,4.891,4.933,4.996,5.084,5.151,5.174,5.244,5.244,5.268,5.268,5.268,5.268,5.244,5.244,5.244,5.244,5.22,5.174,0.0,0.0,0.0,0.0,0.0,0.0,0.0,0.0,1.324,1.324,1.324,1.324,1.324,1.323,1.323,1.321,1.321,1.32,1.318,1.315,1.311,1.298,1.292,1.288,1.285,1.281,1.279,0.0,0.0,0.0,0.0,0.0,0.0,0.0,0.0,0.0,0.0,0.0,0.0,0.0,0.0,0.0,0.0,0.0,0.0,0.0,0.0,0.0,0.0,0.0,0.0,0.0,0.0,0.0,0.0,0.0,0.0,0.0,0.0,0.0,0.0,0.0,0.0,0.0,0.0,0.0,0.0,0.0,0.389,0.389,0.389,0.389,0.389,0.389,0.388,0.388,0.386,0.3855,0.385,0.382,0.382,0.381,0.381,0.381,0.38,0.381,0.38,0.38,0.38,0.38,0.38,0.38,0.38,0.38,0.38,0.38,0.381,0.381,0.381,0.381,0.381,0.381,0.381,0.381,0.381,0.381,0.382,0.382,0.382,0.382,0.383,0.383,0.38325,0.384,0.384,0.384,0.384,0.385,0.385,0.385,0.385,0.385,0.386,0.386,0.386,0.387,0.387,0.387,0.387,0.388,0.388,0.388,0.388,0.388,0.389,0.389,0.389,0.389,0.389,0.389,0.389,0.389,0.39,0.39,0.391,0.391,0.391,0.39149999999999996,0.392,0.392,0.392,0.393,0.393,0.393,0.393,0.393,0.394,0.394,0.394,0.394,0.394,0.394,0.395,0.395,0.395,0.395,0.395,0.396,0.396,0.396,0.396,0.397,0.397,0.397,0.397,0.397,0.397,0.398,0.398,0.398,0.398,0.398,0.398,0.398,0.399,0.399,0.4,0.401,0.401,0.4015,0.402,0.402,0.403,0.403,0.404,0.405,0.406,0.406,0.407,0.408,0.40924999999999995,0.41,0.411,0.412,0.413,0.414,0.415,0.416,0.417,0.418,0.4185,0.419,0.42,0.421,0.421,0.423,0.424,0.425,0.426,0.426,0.427,0.428,0.429,0.43,0.431,0.431,0.432,0.434,0.435,0.436,0.437,0.438,0.439,0.44,0.441,0.443,0.445,0.447,0.448,0.449375,0.451,0.452,0.453,0.455,0.457,0.457,0.458,0.458,0.459,0.46,0.461,0.463,0.465,0.467,0.47,0.4715,0.473,0.475,0.476,0.477,0.479,0.48,0.481,0.482,0.4825,0.483,0.485,0.487,0.488,0.488,0.488,0.489,0.489,0.489,0.489,0.489,0.489,0.489,0.489,0.489,0.49,0.49,0.49,0.491,0.492,0.493,0.493,0.494,0.494,0.494,0.495,0.495,0.0,0.0,0.0,0.0,0.0,0.0,0.0,0.0,0.0,0.0,0.0,0.0,0.0,0.0,0.0,0.0,0.0,0.0,0.0,0.0,0.0,0.0,0.0,0.0,0.0,0.0,0.0,0.567,0.569,0.5705,0.572375,0.574,0.575,0.575,0.577,0.579,0.58,0.581,0.582,0.582,0.582,0.582,0.582,0.583,0.583,0.582,0.582,0.578,0.574,0.566,0.564,0.561,0.559,0.559,0.559,0.559,0.559,0.558,0.558,0.558,0.0,0.0,0.0,0.0,0.0,0.0,0.0,0.0,0.0,0.0
3.039,3.047,3.055,3.08,3.096,3.104,3.113,3.121,3.129,3.129,3.138,3.138,3.146,3.146,3.146,3.146,3.146,3.155,3.155,3.163,3.181,3.207,3.27,3.355,3.424,3.465,3.496,3.582,3.696,3.7315,3.767,3.817,3.855,3.893,3.946,4.056,4.158,4.218,4.249,4.264,4.28,4.28,4.296,4.296,4.296,4.296,4.296,4.28,4.28,4.28,4.28,4.28,4.28,4.28,4.28,4.28,4.28,4.28,4.296,4.312,4.328,4.376,4.426,4.477,4.565,4.638,4.713,4.752,4.791,4.81,4.83,4.83,4.851,4.871,4.891,4.891,4.912,4.933,4.954,4.996,5.018,5.084,5.151,5.174,5.244,5.316,5.389,5.415,5.465,5.517,5.517,5.543,5.543,5.543,5.543,5.517,5.517,5.491,5.491,5.465,5.44,5.44,5.389,5.389,5.389,5.389,5.389,5.389,5.415,5.415,5.44,5.44,5.465,5.465,5.491,5.491,5.491,5.491,5.465,5.465,5.465,5.465,5.465,5.44,5.44,5.415,5.415,5.389,5.389,5.389,5.389,5.389,5.389,5.389,5.389,5.389,5.389,5.389,5.415,5.415,5.415,5.415,5.415,5.415,5.415,5.389,5.34,5.34,5.316,5.268,5.244,5.244,5.22,5.174,5.174,5.151,5.151,5.106,5.106,5.084,5.04,5.018,4.954,4.891,4.83,4.565,4.41,4.328,4.28,4.249,4.218,4.233,4.264,4.296,4.328,4.393,4.477,4.601,4.713,4.752000000000001,4.791,4.83,4.851,4.891,4.912,4.933,4.996,5.084,5.151,5.22,5.22,5.244,5.268,5.268,5.268,5.268,5.268,5.268,5.244,5.244,5.244,5.174,0.0,0.0,0.0,0.0,0.0,0.0,0.0,0.0,1.326,1.326,1.326,1.326,1.324,1.323,1.323,1.323,1.321,1.321,1.32,1.317,1.312,1.307,1.293,1.292,1.288,1.285,1.282,0.0,0.0,0.0,0.0,0.0,0.0,0.0,0.0,0.0,0.0,0.0,0.0,0.0,0.0,0.0,0.0,0.0,0.0,0.0,0.0,0.0,0.0,0.0,0.0,0.0,0.0,0.0,0.0,0.0,0.0,0.0,0.0,0.0,0.0,0.0,0.0,0.0,0.0,0.0,0.387,0.388,0.388,0.388,0.388,0.388,0.388,0.387,0.386,0.385,0.385,0.384,0.383,0.381,0.381,0.381,0.381,0.381,0.38,0.38,0.38,0.38,0.38,0.38,0.38,0.38,0.38,0.38,0.38,0.38,0.38,0.38,0.38,0.38,0.381,0.381,0.381,0.381,0.381,0.381,0.381,0.381,0.382,0.382,0.382,0.382,0.382,0.383,0.383,0.38349999999999995,0.384,0.384,0.384,0.385,0.385,0.385,0.385,0.385,0.386,0.386,0.386,0.386,0.386,0.387,0.387,0.387,0.387,0.388,0.388,0.388,0.388,0.389,0.389,0.389,0.389,0.389,0.389,0.39,0.39,0.391,0.391,0.391,0.39149999999999996,0.392,0.392,0.392,0.393,0.393,0.393,0.393,0.393,0.393,0.394,0.394,0.394,0.394,0.394,0.395,0.395,0.395,0.395,0.395,0.395,0.396,0.396,0.396,0.396,0.397,0.397,0.397,0.397,0.397,0.397,0.398,0.398,0.398,0.398,0.398,0.399,0.399,0.4,0.4,0.401,0.4015,0.402,0.402,0.402,0.403,0.404,0.405,0.406,0.406,0.407,0.408,0.409,0.41,0.411,0.411,0.412,0.414,0.415,0.416,0.416,0.417,0.418125,0.419,0.42,0.421,0.421,0.422,0.424,0.425,0.425,0.426,0.427,0.428,0.429,0.43,0.43,0.431,0.432,0.433,0.435,0.436,0.437,0.438,0.439,0.44,0.441,0.443,0.446,0.447,0.448,0.449,0.451,0.452,0.453,0.455,0.457,0.458,0.458,0.459,0.46,0.461,0.0,0.0,0.465,0.4675,0.47,0.4715,0.473,0.475,0.476,0.477,0.479,0.0,0.0,0.0,0.0,0.485,0.487,0.488,0.48849999999999993,0.489,0.489,0.489,0.489,0.489,0.489,0.489,0.489,0.489,0.489,0.49,0.49,0.491,0.491,0.492,0.493,0.493,0.494,0.494,0.494,0.495,0.495,0.495,0.0,0.0,0.0,0.0,0.0,0.0,0.0,0.0,0.0,0.0,0.0,0.0,0.0,0.0,0.0,0.0,0.0,0.0,0.0,0.0,0.0,0.0,0.0,0.0,0.0,0.0,0.0,0.5645,0.564,0.565,0.566,0.567,0.57,0.572,0.573,0.574,0.576,0.578,0.58,0.581,0.581,0.582,0.582,0.582,0.582,0.582,0.582,0.0,0.563,0.557,0.556,0.556,0.556,0.557,0.558,0.558,0.559,0.558,0.558,0.557,0.0,0.0,0.0,0.0,0.0,0.0,0.0,0.0,0.0,0.0
3.039,3.055,3.055,3.08,3.096,3.104,3.113,3.121,3.129,3.138,3.138,3.146,3.146,3.146,3.146,3.146,3.155,3.155,3.155,3.163,3.181,3.198,3.243,3.326,3.394,3.444,3.475,3.528,3.649,3.704875,3.743,3.804,3.842,3.868,3.933,4.028,4.128,4.203,4.249,4.264,4.264,4.28,4.28,4.28,4.296,4.296,4.28,4.28,4.28,4.28,4.28,4.28,4.28,4.264,4.28,4.28,4.28,4.28,4.296,4.312,4.328,4.376,4.41,4.46,4.53,4.601,4.694,4.752,4.791,4.83,4.83,4.851,4.871,4.891,4.912,4.912,4.933,4.975,4.996,5.04,5.084,5.151,5.22,5.268,5.316,5.389,5.44,5.465,5.491,5.543,5.543,5.543,5.543,5.543,5.543,5.543,5.543,5.517,5.491,5.491,5.465,5.44,5.415,5.389,5.389,5.389,5.389,5.415,5.415,5.44,5.44,5.465,5.465,5.491,5.491,5.491,5.491,5.491,5.465,5.44,5.44,5.44,5.415,5.389,5.389,5.34,5.34,5.316,5.316,5.316,5.316,5.316,5.316,5.316,5.34,5.34,5.389,5.415,5.415,5.415,5.415,5.44,5.415,5.415,5.389,5.389,5.34,5.316,5.268,5.268,5.244,5.22,5.22,5.22,5.22,5.174,5.22,5.174,5.174,5.151,5.106,5.084,5.018,4.912,4.851,4.583,4.46,4.344,4.28,4.249,4.218,4.218,4.264,4.28,4.328,4.393,4.512,4.601,4.732,4.771,4.81,4.851,4.871,4.891,4.912,4.954,4.996,5.084,5.151,5.174,5.22,5.22,5.244,5.244,5.268,5.268,5.244,5.244,5.244,5.244,5.2204999999999995,5.174,0.0,0.0,0.0,0.0,0.0,0.0,0.0,1.326,1.326,1.326,1.326,1.326,1.326,1.324,1.323,1.323,1.323,1.321,1.32,1.32,1.314,1.308,1.298,1.293,1.289,1.286,1.282,1.281,0.0,0.0,0.0,0.0,0.0,0.0,0.0,0.0,0.0,0.0,0.0,0.0,0.0,0.0,0.0,0.0,0.0,0.0,0.0,0.0,0.0,0.0,0.0,0.0,0.0,0.0,0.0,0.0,0.0,0.0,0.0,0.0,0.0,0.0,0.0,0.0,0.385,0.0,0.386,0.386,0.387,0.387,0.386,0.386,0.386,0.386,0.385,0.385,0.382,0.382,0.381,0.381,0.381,0.38,0.38,0.38,0.38,0.38,0.38,0.38,0.38,0.38,0.38,0.38,0.38,0.38,0.38,0.38,0.38,0.38,0.38,0.38,0.38,0.38,0.38,0.38,0.381,0.381,0.381,0.381,0.381,0.381,0.381,0.382,0.382,0.382,0.382,0.383,0.38349999999999995,0.384,0.384,0.384,0.385,0.385,0.385,0.385,0.385,0.385,0.385,0.385,0.385,0.386,0.386,0.386,0.387,0.387,0.388,0.388,0.388,0.388,0.389,0.389,0.389,0.389,0.389,0.389,0.39,0.39,0.391,0.391,0.391,0.39149999999999996,0.392,0.392,0.392,0.393,0.393,0.393,0.393,0.393,0.394,0.394,0.394,0.394,0.394,0.394,0.394,0.394,0.394,0.395,0.395,0.395,0.395,0.396,0.396,0.396,0.397,0.397,0.397,0.397,0.397,0.397,0.397,0.398,0.398,0.398,0.399,0.399,0.4,0.4,0.401,0.4015,0.402,0.402,0.402,0.403,0.404,0.405,0.406,0.406,0.407,0.407,0.409,0.4095,0.41,0.411,0.412,0.413,0.415,0.416,0.416,0.417,0.418,0.419,0.42,0.42,0.421,0.422,0.423,0.424,0.425,0.426,0.426,0.427,0.428,0.429,0.43,0.431,0.431,0.433,0.435,0.436,0.436,0.43775000000000003,0.439,0.44,0.441,0.443,0.446,0.447,0.448,0.449,0.452,0.452,0.454,0.457,0.457,0.458,0.4585,0.459,0.461,0.462,0.0,0.0,0.465,0.468,0.0,0.0,0.0,0.0,0.0,0.0,0.0,0.0,0.0,0.0,0.0,0.0,0.0,0.0,0.489,0.489,0.489,0.489,0.489,0.49,0.49,0.49,0.49,0.49,0.49,0.491,0.491,0.491,0.492,0.493,0.493,0.494,0.494,0.495,0.495,0.495,0.495,0.495,0.0,0.0,0.0,0.0,0.0,0.0,0.0,0.0,0.0,0.0,0.0,0.0,0.0,0.0,0.0,0.0,0.0,0.0,0.0,0.0,0.0,0.556,0.557,0.558,0.0,0.0,0.0,0.562,0.56125,0.563,0.564,0.564,0.565,0.0,0.0,0.0,0.574,0.0,0.0,0.0,0.581,0.581,0.581,0.582,0.582,0.0,0.0,0.0,0.552,0.553,0.553,0.554,0.555,0.555,0.556,0.556,0.558,0.557,0.557,0.557,0.0,0.0,0.0,0.0,0.0,0.0,0.0,0.0,0.0,0.0
3.039,3.055,3.055,3.08,3.096,3.104,3.121,3.129,3.138,3.138,3.146,3.146,3.146,3.146,3.146,3.155,3.155,3.155,3.155,3.163,3.172,3.189,3.225,3.298,3.365,3.424,3.454,3.496,3.582,3.696,3.7405,3.78,3.829,3.855,3.906,4.014,4.114,4.188,4.233,4.249,4.264,4.264,4.28,4.28,4.28,4.28,4.28,4.28,4.28,4.28,4.28,4.28,4.28,4.28,4.28,4.28,4.28,4.28,4.296,4.312,4.328,4.36,4.393,4.426,4.512,4.601,4.694,4.752,4.81,4.83,4.851,4.871,4.891,4.912,4.933,4.954,4.975,5.018,5.084,5.106,5.174,5.244,5.268,5.34,5.389,5.44,5.465,5.517,5.543,5.543,5.543,5.57,5.57,5.543,5.543,5.543,5.543,5.517,5.491,5.491,5.465,5.44,5.415,5.389,5.389,5.389,5.389,5.389,5.415,5.44,5.44,5.465,5.465,5.491,5.491,5.491,5.491,5.465,5.44,5.44,5.415,5.415,5.389,5.34,5.316,5.316,5.268,5.244,5.244,5.244,5.244,5.244,5.244,5.244,5.268,5.316,5.34,5.389,5.389,5.415,5.415,5.415,5.415,5.415,5.389,5.34,5.316,5.316,5.268,5.244,5.22,5.22,5.22,5.22,5.22,5.22,5.22,5.22,5.22,5.174,5.174,5.151,5.04,4.933,4.851,4.752,4.46,4.344,4.28,4.249,4.203,4.218,4.249,4.28,4.328,4.376,4.477,4.601,4.713,4.7615,4.81,4.851,4.891,4.912,4.933,4.975,5.018,5.04,5.106,5.174,5.22,5.22,5.22,5.244,5.244,5.244,5.22,5.244,5.244,5.22,5.22,5.174,0.0,0.0,0.0,0.0,0.0,0.0,0.0,0.0,1.326,1.326,1.326,1.326,1.326,1.326,1.324,1.323,1.323,1.323,1.321,1.32,1.317,1.312,1.302,1.298,1.293,1.286,1.282,0.0,0.0,0.0,0.0,0.0,0.0,0.0,0.0,0.0,0.0,0.0,0.0,0.0,0.0,0.0,0.0,0.0,0.0,0.0,0.0,0.0,0.0,0.0,0.0,0.0,0.0,0.0,0.0,0.0,0.0,0.0,0.0,0.0,0.0,0.0,0.383,0.384,0.384,0.385,0.385,0.385,0.385,0.385,0.385,0.385,0.385,0.385,0.384,0.382,0.381,0.381,0.381,0.381,0.38,0.38,0.38,0.38,0.38,0.38,0.38,0.38,0.379,0.379,0.379,0.379,0.379,0.379,0.38,0.38,0.38,0.38,0.38,0.38,0.38,0.38,0.38,0.38,0.38,0.381,0.381,0.381,0.381,0.381,0.381,0.381,0.381,0.382,0.382,0.382,0.383,0.383,0.38325,0.384,0.384,0.384,0.384,0.385,0.385,0.385,0.385,0.385,0.385,0.385,0.386,0.386,0.386,0.387,0.387,0.388,0.388,0.388,0.388,0.389,0.389,0.389,0.389,0.389,0.39,0.39,0.39,0.391,0.391,0.391,0.3915,0.392,0.392,0.392,0.393,0.393,0.393,0.393,0.393,0.393,0.394,0.394,0.394,0.394,0.394,0.394,0.394,0.394,0.395,0.395,0.395,0.395,0.396,0.396,0.396,0.397,0.397,0.397,0.397,0.397,0.397,0.398,0.398,0.398,0.399,0.399,0.399,0.4,0.401,0.4015,0.402,0.402,0.402,0.403,0.404,0.405,0.405,0.406,0.407,0.407,0.408,0.409,0.41,0.411,0.411,0.413,0.414,0.415,0.416,0.417,0.418,0.4185,0.419,0.42,0.421,0.421,0.422,0.423,0.424,0.425,0.426,0.426,0.427,0.42825,0.429,0.43,0.431,0.432,0.434,0.435,0.436,0.438,0.439,0.44,0.441,0.443,0.446,0.447,0.4485,0.45,0.452,0.453,0.456,0.457,0.458,0.4585,0.459,0.461,0.462,0.463,0.0,0.0,0.0,0.0,0.0,0.0,0.0,0.0,0.0,0.0,0.0,0.0,0.0,0.0,0.0,0.0,0.0,0.0,0.49,0.49,0.49,0.49,0.491,0.49,0.491,0.491,0.491,0.491,0.491,0.492,0.493,0.493,0.493,0.494,0.494,0.495,0.494,0.495,0.495,0.495,0.495,0.495,0.0,0.0,0.0,0.0,0.0,0.0,0.0,0.0,0.0,0.0,0.0,0.0,0.0,0.0,0.0,0.0,0.0,0.0,0.0,0.0,0.555,0.555,0.556,0.556,0.557,0.558,0.0,0.5535000000000001,0.556,0.5545,0.556625,0.561,0.56,0.0,0.0,0.0,0.0,0.0,0.0,0.0,0.0,0.0,0.0,0.0,0.0,0.0,0.0,0.539,0.542,0.547,0.549,0.552,0.55325,0.554,0.555,0.556,0.557,0.557,0.556,0.556,0.0,0.0,0.0,0.0,0.0,0.0,0.0,0.0,0.0,0.0
3.039,3.055,3.072,3.08,3.104,3.113,3.121,3.129,3.138,3.146,3.146,3.146,3.146,3.155,3.155,3.155,3.155,3.163,3.163,3.163,3.172,3.189,3.216,3.27,3.336,3.394,3.444,3.475,3.528,3.649,3.743,3.7735,3.804,3.842,3.88,3.946,4.085,4.158,4.218,4.249,4.249,4.264,4.264,4.28,4.28,4.28,4.28,4.28,4.28,4.28,4.28,4.28,4.28,4.28,4.28,4.28,4.28,4.28,4.296,4.312,4.328,4.344,4.393,4.46,4.512,4.601,4.713,4.771,4.81,4.851,4.871,4.891,4.912,4.954,4.996,5.018,5.04,5.084,5.151,5.22,5.268,5.316,5.389,5.44,5.465,5.491,5.543,5.543,5.543,5.57,5.57,5.57,5.57,5.57,5.543,5.543,5.543,5.517,5.517,5.491,5.465,5.465,5.415,5.415,5.389,5.389,5.389,5.415,5.415,5.415,5.44,5.44,5.465,5.465,5.465,5.465,5.465,5.44,5.415,5.415,5.389,5.34,5.316,5.268,5.244,5.244,5.22,5.22,5.174,5.174,5.174,5.174,5.174,5.22,5.244,5.244,5.268,5.316,5.34,5.34,5.34,5.389,5.389,5.34,5.34,5.34,5.316,5.268,5.244,5.244,5.244,5.22,5.22,5.22,5.22,5.244,5.244,5.244,5.22,5.22,5.174,5.151,5.084,4.954,4.851,4.771,4.46,4.344,4.28,4.233,4.203,4.203,4.249,4.264,4.312,4.376,4.46,4.583,4.713,4.752000000000001,4.791,4.851,4.891,4.912,4.954,4.996,5.018,5.04,5.106,5.151,5.174,5.22,5.22,5.244,5.244,5.244,5.244,5.244,5.22,5.174,5.174,5.151,0.0,0.0,0.0,0.0,0.0,0.0,0.0,0.0,1.327,1.327,1.327,1.326,1.326,1.326,1.326,1.326,1.324,1.323,1.323,1.321,1.32,1.317,1.312,1.302,1.296,1.289,1.282,0.0,0.0,0.0,0.0,0.0,0.0,0.0,0.0,0.0,0.0,0.0,0.0,0.0,0.0,0.0,0.0,0.0,0.0,0.0,0.0,0.0,0.0,0.0,0.0,0.0,0.0,0.0,0.0,0.0,0.0,0.0,0.0,0.0,0.0,0.382,0.382,0.382,0.3825,0.383,0.383,0.383,0.383,0.383,0.382,0.382,0.381,0.381,0.381,0.38,0.38,0.381,0.38,0.38,0.38,0.38,0.379,0.379,0.379,0.38,0.379,0.379,0.379,0.379,0.379,0.379,0.379,0.379,0.379,0.379,0.379,0.379,0.379,0.379,0.379,0.379,0.38,0.38,0.38,0.38,0.38,0.381,0.381,0.381,0.381,0.381,0.381,0.381,0.381,0.381,0.382,0.382,0.382,0.383,0.383,0.38349999999999995,0.384,0.384,0.385,0.385,0.385,0.385,0.385,0.385,0.385,0.386,0.386,0.386,0.387,0.387,0.388,0.388,0.388,0.389,0.389,0.389,0.389,0.389,0.389,0.39,0.39,0.391,0.391,0.391,0.39137500000000003,0.392,0.392,0.392,0.392,0.393,0.393,0.393,0.393,0.393,0.393,0.394,0.394,0.394,0.394,0.394,0.394,0.394,0.394,0.394,0.395,0.395,0.395,0.395,0.396,0.396,0.397,0.397,0.397,0.397,0.397,0.398,0.398,0.398,0.398,0.399,0.399,0.4,0.401,0.4015,0.402,0.402,0.402,0.403,0.404,0.405,0.405,0.406,0.406,0.407,0.408,0.409,0.41,0.4105,0.411,0.412,0.414,0.415,0.416,0.416,0.418,0.4185,0.419,0.42,0.42,0.421,0.421,0.422,0.424,0.425,0.425,0.426,0.426,0.428,0.4285,0.429,0.43,0.431,0.433,0.435,0.436,0.438,0.439,0.44,0.442,0.444,0.446,0.4475,0.449,0.452,0.453,0.456,0.457,0.458,0.45875000000000005,0.459,0.461,0.463,0.463,0.464,0.0,0.0,0.0,0.0,0.0,0.0,0.0,0.0,0.0,0.0,0.0,0.0,0.0,0.0,0.0,0.0,0.0,0.0,0.0,0.491,0.491,0.49,0.491,0.491,0.491,0.491,0.491,0.492,0.493,0.493,0.494,0.494,0.494,0.495,0.495,0.495,0.495,0.495,0.495,0.495,0.495,0.495,0.0,0.0,0.0,0.0,0.0,0.0,0.0,0.0,0.0,0.0,0.0,0.0,0.0,0.0,0.0,0.0,0.0,0.0,0.549,0.548,0.547,0.547,0.547,0.547,0.547,0.547,0.547,0.545,0.5462500000000001,0.546,0.547,0.552,0.555,0.558,0.0,0.0,0.0,0.0,0.0,0.0,0.0,0.0,0.0,0.0,0.0,0.0,0.538,0.539,0.54,0.545,0.547,0.5495000000000001,0.552,0.553,0.554,0.0,0.0,0.556,0.0,0.0,0.0,0.0,0.0,0.0,0.0,0.0,0.0,0.0,0.0,0.0
3.047,3.055,3.072,3.08,3.104,3.113,3.121,3.138,3.146,3.146,3.146,3.155,3.155,3.155,3.155,3.163,3.163,3.163,3.163,3.163,3.172,3.189,3.207,3.243,3.298,3.355,3.404,3.454,3.496,3.56,3.672,3.739125,3.78,3.817,3.868,3.92,4.056,4.128,4.188,4.233,4.249,4.264,4.264,4.28,4.28,4.28,4.28,4.28,4.28,4.28,4.28,4.28,4.28,4.28,4.28,4.28,4.296,4.296,4.312,4.312,4.328,4.36,4.41,4.46,4.512,4.601,4.713,4.791,4.83,4.851,4.891,4.912,4.954,5.018,5.04,5.084,5.106,5.151,5.22,5.268,5.34,5.389,5.44,5.491,5.517,5.543,5.543,5.57,5.57,5.57,5.57,5.57,5.57,5.57,5.543,5.543,5.543,5.517,5.517,5.491,5.465,5.465,5.44,5.415,5.415,5.389,5.415,5.415,5.415,5.415,5.415,5.44,5.465,5.465,5.465,5.465,5.44,5.415,5.389,5.389,5.34,5.316,5.268,5.244,5.22,5.174,5.174,5.151,5.151,5.106,5.106,5.106,5.151,5.174,5.174,5.22,5.244,5.268,5.268,5.316,5.316,5.34,5.34,5.34,5.34,5.268,5.268,5.268,5.244,5.244,5.244,5.244,5.22,5.22,5.244,5.244,5.244,5.268,5.244,5.22,5.22,5.174,5.106,4.954,4.851,4.771,4.426,4.328,4.28,4.218,4.203,4.188,4.233,4.264,4.296,4.328,4.41,4.53,4.657,4.728000000000001,4.771,4.83,4.871,4.912,4.954,4.996,5.018,5.04,5.106,5.151,5.174,5.174,5.22,5.22,5.22,5.244,5.244,5.22,5.22,5.174,5.174,5.151,0.0,0.0,0.0,0.0,0.0,0.0,0.0,0.0,1.327,1.327,1.326,1.327,1.327,1.326,1.326,1.324,1.326,1.324,1.323,1.323,1.321,1.318,1.314,1.308,1.298,0.0,0.0,0.0,0.0,0.0,0.0,0.0,0.0,0.0,0.0,0.0,0.0,0.0,0.0,0.0,0.0,0.0,0.0,0.0,0.0,0.0,0.0,0.0,0.0,0.0,0.0,0.0,0.0,0.0,0.0,0.0,0.0,0.0,0.0,0.0,0.0,0.381,0.381,0.381,0.381,0.382,0.381,0.381,0.381,0.381,0.381,0.381,0.38,0.38,0.379,0.378,0.378,0.378,0.378,0.378,0.378,0.378,0.378,0.378,0.378,0.378,0.378,0.378,0.379,0.379,0.379,0.379,0.379,0.379,0.379,0.379,0.379,0.379,0.379,0.379,0.379,0.378,0.378,0.378,0.379,0.379,0.38,0.38,0.38,0.38,0.38,0.381,0.381,0.381,0.381,0.381,0.381,0.381,0.382,0.382,0.383,0.383,0.38349999999999995,0.384,0.384,0.384,0.385,0.385,0.385,0.385,0.385,0.385,0.386,0.386,0.386,0.387,0.387,0.387,0.388,0.388,0.389,0.389,0.389,0.389,0.389,0.389,0.39,0.39,0.391,0.391,0.391,0.39149999999999996,0.392,0.392,0.392,0.392,0.393,0.393,0.393,0.393,0.393,0.393,0.394,0.394,0.394,0.394,0.394,0.394,0.394,0.394,0.394,0.394,0.395,0.395,0.395,0.396,0.396,0.396,0.397,0.397,0.397,0.397,0.398,0.398,0.398,0.399,0.399,0.4,0.401,0.4015,0.402,0.402,0.402,0.403,0.404,0.405,0.405,0.406,0.406,0.407,0.407,0.409,0.41,0.4105,0.411,0.412,0.413,0.415,0.416,0.416,0.417,0.418125,0.419,0.42,0.42,0.421,0.421,0.422,0.423,0.424,0.425,0.425,0.426,0.427,0.427875,0.429,0.43,0.431,0.432,0.435,0.436,0.4375,0.43875,0.44,0.442,0.445,0.447,0.448125,0.45,0.452,0.455,0.457,0.458,0.459,0.46,0.461,0.46225000000000005,0.463,0.464,0.465,0.466,0.467,0.0,0.0,0.0,0.0,0.0,0.0,0.0,0.0,0.0,0.0,0.0,0.0,0.0,0.0,0.0,0.0,0.0,0.491,0.492,0.491,0.492,0.492,0.492,0.492,0.492,0.493,0.493,0.494,0.494,0.494,0.495,0.495,0.495,0.495,0.495,0.495,0.495,0.495,0.495,0.495,0.0,0.0,0.0,0.0,0.0,0.0,0.0,0.0,0.0,0.0,0.0,0.0,0.0,0.0,0.0,0.0,0.0,0.0,0.545,0.544,0.543,0.542,0.541,0.542,0.541,0.54,0.539,0.539,0.538,0.538,0.537,0.538,0.0,0.0,0.0,0.0,0.0,0.0,0.0,0.0,0.0,0.0,0.0,0.0,0.0,0.0,0.0,0.0,0.539,0.54,0.543,0.0,0.0,0.0,0.0,0.0,0.0,0.0,0.0,0.0,0.0,0.0,0.0,0.0,0.0,0.0,0.0,0.0,0.0,0.0
3.047,3.055,3.072,3.08,3.096,3.113,3.121,3.138,3.146,3.146,3.155,3.155,3.155,3.155,3.163,3.163,3.163,3.163,3.172,3.172,3.181,3.181,3.189,3.225,3.261,3.317,3.355,3.424,3.465,3.517,3.627,3.731,3.7704999999999997,3.804,3.842,3.893,4.014,4.085,4.173,4.218,4.233,4.249,4.264,4.264,4.28,4.28,4.28,4.28,4.28,4.28,4.28,4.28,4.28,4.28,4.296,4.296,4.296,4.312,4.312,4.328,4.344,4.376,4.41,4.46,4.53,4.638,4.732,4.81,4.83,4.891,4.912,4.954,4.996,5.04,5.084,5.151,5.174,5.22,5.268,5.34,5.415,5.465,5.491,5.517,5.543,5.543,5.57,5.57,5.57,5.57,5.57,5.57,5.57,5.57,5.543,5.543,5.543,5.517,5.517,5.491,5.465,5.465,5.44,5.415,5.415,5.415,5.415,5.415,5.415,5.415,5.415,5.44,5.44,5.44,5.44,5.415,5.415,5.389,5.34,5.316,5.268,5.244,5.22,5.174,5.151,5.106,5.106,5.084,5.084,5.04,5.04,5.084,5.084,5.106,5.106,5.151,5.174,5.22,5.244,5.244,5.268,5.268,5.268,5.268,5.268,5.268,5.268,5.244,5.244,5.244,5.244,5.22,5.22,5.22,5.244,5.244,5.268,5.244,5.244,5.22,5.22,5.174,5.106,4.954,4.871,4.771,4.46,4.344,4.28,4.233,4.188,4.188,4.233,4.249,4.28,4.312,4.376,4.477,4.601,4.732,4.771,4.81,4.851,4.891,4.933,4.975,5.018,5.04,5.106,5.151,5.174,5.174,5.22,5.22,5.22,5.244,5.22,5.22,5.22,5.174,5.151,0.0,0.0,0.0,0.0,0.0,0.0,0.0,0.0,1.327,1.327,1.327,1.327,1.326,1.327,1.326,1.326,1.326,1.326,1.326,1.324,1.323,1.321,1.32,1.315,1.312,1.301,0.0,0.0,0.0,0.0,0.0,0.0,0.0,0.0,0.0,0.0,0.0,0.0,0.0,0.0,0.0,0.0,0.0,0.0,0.0,0.0,0.0,0.0,0.0,0.0,0.0,0.0,0.0,0.0,0.0,0.0,0.0,0.0,0.0,0.0,0.0,0.0,0.381,0.381,0.381,0.381,0.381,0.381,0.381,0.381,0.38,0.38,0.38,0.379,0.378,0.378,0.377,0.377,0.377,0.377,0.377,0.377,0.377,0.377,0.378,0.378,0.378,0.378,0.378,0.378,0.378,0.378,0.378,0.378,0.378,0.378,0.378,0.378,0.378,0.378,0.378,0.378,0.378,0.378,0.378,0.378,0.379,0.379,0.379,0.38,0.38,0.38,0.38,0.381,0.381,0.381,0.381,0.381,0.381,0.381,0.382,0.382,0.382,0.383,0.38349999999999995,0.384,0.384,0.384,0.385,0.385,0.385,0.385,0.385,0.385,0.386,0.386,0.386,0.386,0.387,0.387,0.388,0.388,0.389,0.389,0.389,0.389,0.389,0.39,0.39,0.39,0.391,0.391,0.391,0.39149999999999996,0.392,0.392,0.392,0.392,0.392,0.393,0.393,0.393,0.393,0.393,0.393,0.394,0.394,0.394,0.394,0.394,0.394,0.394,0.394,0.394,0.395,0.395,0.396,0.396,0.396,0.397,0.397,0.397,0.397,0.398,0.398,0.398,0.399,0.399,0.4,0.401,0.40137500000000004,0.402,0.402,0.402,0.403,0.404,0.404,0.405,0.406,0.406,0.407,0.407,0.408,0.41,0.4105,0.411,0.411,0.413,0.414,0.415,0.416,0.417,0.418,0.419,0.42,0.42,0.421,0.421,0.422,0.422,0.423,0.424,0.425,0.425,0.426,0.427,0.42825,0.429,0.43,0.431,0.434,0.435,0.437,0.4385,0.44,0.441,0.445,0.4465,0.448,0.452,0.453,0.457,0.4575,0.458,0.46,0.462,0.463,0.464,0.464,0.465,0.466,0.467,0.468,0.469,0.0,0.0,0.0,0.0,0.0,0.0,0.0,0.0,0.0,0.0,0.0,0.0,0.0,0.0,0.0,0.0,0.0,0.0,0.492,0.492,0.493,0.493,0.493,0.493,0.494,0.494,0.495,0.495,0.495,0.495,0.495,0.495,0.495,0.495,0.496,0.496,0.496,0.496,0.496,0.0,0.0,0.0,0.0,0.0,0.0,0.0,0.0,0.0,0.0,0.0,0.0,0.0,0.0,0.0,0.0,0.0,0.0,0.54,0.5395000000000001,0.5385,0.5375000000000001,0.5377500000000001,0.538,0.0,0.0,0.0,0.0,0.531,0.531,0.53,0.5295000000000001,0.0,0.0,0.0,0.0,0.0,0.0,0.0,0.0,0.0,0.0,0.0,0.0,0.0,0.0,0.0,0.0,0.0,0.0,0.0,0.0,0.0,0.0,0.0,0.0,0.0,0.0,0.0,0.0,0.0,0.0,0.0,0.0,0.0,0.0,0.0,0.0,0.0,0.0
3.047,3.055,3.072,3.08,3.096,3.113,3.129,3.138,3.146,3.146,3.155,3.155,3.155,3.163,3.163,3.163,3.163,3.172,3.172,3.172,3.181,3.181,3.189,3.207,3.234,3.27,3.326,3.394,3.444,3.485,3.56,3.672,3.767,3.792,3.817,3.868,3.973,4.056,4.128,4.188,4.218,4.249,4.264,4.264,4.28,4.28,4.28,4.28,4.296,4.296,4.296,4.296,4.296,4.296,4.312,4.312,4.312,4.312,4.328,4.328,4.36,4.393,4.426,4.477,4.565,4.657,4.752,4.81,4.851,4.891,4.912,4.975,5.04,5.106,5.174,5.22,5.244,5.268,5.34,5.415,5.465,5.491,5.517,5.543,5.543,5.57,5.57,5.57,5.57,5.57,5.57,5.57,5.57,5.543,5.543,5.543,5.517,5.517,5.491,5.491,5.465,5.465,5.465,5.415,5.415,5.415,5.415,5.415,5.415,5.415,5.415,5.44,5.44,5.44,5.415,5.415,5.389,5.34,5.316,5.268,5.244,5.174,5.151,5.106,5.084,5.04,5.04,5.018,4.996,4.996,4.996,4.996,5.018,5.04,5.061999999999999,5.084,5.106,5.151,5.174,5.174,5.22,5.22,5.244,5.244,5.22,5.22,5.22,5.22,5.22,5.22,5.22,5.22,5.22,5.22,5.22,5.244,5.244,5.244,5.244,5.22,5.174,5.151,5.106,4.954,4.851,4.771,4.426,4.328,4.28,4.218,4.188,4.188,4.203,4.249,4.264,4.296,4.328,4.393,4.53,4.657,4.73775,4.791,4.83,4.871,4.912,4.954,4.996,5.04,5.084,5.106,5.151,5.174,5.174,5.22,5.22,5.244,5.22,5.22,5.174,5.151,5.151,0.0,0.0,0.0,0.0,0.0,0.0,0.0,0.0,0.0,1.327,1.327,1.327,1.327,1.327,1.327,1.326,1.326,1.326,1.326,1.324,1.323,1.323,1.32,1.318,0.0,0.0,0.0,0.0,0.0,0.0,0.0,0.0,0.0,0.0,0.0,0.0,0.0,0.0,0.0,0.0,0.0,0.0,0.0,0.0,0.0,0.0,0.0,0.0,0.0,0.0,0.0,0.0,0.0,0.0,0.0,0.0,0.0,0.0,0.0,0.0,0.0,0.0,0.0,0.381,0.38,0.38,0.38025,0.38,0.38,0.38,0.379,0.379,0.378,0.378,0.377,0.377,0.377,0.377,0.377,0.377,0.377,0.377,0.377,0.377,0.377,0.377,0.377,0.377,0.377,0.378,0.378,0.378,0.378,0.378,0.378,0.378,0.378,0.378,0.378,0.378,0.378,0.378,0.378,0.378,0.378,0.378,0.378,0.378,0.379,0.379,0.38,0.38,0.38,0.38,0.381,0.381,0.381,0.381,0.381,0.381,0.381,0.382,0.382,0.382,0.383,0.38349999999999995,0.384,0.384,0.384,0.385,0.385,0.385,0.385,0.385,0.385,0.386,0.386,0.386,0.387,0.387,0.388,0.388,0.388,0.389,0.389,0.389,0.389,0.389,0.39,0.39,0.39,0.391,0.391,0.391,0.39149999999999996,0.392,0.392,0.392,0.392,0.392,0.393,0.393,0.393,0.393,0.393,0.393,0.394,0.394,0.394,0.394,0.394,0.394,0.394,0.394,0.394,0.394,0.395,0.396,0.396,0.397,0.397,0.397,0.397,0.398,0.398,0.398,0.398,0.399,0.4,0.401,0.401,0.4015,0.402,0.402,0.403,0.404,0.404,0.405,0.406,0.406,0.406,0.407,0.408,0.409,0.410125,0.411,0.411,0.412,0.414,0.415,0.416,0.417,0.418,0.419,0.42,0.42,0.421,0.421,0.421,0.422,0.423,0.424,0.424,0.425,0.425,0.426,0.428,0.429,0.43,0.431,0.432,0.435,0.437,0.4385,0.44,0.442,0.446,0.4475,0.449,0.452,0.456,0.457,0.458,0.459,0.462,0.463,0.464,0.464,0.465,0.466,0.467,0.468,0.469,0.469,0.0,0.0,0.0,0.0,0.0,0.0,0.0,0.0,0.0,0.0,0.0,0.0,0.0,0.0,0.0,0.0,0.0,0.0,0.0,0.0,0.494,0.494,0.494,0.494,0.494,0.495,0.495,0.495,0.495,0.496,0.496,0.496,0.496,0.496,0.496,0.496,0.498,0.4975,0.497,0.0,0.0,0.0,0.0,0.0,0.0,0.0,0.0,0.0,0.0,0.0,0.0,0.0,0.0,0.0,0.0,0.0,0.0,0.535,0.535,0.534,0.533,0.532375,0.532,0.0,0.0,0.0,0.0,0.525,0.524,0.523,0.521,0.518,0.518,0.0,0.0,0.0,0.0,0.0,0.0,0.0,0.0,0.0,0.0,0.0,0.0,0.0,0.0,0.0,0.0,0.0,0.0,0.0,0.0,0.0,0.0,0.0,0.0,0.0,0.0,0.0,0.0,0.0,0.0,0.0,0.0,0.0,0.0,0.0,0.0
3.047,3.047,3.072,3.08,3.096,3.113,3.121,3.138,3.146,3.146,3.155,3.155,3.163,3.163,3.163,3.163,3.172,3.172,3.181,3.181,3.181,3.181,3.189,3.198,3.225,3.261,3.298,3.365,3.434,3.465,3.528,3.649,3.743,3.78275,3.804,3.855,3.933,4.028,4.114,4.173,4.218,4.249,4.264,4.264,4.28,4.28,4.28,4.296,4.296,4.296,4.296,4.296,4.312,4.312,4.312,4.312,4.312,4.328,4.328,4.344,4.36,4.41,4.46,4.53,4.583,4.694,4.771,4.83,4.871,4.912,4.954,4.996,5.084,5.174,5.22,5.244,5.316,5.34,5.415,5.44,5.491,5.517,5.543,5.543,5.57,5.57,5.57,5.57,5.57,5.57,5.57,5.57,5.543,5.543,5.543,5.517,5.517,5.491,5.491,5.465,5.465,5.465,5.465,5.415,5.44,5.44,5.44,5.44,5.44,5.44,5.44,5.44,5.44,5.44,5.415,5.415,5.389,5.34,5.268,5.244,5.22,5.151,5.106,5.084,5.018,5.018,4.996,4.975,4.975,4.954,4.954,4.975,4.975,4.996,5.018,5.04,5.084,5.106,5.106,5.151,5.151,5.174,5.174,5.174,5.151,5.151,5.151,5.151,5.151,5.151,5.151,5.151,5.151,5.174,5.22,5.22,5.22,5.22,5.22,5.174,5.151,5.106,5.04,4.912,4.83,4.713,4.393,4.312,4.264,4.203,4.188,4.173,4.188,4.218,4.249,4.264,4.312,4.344,4.46,4.583,4.732,4.771,4.81,4.851,4.912,4.954,4.996,5.018,5.084,5.106,5.151,5.151,5.174,5.22,5.22,5.22,5.22,5.174,5.174,5.151,0.0,0.0,0.0,0.0,0.0,0.0,0.0,0.0,0.0,0.0,0.0,1.327,1.327,1.327,1.327,1.326,1.326,1.326,1.326,1.326,1.326,1.326,1.323,1.321,1.32,0.0,0.0,0.0,0.0,0.0,0.0,0.0,0.0,0.0,0.0,0.0,0.0,0.0,0.0,0.0,0.0,0.0,0.0,0.0,0.0,0.0,0.0,0.0,0.0,0.0,0.0,0.0,0.0,0.0,0.0,0.0,0.0,0.0,0.0,0.382,0.381,0.381,0.381,0.3805,0.38,0.38,0.38,0.38,0.379,0.379,0.379,0.378,0.378,0.378,0.377,0.377,0.377,0.377,0.377,0.377,0.377,0.377,0.377,0.377,0.377,0.377,0.377,0.377,0.377,0.377,0.377,0.377,0.377,0.377,0.377,0.377,0.378,0.378,0.378,0.378,0.378,0.378,0.377,0.377,0.377,0.377,0.378,0.378,0.378,0.378,0.378,0.379,0.379,0.38,0.38,0.38,0.38,0.381,0.381,0.381,0.381,0.381,0.381,0.382,0.382,0.383,0.383,0.38349999999999995,0.384,0.384,0.384,0.384,0.385,0.385,0.385,0.385,0.385,0.386,0.386,0.386,0.387,0.388,0.388,0.388,0.389,0.389,0.389,0.389,0.389,0.39,0.39,0.39,0.39,0.391,0.391,0.391,0.39149999999999996,0.392,0.392,0.392,0.392,0.392,0.393,0.393,0.393,0.393,0.393,0.393,0.393,0.394,0.394,0.394,0.394,0.394,0.394,0.394,0.394,0.395,0.396,0.396,0.396,0.397,0.397,0.397,0.397,0.398,0.398,0.398,0.399,0.4,0.401,0.401,0.4015,0.402,0.402,0.403,0.403,0.404,0.405,0.406,0.406,0.406,0.407,0.407,0.409,0.41,0.4105,0.411,0.412,0.414,0.415,0.416,0.417,0.418,0.419,0.42,0.42,0.42,0.421,0.421,0.422,0.422,0.423,0.424,0.425,0.425,0.426,0.427,0.429,0.4295,0.43,0.431,0.435,0.437,0.439,0.441,0.444,0.447,0.449,0.451,0.453,0.457,0.4575,0.458,0.46,0.463,0.463,0.464,0.464,0.466,0.467,0.467,0.468,0.469,0.469,0.0,0.0,0.0,0.0,0.0,0.0,0.0,0.0,0.0,0.0,0.0,0.0,0.0,0.0,0.0,0.0,0.0,0.0,0.0,0.0,0.0,0.0,0.0,0.0,0.496,0.496,0.496,0.497,0.498,0.498,0.499,0.5,0.5,0.5,0.501,0.502,0.502,0.0,0.0,0.503,0.0,0.0,0.0,0.0,0.0,0.0,0.0,0.0,0.0,0.0,0.0,0.0,0.0,0.0,0.0,0.0,0.0,0.5295000000000001,0.529,0.529,0.528,0.527,0.526,0.526,0.526,0.525,0.524,0.522,0.519,0.519,0.517,0.517,0.517,0.0,0.0,0.0,0.0,0.0,0.0,0.0,0.0,0.0,0.0,0.0,0.0,0.0,0.0,0.0,0.495,0.494,0.495,0.0,0.0,0.0,0.0,0.0,0.0,0.0,0.0,0.0,0.0,0.0,0.0,0.0,0.0,0.0,0.0,0.0,0.0
3.047,3.047,3.055,3.08,3.096,3.113,3.121,3.138,3.146,3.146,3.155,3.155,3.163,3.163,3.163,3.163,3.172,3.172,3.181,3.181,3.181,3.181,3.181,3.189,3.216,3.243,3.288,3.336,3.414,3.454,3.506,3.593,3.707,3.792,3.8235,3.855,3.906,3.987,4.085,4.173,4.218,4.249,4.264,4.264,4.28,4.28,4.296,4.296,4.296,4.312,4.312,4.312,4.312,4.312,4.312,4.312,4.328,4.328,4.328,4.36,4.376,4.426,4.477,4.565,4.601,4.732,4.791,4.83,4.891,4.912,4.954,5.018,5.084,5.174,5.244,5.268,5.316,5.389,5.415,5.465,5.491,5.517,5.543,5.543,5.543,5.57,5.57,5.57,5.57,5.57,5.57,5.543,5.543,5.517,5.517,5.491,5.465,5.465,5.44,5.44,5.44,5.44,5.415,5.415,5.415,5.415,5.44,5.44,5.44,5.44,5.44,5.44,5.44,5.44,5.415,5.415,5.34,5.316,5.268,5.22,5.174,5.106,5.084,5.018,4.996,4.975,4.954,4.954,4.933,4.933,4.933,4.933,4.954,4.954,4.975,4.996,5.018,5.018,5.04,5.084,5.084,5.084,5.084,5.084,5.084,5.084,5.084,5.084,5.084,5.084,5.084,5.106,5.106,5.151,5.151,5.174,5.174,5.174,5.174,5.106,5.084,5.04,4.975,4.891,4.81,4.694,4.376,4.312,4.264,4.188,4.188,4.173,4.173,4.188,4.218,4.249,4.28,4.312,4.393,4.53,4.694,4.7425,4.791,4.851,4.891,4.933,4.996,5.018,5.084,5.106,5.106,5.151,5.174,5.174,5.22,5.22,5.22,5.174,5.174,0.0,0.0,0.0,0.0,0.0,0.0,0.0,0.0,0.0,0.0,0.0,0.0,0.0,1.327,1.327,1.327,1.327,1.326,1.326,1.326,1.326,0.0,0.0,0.0,0.0,1.075,0.0,0.0,0.0,0.0,0.0,0.838,0.84,0.841,0.0,0.0,0.0,0.0,0.0,0.0,0.0,0.0,0.0,0.0,0.0,0.0,0.0,0.0,0.0,0.0,0.0,0.0,0.0,0.0,0.0,0.0,0.0,0.0,0.384,0.382,0.382,0.381,0.381,0.381,0.38,0.38,0.379,0.379,0.379,0.378,0.378,0.378,0.378,0.377,0.377,0.377,0.377,0.377,0.377,0.377,0.377,0.377,0.377,0.377,0.377,0.377,0.377,0.377,0.377,0.377,0.377,0.377,0.377,0.377,0.377,0.377,0.377,0.378,0.378,0.378,0.377,0.377,0.377,0.377,0.377,0.377,0.377,0.377,0.377,0.378,0.378,0.378,0.378,0.379,0.379,0.38,0.38,0.38,0.38,0.381,0.381,0.381,0.381,0.381,0.382,0.382,0.382,0.383,0.383,0.38349999999999995,0.384,0.384,0.384,0.384,0.385,0.385,0.385,0.385,0.385,0.386,0.386,0.387,0.387,0.388,0.388,0.389,0.389,0.389,0.389,0.389,0.389,0.39,0.39,0.39,0.39,0.391,0.391,0.391,0.391,0.391,0.39149999999999996,0.392,0.392,0.3925,0.393,0.393,0.393,0.393,0.393,0.393,0.393,0.394,0.394,0.394,0.394,0.394,0.394,0.394,0.395,0.396,0.396,0.396,0.397,0.397,0.397,0.397,0.398,0.398,0.398,0.399,0.4,0.4,0.401,0.4015,0.402,0.402,0.403,0.403,0.404,0.405,0.405,0.406,0.406,0.407,0.408,0.409,0.41,0.4105,0.411,0.412,0.414,0.415,0.416,0.417,0.418,0.419,0.4195,0.42,0.42,0.421,0.421,0.421,0.422,0.422,0.423,0.424,0.425,0.425,0.426,0.428,0.429125,0.43,0.431,0.433,0.438,0.4395,0.441,0.445,0.0,0.449,0.452,0.4545,0.45625000000000004,0.458,0.459,0.461,0.463,0.464,0.464,0.465,0.466,0.467,0.468,0.468,0.468,0.469,0.0,0.0,0.0,0.0,0.0,0.0,0.0,0.0,0.0,0.0,0.0,0.0,0.0,0.0,0.0,0.549,0.549,0.549,0.549,0.548,0.0,0.0,0.0,0.0,0.0,0.0,0.0,0.501,0.502,0.5015000000000001,0.0,0.5035000000000001,0.503625,0.504,0.505,0.5055000000000001,0.0,0.0,0.0,0.0,0.0,0.523,0.0,0.0,0.519,0.0,0.0,0.0,0.0,0.0,0.0,0.0,0.517,0.519,0.521,0.522,0.523,0.524,0.524,0.523,0.523,0.523,0.523,0.522,0.522,0.522,0.519,0.518,0.518,0.517,0.516,0.515,0.51325,0.513,0.511,0.509,0.0,0.0,0.0,0.0,0.0,0.0,0.0,0.0,0.493,0.493,0.493,0.494,0.494,0.494,0.494,0.494,0.494,0.0,0.0,0.0,0.0,0.0,0.0,0.0,0.0,0.0,0.0,0.0,0.0,0.0,0.0,0.0,0.0
3.047,3.047,3.055,3.072,3.096,3.104,3.113,3.129,3.146,3.146,3.155,3.155,3.163,3.163,3.163,3.163,3.172,3.172,3.181,3.181,3.181,3.181,3.181,3.189,3.207,3.225,3.261,3.326,3.384,3.444,3.496,3.582,3.672,3.78,3.8045,3.829,3.893,3.987,4.085,4.173,4.203,4.249,4.264,4.264,4.28,4.28,4.296,4.312,4.312,4.312,4.312,4.312,4.312,4.312,4.312,4.328,4.328,4.328,4.344,4.376,4.41,4.46,4.512,4.583,4.657,4.752,4.81,4.851,4.891,4.912,4.975,5.04,5.106,5.22,5.244,5.316,5.34,5.389,5.415,5.44,5.465,5.491,5.517,5.543,5.543,5.543,5.543,5.543,5.57,5.57,5.543,5.543,5.517,5.517,5.491,5.465,5.44,5.44,5.415,5.415,5.415,5.415,5.415,5.415,5.415,5.44,5.44,5.44,5.44,5.44,5.44,5.44,5.44,5.44,5.415,5.415,5.389,5.316,5.268,5.22,5.151,5.084,5.04,4.996,4.975,4.954,4.933,4.912,4.912,4.912,4.912,4.912,4.912,4.912,4.933,4.954,4.954,4.975,4.975,4.996,4.996,4.996,4.996,4.996,4.996,4.996,4.996,4.996,5.018,5.018,5.018,5.04,5.04,5.084,5.106,5.106,5.151,5.106,5.106,5.04,5.018,4.975,4.912,4.851,4.771,4.638,4.344,4.312,4.249,4.188,4.173,4.158,4.173,4.188,4.188,4.218,4.249,4.28,4.328,4.46,4.601,4.706875,4.771,4.83,4.891,4.933,4.996,5.018,5.04,5.084,5.106,5.151,5.174,5.174,5.22,5.22,0.0,0.0,0.0,0.0,0.0,0.0,0.0,0.0,0.0,0.0,0.0,0.0,0.0,0.0,0.0,0.0,0.0,0.0,0.0,1.0755,1.075,0.0,1.0745,1.075,0.0,0.0,0.0,0.0,0.83,0.83,0.83,0.83,0.833,0.835,0.836,0.838,0.838,0.839,0.0,0.0,0.0,0.0,0.0,0.0,0.0,0.0,0.0,0.0,0.0,0.0,0.0,0.0,0.0,0.0,0.0,0.0,0.0,0.0,0.0,0.384,0.384,0.384,0.382,0.382,0.381,0.381,0.38,0.38,0.379,0.378,0.378,0.378,0.377,0.377,0.377,0.377,0.377,0.377,0.377,0.377,0.377,0.377,0.377,0.377,0.377,0.377,0.377,0.377,0.377,0.377,0.377,0.377,0.377,0.377,0.377,0.377,0.377,0.377,0.378,0.378,0.378,0.378,0.378,0.377,0.377,0.377,0.377,0.377,0.377,0.377,0.377,0.377,0.377,0.377,0.378,0.378,0.378,0.379,0.379,0.38,0.38,0.38,0.38,0.381,0.381,0.381,0.381,0.381,0.382,0.382,0.382,0.383,0.383,0.383,0.38349999999999995,0.384,0.384,0.385,0.385,0.385,0.385,0.385,0.386,0.386,0.386,0.387,0.388,0.388,0.388,0.389,0.389,0.389,0.389,0.389,0.389,0.39,0.39,0.39,0.39,0.391,0.391,0.391,0.391,0.391,0.3915,0.392,0.392,0.3925,0.393,0.393,0.393,0.393,0.393,0.393,0.393,0.394,0.394,0.394,0.394,0.394,0.394,0.395,0.396,0.396,0.396,0.397,0.397,0.397,0.397,0.398,0.398,0.398,0.399,0.4,0.4,0.401,0.4015,0.402,0.402,0.402,0.403,0.404,0.404,0.405,0.406,0.406,0.407,0.407,0.409,0.41,0.4105,0.411,0.412,0.414,0.415,0.416,0.417,0.418,0.419,0.4195,0.42,0.42,0.421,0.421,0.421,0.422,0.422,0.423,0.424,0.425,0.425,0.426,0.427,0.429,0.4295,0.43,0.432,0.436,0.438625,0.441,0.445,0.447,0.449,0.452,0.456,0.0,0.4585,0.46,0.462,0.463,0.464,0.465,0.465,0.466,0.467,0.467,0.468,0.468,0.469,0.0,0.0,0.0,0.0,0.0,0.0,0.0,0.0,0.0,0.0,0.0,0.0,0.0,0.0,0.546,0.547,0.547,0.548,0.547,0.547,0.0,0.0,0.0,0.0,0.0,0.0,0.0,0.0,0.0,0.505,0.506,0.507,0.507,0.508,0.509,0.509,0.513,0.517,0.52,0.518,0.516,0.5165,0.517,0.519,0.517,0.0,0.0,0.514,0.512,0.512,0.513,0.513,0.516,0.517,0.5177499999999999,0.517,0.51875,0.519,0.519,0.519,0.519,0.518,0.518,0.517,0.518,0.516,0.516,0.516,0.516,0.516,0.516,0.509,0.508,0.5075000000000001,0.0,0.0,0.0,0.0,0.0,0.492,0.493,0.492,0.492,0.492,0.492,0.492,0.492,0.492,0.493,0.493,0.493,0.493,0.493,0.0,0.0,0.0,0.0,0.0,0.0,0.0,0.0,0.0,0.0,0.0,0.0,0.0,0.0,0.0,0.0
3.039,3.047,3.055,3.072,3.08,3.104,3.113,3.129,3.138,3.146,3.155,3.155,3.163,3.163,3.163,3.163,3.172,3.172,3.172,3.181,3.181,3.181,3.181,3.181,3.189,3.207,3.234,3.288,3.336,3.424,3.475,3.538,3.661,3.767,3.798,3.829,3.893,3.987,4.085,4.173,4.218,4.249,4.264,4.28,4.28,4.296,4.312,4.312,4.312,4.312,4.312,4.312,4.312,4.328,4.328,4.328,4.328,4.344,4.36,4.393,4.426,4.477,4.53,4.601,4.713,4.771,4.81,4.851,4.891,4.933,4.975,5.04,5.106,5.22,5.244,5.316,5.389,5.415,5.415,5.44,5.465,5.465,5.491,5.517,5.517,5.543,5.543,5.543,5.543,5.543,5.543,5.517,5.491,5.465,5.44,5.415,5.415,5.389,5.389,5.389,5.389,5.389,5.415,5.415,5.415,5.415,5.44,5.44,5.44,5.44,5.44,5.44,5.44,5.44,5.415,5.415,5.389,5.316,5.268,5.22,5.151,5.084,5.04,4.996,4.975,4.933,4.912,4.912,4.912,4.912,4.912,4.891,4.891,4.891,4.912,4.912,4.912,4.912,4.912,4.912,4.933,4.933,4.933,4.933,4.933,4.954,4.954,4.954,4.954,4.954,4.996,4.996,5.018,5.04,5.084,5.084,5.084,5.084,5.084,5.018,4.996,4.954,4.912,4.83,4.752,4.46,4.344,4.296,4.249,4.188,4.173,4.158,4.158,4.173,4.173,4.188,4.218,4.264,4.312,4.393,4.53,4.713,4.7615,4.81,4.891,4.912,4.975,4.996,5.04,5.084,5.106,5.151,5.174,5.174,5.22,3.0214999999999996,0.0,0.0,0.0,0.0,0.0,0.0,0.0,0.0,0.0,0.0,0.0,0.0,0.0,0.0,0.0,0.0,0.0,0.0,0.0,0.824,0.824,0.8234999999999999,0.823,0.824,0.824,0.826,0.826,0.824,0.824,0.826,0.826,0.82725,0.829,0.832,0.834,0.835,0.836,0.836,0.0,0.0,0.0,0.0,0.0,0.0,0.0,0.0,0.0,0.0,0.0,0.0,0.0,0.0,0.0,0.0,0.0,0.0,0.0,0.0,0.384,0.384,0.384,0.383,0.382,0.382,0.381,0.381,0.38,0.38,0.379,0.379,0.378,0.378,0.377,0.377,0.377,0.377,0.377,0.377,0.377,0.377,0.377,0.377,0.377,0.377,0.377,0.377,0.377,0.377,0.377,0.377,0.377,0.377,0.377,0.377,0.377,0.377,0.378,0.378,0.378,0.378,0.378,0.378,0.378,0.377,0.377,0.377,0.377,0.377,0.377,0.377,0.377,0.377,0.377,0.377,0.377,0.378,0.378,0.378,0.379,0.379,0.38,0.38,0.38,0.381,0.381,0.381,0.381,0.381,0.381,0.382,0.382,0.382,0.383,0.383,0.383,0.38349999999999995,0.384,0.384,0.385,0.385,0.385,0.385,0.385,0.386,0.386,0.387,0.388,0.388,0.388,0.389,0.389,0.389,0.389,0.389,0.389,0.389,0.39,0.39,0.39,0.39,0.391,0.391,0.391,0.391,0.39137500000000003,0.392,0.392,0.392,0.3925,0.393,0.393,0.393,0.393,0.393,0.393,0.394,0.394,0.394,0.394,0.394,0.394,0.395,0.396,0.396,0.396,0.397,0.397,0.397,0.397,0.398,0.398,0.398,0.399,0.399,0.4,0.401,0.40137500000000004,0.402,0.402,0.402,0.403,0.403,0.404,0.405,0.406,0.406,0.407,0.408,0.409,0.41,0.4105,0.411,0.412,0.414,0.415,0.416,0.417,0.418,0.419,0.41962499999999997,0.42,0.42,0.421,0.421,0.421,0.422,0.422,0.423,0.423,0.424,0.425,0.425,0.426,0.428,0.429125,0.43,0.431,0.4345,0.438,0.441,0.444,0.4475,0.451,0.454,0.457,0.458,0.459,0.461,0.463,0.463,0.464,0.465,0.465,0.466,0.467,0.467,0.468,0.468,0.468,0.0,0.0,0.0,0.0,0.0,0.0,0.0,0.0,0.0,0.0,0.0,0.0,0.54,0.5405,0.541,0.543,0.544,0.545,0.545,0.545,0.546,0.0,0.0,0.0,0.0,0.0,0.0,0.0,0.0,0.5075000000000001,0.508,0.509,0.50925,0.51,0.51125,0.512,0.513,0.5157499999999999,0.517,0.518,0.517,0.51725,0.5175625,0.518,0.517,0.5155000000000001,0.514,0.514,0.511,0.511,0.511,0.512,0.514,0.515,0.516,0.516,0.516,0.517,0.517,0.517,0.517,0.517,0.516,0.516,0.516,0.516,0.516,0.51575,0.516,0.516,0.514,0.507,0.504,0.502,0.0,0.0,0.493,0.491,0.491,0.491,0.49,0.49075,0.491,0.491,0.491,0.4915,0.492,0.492,0.492,0.492,0.492,0.492,0.492,0.0,0.0,0.0,0.0,0.0,0.0,0.0,0.0,0.0,0.0,0.0,0.0,0.0,0.0,0.0,0.0
3.039,3.047,3.047,3.055,3.08,3.096,3.113,3.121,3.138,3.146,3.155,3.155,3.155,3.163,3.163,3.163,3.172,3.172,3.172,3.172,3.181,3.181,3.181,3.181,3.189,3.189,3.216,3.243,3.298,3.394,3.454,3.517,3.627,3.755,3.792,3.829,3.893,4.014,4.114,4.173,4.233,4.249,4.264,4.28,4.28,4.296,4.312,4.312,4.312,4.312,4.312,4.312,4.328,4.328,4.328,4.328,4.328,4.344,4.376,4.393,4.46,4.512,4.565,4.638,4.732,4.791,4.83,4.851,4.891,4.933,4.975,5.04,5.106,5.174,5.244,5.316,5.34,5.389,5.415,5.44,5.44,5.44,5.465,5.465,5.491,5.491,5.491,5.517,5.517,5.517,5.517,5.491,5.465,5.44,5.415,5.389,5.389,5.34,5.34,5.34,5.34,5.3645,5.389,5.389,5.389,5.415,5.415,5.44,5.44,5.44,5.44,5.44,5.44,5.44,5.415,5.389,5.389,5.316,5.244,5.174,5.151,5.084,5.018,4.996,4.954,4.933,4.912,4.912,4.891,4.891,4.891,4.891,4.891,4.891,4.891,4.891,4.891,4.891,4.891,4.891,4.891,4.891,4.891,4.912,4.912,4.912,4.912,4.912,4.912,4.933,4.954,4.954,4.975,4.996,5.018,5.04,5.04,5.04,5.04,4.996,4.975,4.933,4.891,4.81,4.713,4.426,4.328,4.28,4.249,4.188,4.173,4.158,4.158,4.158,4.158,4.173,4.203,4.249,4.28,0.0,0.0,0.0,0.0,4.791,0.0,0.0,0.0,4.996,0.0,0.0,0.0,0.0,0.0,2.998,2.46575,0.823,0.824,0.0,0.0,0.0,0.0,0.0,0.0,0.0,0.829,0.83,0.83,0.83,0.83,0.828,0.827,0.824,0.824,0.823,0.822,0.821,0.82,0.82,0.82,0.82,0.82,0.822,0.821,0.822,0.822,0.822,0.823,0.824,0.827,0.828,0.83,0.83,0.832,0.0,0.0,0.0,0.0,0.0,0.0,0.0,0.0,0.0,0.0,0.0,0.0,0.0,0.0,0.0,0.0,0.0,0.0,0.0,0.0,0.0,0.384,0.384,0.383,0.383,0.382,0.382,0.381,0.381,0.381,0.38,0.38,0.379,0.379,0.378,0.378,0.378,0.378,0.378,0.378,0.377,0.377,0.377,0.377,0.377,0.377,0.377,0.377,0.377,0.377,0.377,0.377,0.377,0.377,0.377,0.377,0.377,0.378,0.378,0.378,0.378,0.378,0.378,0.378,0.378,0.378,0.377,0.377,0.377,0.377,0.377,0.377,0.377,0.377,0.377,0.377,0.377,0.377,0.377,0.378,0.378,0.378,0.379,0.379,0.38,0.38,0.38,0.381,0.381,0.381,0.381,0.381,0.382,0.382,0.382,0.382,0.382,0.383,0.383,0.38349999999999995,0.384,0.3845,0.385,0.385,0.385,0.385,0.386,0.386,0.387,0.387,0.388,0.388,0.389,0.389,0.389,0.389,0.389,0.389,0.389,0.389,0.39,0.39,0.39,0.39,0.39,0.391,0.391,0.391,0.392,0.392,0.392,0.392,0.3925,0.393,0.393,0.393,0.393,0.393,0.393,0.394,0.394,0.394,0.394,0.394,0.395,0.396,0.396,0.396,0.397,0.397,0.397,0.397,0.398,0.398,0.398,0.399,0.399,0.4,0.401,0.401,0.4015,0.402,0.402,0.403,0.403,0.404,0.405,0.406,0.406,0.407,0.408,0.409,0.41,0.4105,0.411,0.412,0.414,0.415,0.416,0.417,0.418,0.419,0.42,0.42,0.421,0.421,0.421,0.422,0.422,0.422,0.423,0.423,0.424,0.425,0.425,0.426,0.427,0.429,0.0,0.0,0.43274999999999997,0.0,0.0,0.0,0.45025000000000004,0.453,0.457,0.4575,0.458,0.46,0.462,0.463,0.463,0.464,0.465,0.465,0.466,0.467,0.467,0.467,0.468,0.468,0.0,0.0,0.0,0.0,0.0,0.0,0.0,0.0,0.0,0.0,0.538,0.0,0.0,0.5367500000000001,0.5379375000000001,0.54,0.54,0.539,0.541,0.542,0.0,0.0,0.0,0.0,0.0,0.0,0.0,0.511,0.511,0.51,0.51,0.511,0.511,0.512,0.514,0.515,0.515,0.516,0.516,0.517,0.518,0.518,0.518,0.5175000000000001,0.515125,0.514,0.514,0.512,0.511,0.511,0.511,0.511,0.511,0.513,0.515,0.515,0.516,0.516,0.516,0.516,0.515,0.516,0.516,0.516,0.516,0.516,0.516,0.515,0.515,0.514,0.508,0.502,0.498,0.49424999999999997,0.489,0.489,0.489,0.489,0.489,0.49,0.49,0.49,0.49,0.49,0.491,0.491,0.491,0.492,0.492,0.491,0.491,0.49,0.489,0.0,0.0,0.0,0.0,0.0,0.0,0.0,0.0,0.0,0.0,0.0,0.0,0.0,0.0,0.0,0.0
3.039,3.047,3.047,3.055,3.08,3.096,3.113,3.121,3.138,3.146,3.155,3.155,3.155,3.163,3.163,3.163,3.163,3.172,3.172,3.172,3.172,3.172,3.181,3.181,3.181,3.189,3.198,3.225,3.261,3.365,3.444,3.496,3.615,3.743,3.786,3.829,3.906,4.028,4.128,4.188,4.249,4.264,4.28,4.28,4.28,4.296,4.312,4.312,4.312,4.312,4.312,4.312,4.312,4.328,4.328,4.328,4.344,4.36,4.376,4.41,4.46,4.53,4.583,4.657,4.732,4.791,4.83,4.851,4.891,4.912,4.975,5.018,5.106,5.174,5.22,5.268,5.316,5.34,5.389,5.389,5.415,5.415,5.415,5.44,5.44,5.465,5.465,5.465,5.465,5.465,5.465,5.44,5.415,5.389,5.389,5.34,5.316,5.316,5.268,5.316,5.34,5.34,5.34,5.34,5.389,5.389,5.415,5.415,5.415,5.44,5.44,5.44,5.44,5.44,5.415,5.415,5.389,5.316,5.268,5.22,5.151,5.084,5.018,4.975,4.933,4.912,4.912,4.912,4.891,4.891,4.891,4.891,4.871,4.871,4.871,4.871,4.871,4.851,4.851,4.851,4.851,4.851,4.871,4.871,4.871,4.891,4.891,4.891,4.891,4.912,4.912,4.933,4.954,4.975,4.996,5.018,5.018,5.018,5.018,4.996,4.954,4.912,4.851,4.791,4.694,4.41,4.328,0.0,0.0,4.1955,4.173,4.158,4.158,4.158,4.158,4.173,4.188,0.0,0.0,0.0,0.0,0.0,0.0,0.0,0.0,0.0,0.0,0.0,0.0,0.0,0.0,0.0,0.0,0.822,0.822,0.822,0.822,0.0,0.0,0.0,0.0,0.0,0.829,0.827,0.828,0.828,0.829,0.827,0.827,0.826,0.822,0.822,0.822,0.82,0.819,0.819,0.818,0.818,0.818,0.819,0.819,0.819,0.819,0.819,0.819,0.819,0.82,0.821,0.822,0.823,0.824,0.824,0.826,0.0,0.0,0.0,0.0,0.0,0.0,0.0,0.0,0.0,0.0,0.0,0.0,0.0,0.0,0.0,0.0,0.0,0.0,0.0,0.0,0.384,0.384,0.384,0.383,0.383,0.382,0.382,0.381,0.381,0.381,0.38,0.38,0.38,0.379,0.379,0.378,0.378,0.378,0.378,0.378,0.378,0.378,0.378,0.378,0.378,0.377,0.377,0.377,0.377,0.377,0.377,0.377,0.377,0.377,0.378,0.378,0.378,0.378,0.378,0.378,0.378,0.378,0.378,0.378,0.378,0.378,0.377,0.377,0.377,0.377,0.376,0.376,0.376,0.3765,0.377,0.377,0.377,0.377,0.377,0.377,0.378,0.378,0.378,0.379,0.379,0.38,0.38,0.38,0.381,0.381,0.381,0.381,0.381,0.381,0.382,0.382,0.382,0.383,0.383,0.383,0.384,0.384,0.3845,0.385,0.385,0.385,0.386,0.386,0.386,0.387,0.388,0.388,0.388,0.389,0.389,0.389,0.389,0.389,0.389,0.389,0.389,0.39,0.39,0.39,0.39,0.39,0.391,0.391,0.391,0.391,0.391,0.392,0.392,0.3925,0.393,0.393,0.393,0.393,0.393,0.394,0.394,0.394,0.394,0.394,0.395,0.396,0.396,0.396,0.397,0.397,0.397,0.397,0.398,0.398,0.398,0.398,0.399,0.4,0.4,0.401,0.4015,0.402,0.402,0.402,0.403,0.404,0.405,0.406,0.406,0.407,0.408,0.409,0.41,0.4105,0.411,0.412,0.414,0.416,0.416,0.417,0.41825,0.419,0.42,0.42,0.421,0.421,0.421,0.422,0.422,0.423,0.423,0.424,0.424,0.425,0.425,0.426,0.427,0.428,0.0,0.0,0.431,0.0,0.0,0.0,0.453,0.456,0.457,0.457625,0.458,0.461,0.462,0.463,0.464,0.464,0.465,0.465,0.465,0.466,0.466,0.467,0.468,0.468,0.0,0.0,0.0,0.0,0.0,0.0,0.0,0.0,0.0,0.532,0.533,0.532,0.5325,0.533,0.534,0.535,0.536,0.538,0.54,0.539,0.0,0.0,0.526,0.0,0.0,0.512,0.512,0.512,0.513,0.513,0.513,0.514,0.514,0.515,0.516,0.516,0.517,0.517,0.517,0.518,0.519,0.519,0.517,0.517,0.512,0.51,0.51,0.509,0.509,0.509,0.509,0.509,0.509,0.509,0.509,0.509,0.0,0.509,0.5085,0.508,0.506,0.506,0.504,0.505,0.5085,0.512,0.511,0.512,0.509,0.502,0.498,0.494,0.492,0.488,0.488,0.488,0.488,0.489,0.489,0.489,0.489,0.489,0.489,0.489,0.489,0.489,0.49,0.49,0.49,0.49,0.489,0.489,0.489,0.0,0.0,0.0,0.0,0.0,0.0,0.0,0.0,0.0,0.0,0.0,0.0,0.0,0.0,0.0,0.0
3.039,3.039,3.047,3.055,3.072,3.096,3.113,3.129,3.138,3.146,3.155,3.155,3.155,3.163,3.163,3.163,3.163,3.172,3.172,3.172,3.172,3.172,3.172,3.172,3.181,3.181,3.189,3.207,3.234,3.326,3.434,3.485,3.593,3.743,3.786,3.829,3.906,4.028,4.158,4.218,4.249,4.264,4.28,4.28,4.28,4.296,4.312,4.312,4.312,4.312,4.312,4.312,4.312,4.328,4.328,4.328,4.344,4.36,4.376,4.41,4.477,4.53,4.583,4.657,4.732,4.791,4.83,4.851,4.891,4.912,4.954,4.996,5.084,5.151,5.22,5.244,5.316,5.34,5.34,5.389,5.389,5.415,5.415,5.415,5.415,5.415,5.44,5.44,5.44,5.44,5.44,5.415,5.389,5.389,5.34,5.34,5.316,5.268,5.268,5.316,5.316,5.34,5.34,5.34,5.389,5.389,5.415,5.415,5.415,5.415,5.44,5.44,5.44,5.44,5.415,5.415,5.389,5.34,5.268,5.22,5.151,5.084,5.018,4.975,4.933,4.912,4.912,4.891,4.891,4.891,4.891,4.871,4.871,4.871,4.851,4.851,4.851,4.851,4.851,4.851,4.851,4.851,4.851,4.851,4.851,4.851,4.851,4.871,4.871,4.891,4.891,4.912,4.912,4.933,4.954,4.996,4.996,4.996,4.996,4.954,4.912,4.891,4.83,4.752,4.477,4.376,4.312,0.0,0.0,4.203,4.173,4.158,4.158,4.158,4.173,2.507,0.0,0.0,0.0,0.0,0.0,0.0,0.0,0.0,0.0,0.0,0.0,0.0,0.0,0.82,0.82,0.82,0.82,0.82,0.82,0.8205,0.821,0.822,0.822,0.823,0.824,0.826,0.826,0.826,0.826,0.826,0.827,0.826,0.826,0.823,0.82,0.82,0.819,0.819,0.818,0.817,0.817,0.816,0.816,0.817,0.817,0.817,0.818,0.817,0.818,0.817,0.818,0.819,0.819,0.819,0.819,0.818,0.0,0.0,0.0,0.0,0.0,0.0,0.0,0.0,0.0,0.0,0.0,0.0,0.0,0.0,0.0,0.0,0.0,0.0,0.0,0.0,0.0,0.384,0.383,0.383,0.383,0.382,0.382,0.382,0.381,0.381,0.381,0.381,0.38,0.38,0.38,0.379,0.379,0.379,0.379,0.379,0.379,0.379,0.379,0.378,0.379,0.378,0.378,0.378,0.378,0.378,0.378,0.378,0.378,0.378,0.378,0.378,0.378,0.379,0.379,0.379,0.379,0.379,0.379,0.379,0.379,0.378,0.378,0.377,0.377,0.377,0.376,0.376,0.376,0.376,0.376,0.376,0.3765,0.377,0.377,0.377,0.377,0.37750000000000006,0.378,0.378,0.378,0.379,0.379,0.38,0.38,0.381,0.381,0.381,0.381,0.381,0.381,0.381,0.382,0.382,0.382,0.382,0.383,0.383,0.384,0.38437499999999997,0.385,0.385,0.385,0.385,0.386,0.386,0.387,0.388,0.388,0.388,0.388,0.389,0.389,0.389,0.389,0.389,0.389,0.389,0.389,0.389,0.389,0.39,0.39,0.39,0.39,0.391,0.391,0.391,0.392,0.392,0.392,0.3925,0.393,0.393,0.393,0.393,0.394,0.394,0.394,0.394,0.394,0.395,0.395,0.396,0.396,0.397,0.397,0.397,0.397,0.398,0.398,0.398,0.398,0.399,0.4,0.4,0.401,0.4015,0.402,0.402,0.402,0.403,0.404,0.405,0.406,0.406,0.407,0.408,0.409,0.41,0.41062499999999996,0.411,0.412,0.414,0.416,0.416,0.417,0.419,0.4195,0.42,0.421,0.421,0.421,0.422,0.422,0.422,0.423,0.423,0.424,0.424,0.425,0.425,0.426,0.427,0.428,0.429,0.0,0.4305,0.0,0.0,0.0,0.0,0.0,0.0,0.458,0.46,0.461,0.462,0.463,0.463,0.464,0.464,0.464,0.465,0.465,0.466,0.466,0.467,0.467,0.0,0.0,0.0,0.0,0.0,0.0,0.0,0.0,0.0,0.53,0.53,0.53,0.53,0.53,0.53,0.531,0.531,0.5305,0.5275000000000001,0.526125,0.524,0.524,0.5175000000000001,0.0,0.0,0.5105,0.511,0.511,0.511,0.511,0.512,0.513,0.513,0.514,0.515,0.516,0.516,0.517,0.517,0.518,0.518,0.518,0.517,0.512,0.51,0.509,0.508,0.507,0.506,0.506,0.506,0.506,0.505,0.504,0.502,0.502,0.502,0.502,0.501125,0.5,0.499,0.499,0.495,0.0,0.0,0.0,0.0,0.0,0.0,0.4925,0.488,0.488,0.487,0.487,0.487,0.487,0.488,0.488,0.488,0.488,0.488,0.488,0.488,0.488,0.488,0.488,0.488,0.488,0.488,0.487,0.486,0.484,0.482,0.0,0.0,0.0,0.0,0.0,0.0,0.0,0.0,0.0,0.0,0.0,0.0,0.0,0.0,0.0,0.0
3.024,3.039,3.047,3.055,3.072,3.096,3.113,3.129,3.138,3.146,3.155,3.155,3.155,3.163,3.163,3.163,3.163,3.172,3.172,3.181,3.181,3.172,3.172,3.172,3.172,3.181,3.181,3.189,3.207,3.298,3.414,3.475,3.56,3.731,3.79075,3.829,3.906,4.07,4.188,4.233,4.249,4.264,4.28,4.28,4.28,4.296,4.312,4.312,4.312,4.312,4.312,4.312,4.312,4.328,4.328,4.328,4.344,4.36,4.376,4.41,4.477,4.53,4.583,4.657,4.713,4.791,4.83,4.851,4.891,4.912,4.954,4.996,5.04,5.106,5.174,5.244,5.268,5.316,5.34,5.34,5.34,5.34,5.389,5.389,5.389,5.389,5.415,5.415,5.415,5.415,5.415,5.389,5.389,5.34,5.316,5.316,5.268,5.268,5.268,5.268,5.316,5.34,5.34,5.34,5.34,5.389,5.389,5.415,5.415,5.415,5.415,5.415,5.415,5.415,5.415,5.415,5.415,5.34,5.268,5.22,5.151,5.084,5.04,4.996,4.954,4.912,4.912,4.891,4.891,4.891,4.891,4.871,4.871,4.851,4.851,4.851,4.83,4.83,4.83,4.83,4.83,4.83,4.83,4.83,4.83,4.83,4.851,4.851,4.851,4.851,4.891,4.891,4.912,4.912,4.933,4.975,4.975,4.975,4.954,4.912,4.891,0.0,0.0,0.0,0.0,0.0,0.0,0.0,0.0,0.0,0.0,0.0,0.0,0.0,2.5045,0.841,0.0,0.0,0.0,0.836,0.835,0.832,0.0,0.0,0.0,0.0,0.819,0.819,0.818,0.8185,0.819,0.819,0.819,0.819,0.819,0.819,0.82,0.82,0.82075,0.822,0.823,0.824,0.824,0.824,0.824,0.824,0.826,0.824,0.822,0.821,0.819,0.819,0.818,0.817,0.816,0.816,0.815,0.815,0.814,0.815,0.815,0.815,0.815,0.815,0.815,0.815,0.815,0.816,0.816,0.816,0.815,0.813,0.0,0.0,0.0,0.0,0.0,0.0,0.0,0.0,0.0,0.0,0.0,0.0,0.0,0.0,0.0,0.0,0.0,0.0,0.0,0.0,0.0,0.383,0.383,0.383,0.383,0.383,0.382,0.382,0.381,0.381,0.381,0.381,0.381,0.38,0.38,0.38,0.38,0.38,0.38,0.38,0.38,0.38,0.38,0.38,0.38,0.38,0.38,0.379,0.379,0.379,0.379,0.379,0.379,0.379,0.379,0.379,0.379,0.379,0.379,0.38,0.38,0.38,0.379,0.379,0.379,0.378,0.378,0.377,0.377,0.376,0.376,0.376,0.376,0.376,0.376,0.376,0.376,0.3765,0.377,0.377,0.377,0.377,0.37750000000000006,0.378,0.378,0.378,0.379,0.379,0.38,0.38,0.38,0.381,0.381,0.381,0.381,0.381,0.381,0.382,0.382,0.382,0.383,0.383,0.384,0.384,0.3845,0.385,0.385,0.385,0.386,0.386,0.387,0.387,0.388,0.388,0.388,0.388,0.389,0.389,0.389,0.389,0.389,0.389,0.389,0.389,0.389,0.389,0.39,0.39,0.39,0.39,0.391,0.391,0.391,0.392,0.392,0.392,0.3925,0.393,0.393,0.393,0.393,0.394,0.394,0.394,0.394,0.395,0.395,0.396,0.396,0.397,0.397,0.397,0.397,0.398,0.398,0.398,0.399,0.399,0.4,0.4,0.401,0.4015,0.402,0.402,0.402,0.403,0.404,0.405,0.406,0.406,0.407,0.408,0.409,0.41,0.411,0.411,0.412,0.415,0.416,0.416,0.418,0.419,0.4195,0.42,0.421,0.421,0.421,0.422,0.422,0.423,0.423,0.424,0.424,0.424,0.425,0.425,0.426,0.427,0.428,0.429,0.4295,0.43,0.0,0.0,0.0,0.0,0.0,0.0,0.461,0.462,0.462,0.463,0.463,0.463,0.464,0.464,0.464,0.465,0.465,0.465,0.465,0.466,0.0,0.0,0.0,0.0,0.0,0.0,0.0,0.0,0.0,0.0,0.525,0.525,0.524,0.524,0.524,0.524,0.524,0.524,0.523,0.515,0.514,0.513,0.51,0.509,0.509,0.509,0.509,0.509,0.509,0.51,0.51,0.511,0.511,0.512,0.514,0.514,0.516,0.515,0.516,0.517,0.517,0.517,0.516,0.511,0.509,0.508,0.507,0.506,0.506,0.505,0.503,0.502,0.502,0.502,0.499,0.497,0.496,0.4955,0.495,0.494,0.493,0.493,0.49,0.486,0.0,0.0,0.0,0.0,0.0,0.0,0.483,0.483,0.483,0.485,0.484,0.485,0.485,0.486,0.487,0.487,0.488,0.487,0.488,0.488,0.488,0.488,0.487,0.486,0.486,0.485,0.482,0.479,0.476,0.475,0.475,0.0,0.0,0.0,0.0,0.0,0.0,0.0,0.0,0.0,0.0,0.0,0.0,0.0,0.0,0.0
3.024,3.039,3.047,3.055,3.08,3.096,3.113,3.129,3.138,3.146,3.155,3.155,3.163,3.163,3.163,3.163,3.172,3.172,3.181,3.181,3.181,3.181,3.172,3.172,3.172,3.172,3.181,3.189,3.225,3.261,3.384,3.454,3.538,3.696,3.817,3.8615000000000004,3.906,4.07,4.188,4.233,4.249,4.264,4.28,4.28,4.28,4.296,4.312,4.312,4.312,4.312,4.312,4.312,4.312,4.328,4.328,4.328,4.344,4.36,4.376,4.41,4.46,4.512,4.565,4.638,4.713,4.771,4.81,4.851,4.871,4.891,4.933,4.975,5.04,5.106,5.174,5.22,5.244,5.268,5.316,5.34,5.34,5.34,5.34,5.34,5.34,5.389,5.389,5.389,5.389,5.389,5.389,5.389,5.34,5.34,5.316,5.316,5.268,5.268,5.268,5.268,5.316,5.316,5.34,5.34,5.34,5.34,5.34,5.389,5.389,5.389,5.415,5.415,5.415,5.415,5.415,5.415,5.415,5.34,5.268,5.244,5.174,5.106,5.04,4.996,4.954,4.912,4.912,4.891,4.891,4.871,4.871,4.851,4.851,4.851,4.83,4.83,4.83,4.83,4.83,4.81,4.81,4.81,4.81,4.81,4.83,4.83,4.83,4.83,4.83,4.851,4.871,4.891,4.891,4.912,4.912,4.933,4.954,4.933,0.0,0.0,0.0,0.0,0.0,0.0,0.0,0.0,0.0,0.0,0.0,0.0,0.0,0.0,0.0,0.0,0.836,0.838,0.836,0.836,0.835,0.833,0.83,0.827,0.824,0.821,0.819,0.817,0.817,0.817,0.816,0.817,0.817,0.818,0.818,0.818,0.818,0.818,0.819,0.819,0.819,0.821,0.82175,0.822,0.823,0.823,0.823,0.824,0.824,0.824,0.822,0.82,0.819,0.818,0.817,0.816,0.815,0.814,0.811,0.81,0.81,0.809,0.809,0.809,0.809,0.809,0.809,0.81,0.81,0.812,0.814,0.814,0.811,0.0,0.0,0.0,0.0,0.0,0.0,0.0,0.0,0.0,0.0,0.0,0.0,0.0,0.0,0.0,0.0,0.0,0.0,0.0,0.0,0.0,0.383,0.383,0.383,0.383,0.383,0.382,0.382,0.382,0.382,0.381,0.381,0.381,0.381,0.381,0.381,0.38,0.38,0.38,0.38,0.38,0.38,0.38,0.38,0.38,0.38,0.38,0.38,0.38,0.38,0.38,0.38,0.38,0.38,0.38,0.38,0.38,0.38,0.38,0.38,0.38,0.38,0.38,0.38,0.379,0.379,0.378,0.378,0.377,0.377,0.376,0.376,0.376,0.376,0.376,0.376,0.376,0.376,0.376,0.377,0.377,0.377,0.377,0.377,0.37750000000000006,0.378,0.378,0.378,0.379,0.379,0.38,0.38,0.38,0.381,0.381,0.381,0.381,0.381,0.381,0.381,0.382,0.382,0.383,0.383,0.384,0.38437499999999997,0.385,0.385,0.385,0.385,0.386,0.386,0.387,0.387,0.388,0.388,0.388,0.388,0.388,0.389,0.389,0.389,0.389,0.389,0.389,0.389,0.389,0.389,0.389,0.39,0.39,0.39,0.39,0.391,0.391,0.392,0.392,0.392375,0.393,0.393,0.393,0.393,0.394,0.394,0.394,0.394,0.395,0.395,0.396,0.396,0.397,0.397,0.397,0.397,0.398,0.398,0.398,0.399,0.399,0.4,0.401,0.401,0.4015,0.402,0.402,0.4025,0.403,0.404,0.405,0.406,0.406,0.407,0.408,0.409,0.41,0.41075,0.411,0.413,0.415,0.416,0.417,0.418,0.419,0.41962499999999997,0.42,0.421,0.421,0.422,0.422,0.423,0.423,0.423,0.424,0.424,0.425,0.425,0.425,0.426,0.426,0.428,0.429,0.429625,0.43,0.0,0.0,0.0,0.0,0.0,0.0,0.0,0.462,0.463,0.463,0.463,0.463,0.464,0.464,0.464,0.464,0.465,0.465,0.465,0.0,0.0,0.0,0.0,0.0,0.0,0.0,0.0,0.0,0.0,0.0,0.523,0.523,0.522,0.522,0.521,0.52,0.519,0.518,0.516,0.512,0.509,0.509,0.508,0.508,0.508,0.508,0.508,0.5085,0.509,0.509,0.51,0.511,0.511,0.512,0.513,0.514,0.513,0.514,0.5145,0.515,0.51,0.509,0.509,0.508,0.507,0.504,0.504,0.504,0.504,0.503,0.502,0.501,0.5,0.499,0.496,0.493,0.4915,0.48975,0.489,0.48749999999999993,0.485,0.484,0.482,0.481,0.48,0.478,0.478,0.478,0.478,0.479,0.48,0.481,0.482,0.482,0.482,0.483,0.483,0.485,0.484,0.484,0.485,0.485,0.485,0.484,0.482,0.48,0.48,0.47650000000000003,0.47650000000000003,0.476,0.474,0.47250000000000003,0.47187499999999993,0.473,0.473,0.0,0.0,0.0,0.0,0.0,0.0,0.0,0.0,0.0,0.0,0.0,0.0,0.0,0.0,0.0
3.024,3.039,3.047,3.072,3.08,3.096,3.113,3.129,3.146,3.146,3.155,3.155,3.163,3.163,3.163,3.172,3.172,3.181,3.181,3.181,3.181,3.181,3.181,3.172,3.172,3.172,3.181,3.181,3.2075,3.234,3.336,3.444,3.506,3.649,3.792,3.83,3.868,4.028,4.173,4.218,4.249,4.264,4.264,4.28,4.28,4.296,4.312,4.312,4.312,4.312,4.312,4.312,4.328,4.328,4.328,4.344,4.344,4.36,4.376,4.41,4.46,4.512,4.565,4.601,4.657,4.732,4.81,4.83,4.851,4.891,4.912,4.975,5.018,5.106,5.151,5.22,5.244,5.268,5.316,5.34,5.34,5.34,5.34,5.34,5.34,5.389,5.389,5.389,5.389,5.389,5.389,5.34,5.34,5.316,5.316,5.316,5.268,5.268,5.268,5.316,5.316,5.34,5.34,5.34,5.34,5.34,5.34,5.34,5.34,5.34,5.34,5.389,5.389,5.389,5.389,5.415,5.389,5.34,5.316,5.244,5.174,5.106,5.084,4.996,4.954,4.912,4.912,4.891,4.891,4.871,4.871,4.851,4.851,4.851,4.83,4.83,4.83,4.83,4.81,4.81,4.81,4.81,4.81,4.81,4.81,4.81,4.83,4.83,4.83,4.851,4.851,4.871,4.891,4.891,0.0,0.0,0.0,0.0,0.0,0.0,0.0,0.0,0.0,0.0,0.0,0.0,0.0,0.0,0.0,0.841,0.84,0.839,0.838,0.836,0.835,0.834,0.833,0.833,0.832,0.829,0.824,0.822,0.82,0.819,0.816,0.816,0.815,0.815,0.815,0.816,0.816,0.816,0.817,0.818,0.818,0.818,0.819,0.819,0.819,0.82,0.821,0.8207499999999999,0.821,0.822,0.822,0.822,0.822,0.822,0.82,0.819,0.817,0.816,0.814,0.81,0.809,0.806,0.804,0.803,0.803,0.803,0.803,0.803,0.804,0.803,0.804,0.806,0.807,0.808,0.81,0.809,0.805,0.0,0.0,0.0,0.0,0.0,0.0,0.0,0.0,0.0,0.0,0.0,0.0,0.0,0.0,0.0,0.0,0.0,0.0,0.0,0.0,0.382,0.382,0.382,0.382,0.382,0.382,0.382,0.382,0.382,0.382,0.381,0.381,0.381,0.381,0.0,0.0,0.381,0.381,0.381,0.381,0.3805,0.380625,0.381,0.381,0.381,0.381,0.381,0.381,0.38,0.38,0.38,0.38,0.38,0.38,0.38,0.38,0.38,0.38,0.38,0.38,0.38,0.38,0.38,0.38,0.379,0.379,0.378,0.377,0.377,0.376,0.376,0.376,0.375,0.375,0.375,0.375,0.376,0.376,0.376,0.376,0.377,0.377,0.377,0.377,0.377,0.37750000000000006,0.378,0.378,0.378,0.379,0.379,0.38,0.38,0.38,0.381,0.381,0.381,0.381,0.381,0.381,0.381,0.382,0.382,0.383,0.384,0.384,0.3845,0.385,0.385,0.385,0.386,0.386,0.386,0.387,0.387,0.388,0.388,0.388,0.388,0.388,0.388,0.389,0.389,0.389,0.389,0.389,0.389,0.389,0.389,0.389,0.39,0.39,0.39,0.39,0.391,0.391,0.392,0.392,0.3925,0.393,0.393,0.393,0.393,0.394,0.394,0.394,0.395,0.395,0.396,0.396,0.397,0.397,0.397,0.398,0.398,0.398,0.398,0.399,0.399,0.4,0.401,0.401,0.4015,0.402,0.402,0.403,0.403,0.404,0.405,0.406,0.407,0.407,0.408,0.41,0.4105,0.411,0.411,0.413,0.415,0.416,0.417,0.418,0.419,0.42,0.42,0.421,0.421,0.422,0.422,0.423,0.423,0.424,0.424,0.424,0.425,0.425,0.425,0.426,0.427,0.428,0.429,0.43,0.4305,0.431,0.431,0.0,0.0,0.0,0.0,0.0,0.0,0.463,0.463,0.463,0.463,0.464,0.464,0.464,0.464,0.465,0.465,0.465,0.0,0.0,0.0,0.0,0.0,0.0,0.0,0.0,0.0,0.0,0.0,0.0,0.522,0.522,0.52,0.518,0.516,0.516,0.515,0.513,0.51,0.509,0.507,0.506,0.506,0.506,0.506,0.506,0.508,0.507,0.509,0.5095000000000001,0.51,0.51,0.511,0.511,0.512,0.513,0.498,0.50025,0.499,0.496,0.4965,0.49612500000000004,0.493,0.494,0.496,0.495,0.495,0.496,0.496,0.49524999999999997,0.493,0.492,0.49,0.489,0.488,0.487,0.484,0.483,0.482,0.482,0.482,0.481,0.48,0.476,0.476,0.476,0.47675,0.477,0.4775,0.478,0.479,0.48,0.481,0.482,0.482,0.482,0.482,0.478,0.477,0.4785,0.48,0.478,0.4725,0.47,0.47,0.47,0.467,0.467,0.467,0.466,0.466,0.466,0.0,0.0,0.0,0.0,0.0,0.0,0.0,0.0,0.0,0.0,0.0,0.0,0.0,0.0,0.0,0.0,0.0
3.024,3.039,3.047,3.072,3.08,3.104,3.113,3.129,3.146,3.155,3.155,3.163,3.163,3.163,3.172,3.172,3.181,3.181,3.181,3.181,3.181,3.181,3.181,3.181,3.181,3.172,3.172,3.181,3.1985,3.216,3.317,3.414,3.485,3.582,3.743,3.80175,3.842,3.973,4.128,4.188,4.249,4.264,4.264,4.28,4.28,4.296,4.296,4.312,4.312,4.312,4.312,4.312,4.328,4.328,4.328,4.344,4.36,4.376,4.393,4.41,4.46,4.477,4.53,4.583,4.657,4.713,4.771,4.81,4.851,4.891,4.912,4.954,5.018,5.084,5.151,5.22,5.244,5.268,5.316,5.316,5.316,5.316,5.34,5.34,5.34,5.34,5.34,5.34,5.34,5.34,5.34,5.34,5.34,5.34,5.316,5.316,5.316,5.316,5.316,5.316,5.34,5.34,5.34,5.34,5.34,5.34,5.34,5.34,5.34,5.34,5.34,5.34,5.34,5.34,5.34,5.389,5.389,5.34,5.316,5.244,5.174,5.106,5.084,4.996,4.954,4.912,4.912,4.891,4.891,4.871,4.851,4.851,4.851,4.83,4.83,4.83,4.83,4.81,4.81,4.81,4.81,4.791,4.791,4.81,4.81,4.81,4.81,4.81,0.0,0.0,0.0,0.0,0.0,2.863,0.0,0.0,0.0,0.0,0.0,0.0,0.0,0.0,0.0,0.0,0.0,0.0,0.0,0.845,0.843,0.839,0.839,0.838,0.836,0.835,0.832,0.832,0.83,0.83,0.828,0.824,0.822,0.82,0.819,0.816,0.815,0.814,0.814,0.814,0.814,0.815,0.815,0.816,0.817,0.817,0.817,0.818,0.818,0.818,0.819,0.818,0.819,0.819,0.819,0.819,0.819,0.819,0.819,0.819,0.818,0.817,0.815,0.809,0.803,0.801,0.8,0.8,0.799,0.799,0.799,0.799,0.798,0.799,0.799,0.798,0.799,0.8,0.8,0.801,0.801,0.801,0.0,0.0,0.761,0.0,0.0,0.0,0.0,0.0,0.0,0.0,0.0,0.0,0.0,0.0,0.0,0.0,0.0,0.0,0.0,0.0,0.0,0.0,0.0,0.382,0.382,0.382,0.382,0.382,0.382,0.382,0.382,0.382,0.382,0.382,0.381,0.0,0.0,0.0,0.0,0.0,0.381,0.381,0.381,0.381,0.381,0.381,0.381,0.381,0.381,0.381,0.381,0.38,0.38,0.381,0.381,0.381,0.381,0.381,0.381,0.381,0.38,0.38,0.38,0.38,0.379,0.378,0.378,0.377,0.377,0.376,0.376,0.376,0.375,0.375,0.375,0.375,0.375,0.375,0.375,0.375,0.376,0.376,0.376,0.377,0.377,0.377,0.377,0.37750000000000006,0.378,0.378,0.378,0.379,0.379,0.379,0.38,0.38,0.38,0.381,0.381,0.381,0.381,0.381,0.382,0.382,0.383,0.383,0.384,0.38437499999999997,0.385,0.385,0.385,0.385,0.386,0.386,0.386,0.386,0.387,0.387,0.388,0.388,0.388,0.388,0.388,0.389,0.389,0.389,0.389,0.389,0.389,0.389,0.389,0.389,0.389,0.389,0.39,0.39,0.391,0.391,0.392,0.392,0.3925,0.393,0.393,0.393,0.394,0.394,0.395,0.395,0.396,0.396,0.397,0.397,0.397,0.397,0.398,0.398,0.398,0.399,0.399,0.4,0.4,0.401,0.401,0.401625,0.402,0.402,0.403,0.404,0.404,0.406,0.406,0.407,0.407,0.409,0.41,0.4105,0.411,0.411,0.413,0.415,0.416,0.417,0.418,0.419,0.42,0.421,0.421,0.421,0.422,0.423,0.423,0.423,0.424,0.424,0.425,0.425,0.425,0.426,0.426,0.427,0.428,0.429,0.43,0.4305,0.431,0.431,0.433,0.0,0.0,0.0,0.0,0.0,0.0,0.0,0.463,0.463,0.464,0.464,0.464,0.464,0.465,0.465,0.4665,0.0,0.0,0.0,0.0,0.0,0.0,0.0,0.0,0.0,0.0,0.0,0.0,0.0,0.519,0.516,0.516,0.515,0.513,0.513,0.51,0.509,0.506,0.505,0.50425,0.504,0.504,0.504,0.5042500000000001,0.506,0.502,0.502,0.502125,0.502,0.502,0.499,0.495,0.477,0.4875,0.482,0.486,0.483,0.482,0.484,0.486,0.488,0.489,0.489,0.49,0.49,0.49050000000000005,0.491,0.49,0.49,0.488,0.487,0.486,0.483,0.482,0.482,0.482,0.481,0.48,0.48,0.478,0.477,0.476,0.476,0.476,0.476,0.476,0.476,0.477,0.477,0.478,0.478,0.478,0.477,0.476,0.475,0.473,0.471,0.468625,0.467,0.465,0.458,0.458,0.458,0.458,0.46,0.459,0.46,0.461,0.462,0.4615,0.0,0.0,0.0,0.0,0.0,0.0,0.0,0.0,0.0,0.0,0.0,0.0,0.0,0.0,0.0,0.0,0.0
