5.707,5.707,5.707,5.707,5.707,5.707,5.707,5.707,5.707,5.707,5.707,5.707,5.707,5.707,5.707,5.679,5.679,5.679,5.651,5.651,5.624,5.597,5.597,5.57,5.57,5.543,5.491,5.44,5.34,5.316,5.244,5.22,5.22,5.22,5.244,5.316,5.34,5.415,5.44,5.491,5.543,5.57,5.57,5.597,5.597,5.597,5.597,5.597,5.597,5.597,5.597,5.597,5.597,5.57,5.57,5.543,5.543,5.517,5.491,5.465,5.44,5.44,5.415,5.415,5.44,5.44,5.465,5.491,5.491,5.517,5.543,5.543,5.57,5.57,5.57,5.57,5.597,5.597,5.597,5.651,5.792,6.0085,6.225,0.0,0.0,0.0,7.973,8.256,8.346375,8.436,8.497,8.497,8.56,8.623,8.753,8.819,8.88775,8.955,9.024,9.024,9.024,8.955,9.024,9.166,9.239,9.351500000000001,9.342875,9.239,9.166,9.315000000000001,9.464,9.542,9.313,9.239,9.239,9.464,9.783,10.036,10.212,10.302,10.302,10.394,10.583,10.68,10.88,11.03575,11.194,11.641,12.001,12.384,12.518,12.935,13.229,13.381,13.696,13.696,13.696,13.696,13.696,13.859,13.859,13.859,13.859,13.859,13.859,13.859,13.859,13.859,13.859,14.026,14.026,14.026,14.026,14.026,13.859,13.859,13.859,13.859,13.859,14.026,14.026,14.026,14.026,14.026,14.026,13.859,13.859,13.696,13.696,13.696,13.381,13.381,13.229,12.935,12.935,12.793,12.518,12.518,12.384,12.254,12.384,12.384,12.384,12.518,12.518,12.793,12.935,12.935,13.229,13.229,13.381,13.381,13.381,13.381,13.381,13.381,13.536,13.381,13.229,13.229,12.935,12.518,12.384,12.254,12.001,11.641,11.641,11.526,11.302,11.087,11.194,11.087,11.087,11.087,10.88,0.0,0.0,0.0,0.0,0.0,0.0,0.0,0.0,0.0,0.0,0.0,0.0,0.0,0.0,0.0,0.0,0.0,10.394,10.779,11.302,12.001,12.384,12.384,12.518,12.793,12.935,12.935,12.935,13.229,13.229,13.229,13.381,13.381,13.381,13.536,13.381,13.536,13.536,13.536,13.536,13.229,12.935,12.518,12.254,12.001,11.641,11.302,11.194,11.087,11.087,11.087,11.087,11.087,11.087,11.087,10.982,10.88,10.982,10.982,11.087,11.087,10.982,11.194,11.302,11.302,11.641,11.879,11.879,12.001,12.001,12.254,12.384,12.254,12.254,12.254,12.384,12.384,12.384,12.384,12.254,12.254,12.254,12.254,12.001,12.001,12.001,12.254,12.254,12.384,12.518,12.935,13.229,13.229,13.381,13.381,13.381,13.536,13.536,13.536,13.536,13.381,13.536,13.536,13.536,13.381,13.229,12.935,12.935,12.518,12.518,12.384,12.254,12.384,12.384,12.384,12.384,12.254,12.254,12.001,12.001,11.879,11.641,11.526,11.526,11.302,11.194,11.087,10.88,10.779,10.68,10.583,10.488,10.394,10.302,10.212,9.865,9.313,9.166,8.819,8.623,8.56,8.436,8.375,8.375,8.436,8.436,8.56,8.56,8.56,8.56,8.56,8.497,8.375,8.315,8.256,8.198,8.084,8.084,8.028,7.973,7.919,7.866,7.415,6.971,6.69,6.27,5.85,5.651,5.543,5.465,5.389,5.34,5.34,5.34,5.34,5.34,5.34,5.34,5.34,5.34,5.34,5.316,5.316,5.316,5.268,5.268,5.268,5.316,5.316,5.34,5.389,5.415,5.465,5.465,5.517,5.543,5.543,5.543,5.543,5.543,5.517,5.465,5.465,5.415,5.389,5.389,5.316,5.316,5.268,5.244,5.244,5.174,5.151,5.106,5.04,5.018,4.996,4.975,4.954,4.912,4.891,4.871,4.83,4.81,4.771,4.713,4.638,4.53,4.426,4.376,4.28,4.218,4.158,4.056,3.973,3.906,3.868,3.842,3.829,3.817,3.804,3.804,3.78,3.767,3.755,3.731,3.696,3.672,3.627,3.582,3.549,3.517,3.485,3.475,3.454,3.444,3.424,3.414,3.404,3.404,3.394,3.384,3.365,3.355,3.336,3.326,3.317,3.298,3.288,3.298,3.298,3.317,3.326,3.336,3.355,3.384,3.394,3.404,3.414,3.424,3.434,3.444,3.454,3.465,2.5375,2.5375,2.5330000000000004,2.5330000000000004,2.523,2.513,2.503,2.4690000000000003,2.4565,0.0,0.0,1.619,1.619,1.621,0.0,0.0,1.619,1.617,0.0,0.0,1.61,1.606,1.601,1.599,1.595,1.593,1.586,1.571,1.567,1.563,1.56,1.554,1.554,1.552,1.548,1.548,1.548,1.546,1.546,1.546,0.0,0.0,0.0,0.0,0.0,0.0,0.0,0.0,0.0,0.0,0.0,0.0,0.0,0.0,0.0,0.0,0.0,0.0,0.0,0.0,0.0,0.0,0.0,0.0,0.0
5.679,5.679,5.679,5.679,5.679,5.679,5.679,5.679,5.679,5.679,5.679,5.679,5.679,5.679,5.679,5.679,5.679,5.679,5.651,5.651,5.651,5.624,5.597,5.57,5.57,5.543,5.491,5.44,5.34,5.316,5.268,5.244,5.22,5.244,5.268,5.316,5.389,5.415,5.465,5.517,5.543,5.57,5.597,5.597,5.597,5.597,5.624,5.624,5.624,5.624,5.597,5.597,5.597,5.597,5.57,5.57,5.543,5.517,5.491,5.491,5.465,5.44,5.415,5.44,5.44,5.44,5.465,5.465,5.491,5.517,5.543,5.543,5.57,5.57,5.597,5.597,5.597,5.597,5.597,5.651,5.763,5.945,6.127,6.54,0.0,0.0,7.813,8.141,8.256,8.256,8.315,8.375,8.436,8.497,8.56,8.56,8.753,8.753,8.819,8.819,8.819,8.887,8.955,9.239,9.464,9.464,9.542,9.701,9.5155,0.0,0.0,0.0,9.701,9.542,9.701,9.783,9.95,10.036,10.212,10.302,10.394,10.488,10.583,10.68,10.779,11.087,11.3065,11.526,11.879,12.254,12.518,12.935,13.229,13.381,13.536,13.536,13.696,13.696,13.696,13.696,13.859,13.859,13.859,13.859,13.859,13.859,13.859,13.859,13.859,14.026,14.026,14.026,14.026,14.026,14.026,13.859,13.859,14.026,14.026,14.026,14.026,14.026,14.026,14.026,13.859,13.859,13.859,13.536,13.536,13.381,13.381,12.935,12.935,12.793,12.518,12.518,12.384,12.254,12.254,12.001,12.254,12.254,12.384,12.384,12.518,12.793,12.793,12.935,13.229,13.229,13.381,13.381,13.381,13.381,13.381,13.381,13.381,13.229,13.229,12.935,12.793,12.793,12.518,12.254,12.001,11.879,11.879,11.641,11.526,11.302,11.302,11.302,11.302,11.302,11.302,11.194,0.0,0.0,0.0,0.0,0.0,0.0,0.0,0.0,0.0,0.0,0.0,0.0,0.0,0.0,0.0,10.394,10.88,11.302,11.641,12.254,12.384,12.518,12.793,12.793,12.935,12.935,13.229,13.381,13.381,13.381,13.381,13.381,13.536,13.536,13.536,13.696,13.536,13.696,13.696,13.536,13.229,12.935,12.518,12.384,12.001,11.879,11.641,11.526,11.526,11.526,11.526,11.526,11.526,11.302,11.194,11.194,11.087,11.087,11.194,11.087,11.087,11.087,11.194,11.302,11.526,11.641,11.879,11.879,11.879,12.254,12.254,12.254,12.254,12.001,12.254,12.254,12.254,12.254,12.254,12.254,12.254,12.001,12.001,12.001,12.001,12.001,12.254,12.384,12.518,12.793,12.935,13.229,13.229,13.229,13.229,13.229,13.229,13.229,13.229,13.229,13.229,13.381,13.381,13.229,13.229,12.935,12.935,12.793,12.518,12.518,12.518,12.518,12.518,12.384,12.384,12.254,12.254,12.001,12.001,11.879,11.641,11.526,11.302,11.194,11.087,10.982,10.88,10.68,10.583,10.583,10.394,10.302,10.212,10.036,9.783,9.239,9.024,8.753,8.56,8.497,8.375,8.375,8.375,8.436,8.436,8.497,8.497,8.497,8.497,8.497,8.436,8.375,8.315,8.256,8.198,8.141,8.084,8.028,8.028,7.973,7.866,7.511,7.055,6.729,6.4495,6.259,5.679,5.57,5.465,5.389,5.34,5.34,5.34,5.34,5.34,5.34,5.34,5.34,5.316,5.316,5.268,5.268,5.244,5.22,5.22,5.22,5.244,5.244,5.268,5.316,5.389,5.415,5.44,5.465,5.517,5.517,5.543,5.543,5.517,5.465,5.465,5.44,5.389,5.389,5.34,5.316,5.268,5.268,5.244,5.22,5.174,5.151,5.084,5.04,4.996,4.975,4.954,4.912,4.912,4.891,4.851,4.83,4.791,4.732,4.657,4.601,4.512,4.426,4.376,4.328,4.249,4.203,4.114,4.014,3.933,3.868,3.855,3.829,3.817,3.804,3.804,3.792,3.78,3.767,3.755,3.731,3.672,3.649,3.593,3.56,3.517,3.496,3.475,3.465,3.444,3.414,3.404,3.394,3.394,3.384,3.365,3.336,3.326,3.317,3.298,3.298,3.288,3.288,3.288,3.298,3.298,3.317,3.326,3.336,3.355,3.365,2.5015,2.5065,2.5125,2.5175,2.292125,1.606,1.608,1.61,1.61,1.612,1.612,1.612,1.612,1.612,1.612,1.615,1.615,1.617,1.617,1.617,1.619,1.621,1.619,1.617,1.615,1.612,1.61,1.608,1.603,1.601,1.595,1.593,1.586,1.584,1.565,1.56,1.554,1.55,1.546,1.542,1.534,1.526,1.518,1.512,1.508,1.506,1.502,0.0,0.0,0.0,0.0,0.0,0.0,0.0,0.0,0.0,0.0,0.0,0.0,0.0,0.0,0.0,0.0,0.0,0.0,0.0,0.0,0.0,0.0,0.0,0.0,0.0
5.679,5.679,5.679,5.651,5.651,5.651,5.651,5.651,5.651,5.651,5.679,5.679,5.679,5.679,5.679,5.679,5.679,5.679,5.651,5.651,5.651,5.624,5.597,5.597,5.57,5.543,5.517,5.465,5.389,5.34,5.316,5.268,5.244,5.268,5.316,5.34,5.389,5.44,5.491,5.517,5.543,5.57,5.597,5.597,5.624,5.651,5.651,5.651,5.651,5.651,5.651,5.624,5.624,5.597,5.597,5.57,5.543,5.543,5.517,5.491,5.465,5.44,5.44,5.44,5.44,5.44,5.465,5.465,5.491,5.517,5.543,5.543,5.57,5.57,5.597,5.597,5.597,5.597,5.624,5.651,5.735,5.868,6.001,6.396,0.0,0.0,7.415,7.973,8.084,8.141,8.198,8.256,8.256,8.256,8.375,8.436,8.497,8.56,8.623,8.753,8.819,0.0,0.0,0.0,0.0,9.542,9.701,9.783000000000001,9.865,0.0,0.0,0.0,0.0,0.0,9.865,9.95,10.036,10.123,10.212,10.302,10.394,10.583,10.583,10.68,10.88,11.087,11.222375000000001,11.302,11.879,12.254,12.518,12.793,13.229,13.381,13.536,13.536,13.696,13.696,13.696,13.696,13.696,13.696,13.859,13.859,13.859,13.859,13.859,13.859,13.859,13.859,13.859,13.859,13.859,13.859,13.859,13.859,13.859,13.859,13.859,14.026,14.026,14.026,14.026,13.859,13.859,13.696,13.696,13.536,13.381,13.229,12.935,12.935,12.518,12.518,12.384,12.254,12.001,12.001,12.001,11.879,12.001,12.001,12.254,12.384,12.384,12.518,12.793,12.935,13.229,13.381,13.381,13.381,13.381,13.381,13.381,13.381,13.381,13.229,13.229,12.935,12.935,12.793,12.518,12.384,12.384,12.254,12.001,12.001,12.001,11.641,11.641,11.641,11.526,11.641,11.526,11.4175,0.0,0.0,0.0,0.0,0.0,0.0,0.0,0.0,0.0,0.0,0.0,0.0,0.0,0.0,0.0,11.526,12.254,12.254,12.384,12.384,12.518,12.793,12.793,12.935,13.229,13.229,13.381,13.381,13.381,13.381,13.536,13.536,13.536,13.696,13.696,13.696,13.696,13.859,13.859,13.536,13.381,13.229,12.935,12.793,12.518,12.384,12.254,12.001,12.001,12.001,12.001,12.254,12.001,11.879,11.641,11.526,11.526,11.302,11.302,11.302,11.087,11.087,11.194,11.302,11.526,11.641,11.641,11.641,11.879,12.254,12.254,12.254,12.001,12.001,12.001,12.254,12.254,12.254,12.001,12.001,12.001,12.001,12.001,12.001,12.001,12.001,12.001,12.254,12.384,12.518,12.793,12.793,12.935,12.935,12.935,12.935,12.793,12.793,12.793,12.793,12.793,12.935,12.935,12.935,12.935,12.935,12.935,12.935,12.935,12.793,12.793,12.793,12.793,12.518,12.518,12.384,12.384,12.254,12.001,11.879,11.641,11.526,11.302,11.194,11.087,10.982,10.779,10.68,10.583,10.394,10.302,10.212,10.123,9.865,9.239,9.024,8.819,8.623,8.56,8.436,8.375,8.375,8.375,8.375,8.375,8.436,8.436,8.375,8.375,8.375,8.315,8.256,8.198,8.198,8.141,8.084,8.028,8.028,7.973,7.919,7.866,7.511,7.098,6.729,6.54,6.1842500000000005,5.679,5.57,5.491,5.415,5.34,5.34,5.34,5.389,5.389,5.389,5.34,5.316,5.316,5.268,5.244,5.244,5.22,5.174,5.174,5.174,5.22,5.22,5.244,5.268,5.34,5.389,5.415,5.44,5.491,5.517,5.517,5.517,5.491,5.465,5.44,5.415,5.389,5.34,5.316,5.268,5.268,5.244,5.244,5.22,5.151,5.106,5.084,5.018,4.996,4.954,4.933,4.912,4.891,4.871,4.83,4.81,4.752,4.694,4.638,4.565,4.512,4.41,4.376,4.328,4.264,4.203,4.114,4.028,3.933,3.88,3.855,3.829,3.817,3.817,3.804,3.792,3.792,3.767,3.755,3.731,3.696,3.649,3.615,3.56,3.517,3.496,3.475,3.454,3.444,3.404,3.394,3.384,3.384,3.365,3.336,3.326,3.317,3.298,3.288,3.288,3.27,3.261,3.27,3.27,3.298,3.298,0.0,0.0,0.0,2.482,1.599,1.599,1.601,1.601,1.601,1.603,1.603,1.608,1.606,1.608,1.608,1.606,1.606,1.608,1.61,1.612,1.612,1.615,1.615,1.615,1.617,1.617,1.6147500000000001,1.615,1.612,1.61,1.606,1.606,1.603,1.595,1.586,1.58,1.567,1.558,1.552,1.546,1.538,1.528,1.518,1.502,1.494,1.489,1.485,1.481,1.481,1.481,0.0,0.0,0.0,0.0,0.0,0.0,0.0,0.0,0.0,0.0,0.0,0.0,0.0,0.0,0.0,0.0,0.0,0.0,0.0,0.0,0.0,0.0,0.0,0.0,0.0,0.0
5.679,5.679,5.651,5.651,5.651,5.651,5.624,5.624,5.624,5.651,5.651,5.651,5.651,5.651,5.651,5.651,5.651,5.651,5.651,5.651,5.651,5.624,5.597,5.597,5.57,5.543,5.517,5.491,5.44,5.415,5.389,5.34,5.316,5.34,5.389,5.415,5.44,5.465,5.517,5.543,5.57,5.597,5.597,5.624,5.651,5.651,5.651,5.651,5.651,5.651,5.651,5.651,5.624,5.597,5.597,5.57,5.57,5.543,5.517,5.491,5.465,5.44,5.44,5.415,5.415,5.44,5.44,5.465,5.465,5.517,5.543,5.543,5.57,5.57,5.57,5.597,5.597,5.624,5.624,5.651,5.735,5.837,5.939,6.327,0.0,0.0,7.186,7.709,7.973,8.028,8.0855,8.127625,8.141,8.198,8.256,8.256,8.315,8.375,8.497,8.56,8.623,0.0,0.0,0.0,0.0,0.0,9.742,9.878250000000001,10.123,0.0,0.0,0.0,0.0,0.0,0.0,10.123,10.123,10.212,10.212,10.302,10.394,10.583,10.583,10.68,10.779,10.982,11.194,11.4175,11.641,12.001,12.384,12.793,12.935,13.381,13.381,13.696,13.696,13.696,13.696,13.696,13.696,13.859,13.859,13.859,13.859,13.859,13.859,13.859,13.859,13.859,13.859,13.859,13.696,13.859,13.859,13.859,13.859,13.859,13.859,13.859,14.026,14.026,14.026,13.859,13.696,13.696,13.536,13.381,13.229,12.935,12.793,12.518,12.518,12.384,12.254,12.001,12.001,11.879,11.641,11.641,11.879,12.001,12.001,12.254,12.384,12.518,12.793,12.793,13.229,13.229,13.229,13.381,13.229,13.229,13.229,13.229,13.229,13.229,12.935,12.935,12.793,12.793,12.793,12.518,12.518,12.384,12.384,12.384,12.254,12.254,11.879,11.879,11.879,11.879,11.641,11.641,0.0,0.0,0.0,0.0,0.0,0.0,0.0,0.0,0.0,0.0,0.0,0.0,0.0,0.0,0.0,12.001,12.254,12.254,12.384,12.518,12.793,12.935,12.935,13.229,13.381,13.381,13.536,13.536,13.536,13.536,13.536,13.696,13.696,13.696,13.696,13.696,13.859,13.859,13.859,13.859,13.696,13.536,13.381,13.381,13.229,12.935,12.935,12.793,12.793,12.793,12.793,12.793,12.518,12.384,12.254,12.001,12.001,11.879,11.641,11.526,11.302,11.302,11.302,11.302,11.526,11.641,11.641,11.641,12.001,12.254,12.384,12.254,12.254,12.254,12.254,12.254,12.254,12.254,12.254,12.254,12.254,12.001,12.001,12.001,11.879,11.879,12.001,12.254,12.254,12.384,12.518,12.518,12.518,12.518,12.518,12.518,12.384,12.384,12.384,12.384,12.518,12.793,12.935,12.935,12.935,12.935,13.229,13.229,12.935,12.935,12.793,12.935,12.935,12.935,12.793,12.518,12.384,12.254,12.001,11.879,11.879,11.526,11.302,11.194,10.982,10.88,10.68,10.583,10.394,10.302,10.212,10.123,9.865,9.701,9.166,8.955,8.753,8.56,8.497,8.436,8.375,8.315,8.315,8.315,8.315,8.315,8.315,8.256,8.256,8.256,8.198,8.198,8.141,8.084,8.028,8.028,7.973,7.973,7.919,7.813,7.761,7.415,7.055,6.729,6.54,6.259,5.707,5.597,5.517,5.415,5.389,5.389,5.389,5.389,5.389,5.389,5.34,5.316,5.316,5.268,5.268,5.244,5.22,5.174,5.151,5.151,5.174,5.22,5.22,5.268,5.316,5.34,5.389,5.415,5.465,5.465,5.491,5.465,5.465,5.44,5.415,5.389,5.34,5.316,5.268,5.268,5.268,5.244,5.244,5.22,5.151,5.106,5.084,5.018,4.996,4.954,4.933,4.891,4.871,4.851,4.83,4.771,4.732,4.657,4.583,4.53,4.46,4.41,4.36,4.328,4.264,4.203,4.114,4.028,3.933,3.88,3.855,3.829,3.817,3.804,3.804,3.78,3.767,3.743,3.707,3.696,3.672,3.649,3.593,3.549,3.506,3.496,3.475,3.454,3.414,3.394,3.384,3.365,3.355,3.336,3.326,3.298,3.293,3.288,3.27,3.27,3.27,3.261,0.0,0.0,0.0,2.4465,0.0,0.0,0.0,1.599,1.599,1.599,1.599,1.601,1.599,1.601,1.603,1.603,1.606,1.606,1.606,1.606,1.603,1.603,1.606,1.608,1.61,1.612,1.61,1.61,1.612,1.61,1.608,1.606,1.595,1.586,1.58,1.58,1.573,1.56,1.554,1.55,1.546,1.542,1.528,1.512,1.496,1.491,1.485,1.472,1.461,1.452,1.448,1.443,1.441,1.439,0.0,0.0,0.0,0.0,0.0,0.0,0.0,0.0,0.0,0.0,0.0,0.0,0.0,0.0,0.0,0.0,0.0,0.0,0.0,0.0,0.0,0.0,0.0,0.0,0.0,0.0
5.651,5.651,5.651,5.624,5.624,5.597,5.597,5.597,5.597,5.597,5.624,5.624,5.624,5.651,5.651,5.651,5.651,5.651,5.651,5.651,5.624,5.624,5.597,5.597,5.57,5.543,5.543,5.517,5.491,5.465,5.44,5.415,5.415,5.415,5.44,5.465,5.465,5.491,5.517,5.543,5.57,5.597,5.597,5.597,5.597,5.624,5.651,5.651,5.651,5.651,5.651,5.651,5.624,5.597,5.597,5.57,5.57,5.543,5.517,5.491,5.465,5.44,5.44,5.415,5.415,5.415,5.44,5.44,5.491,5.517,5.543,5.543,5.57,5.57,5.597,5.597,5.624,5.624,5.651,5.679,5.735,5.837,5.939,0.0,0.0,6.729,6.971,7.511,7.813,7.919,7.973,8.028,8.028,8.084,8.084,8.198,8.198,8.256,8.256,8.375,8.436,8.529499999999999,8.623,9.239,9.542,9.6625,9.783,9.865,10.123,10.212,10.302,10.583,10.488,10.212,10.212,10.212,10.212,10.212,10.257,10.302,10.394,10.488,10.583,10.68,10.68,10.982,11.194,11.4175,11.641,12.001,12.384,12.518,12.935,13.381,13.536,13.536,13.696,13.696,13.696,13.859,13.859,13.859,13.859,13.859,13.859,13.859,13.859,13.859,13.859,13.859,13.696,13.696,13.696,13.696,13.696,13.696,13.696,13.859,13.859,13.859,13.859,14.026,13.859,13.696,13.696,13.696,13.536,13.229,13.229,12.793,12.793,12.518,12.384,12.254,12.254,12.001,11.879,11.641,11.641,11.641,11.641,11.879,11.879,12.001,12.254,12.384,12.518,12.793,12.935,12.935,13.229,13.229,13.229,13.229,13.229,12.935,12.935,12.935,12.935,12.793,12.793,12.793,12.793,12.793,12.793,12.518,12.793,12.518,12.384,12.254,12.001,12.001,12.001,11.879,11.879,11.641,0.0,0.0,0.0,0.0,0.0,0.0,0.0,0.0,0.0,0.0,0.0,0.0,0.0,0.0,0.0,0.0,12.254,12.384,12.384,12.518,12.793,12.935,12.935,13.229,13.381,13.536,13.536,13.696,13.696,13.696,13.696,13.696,13.696,13.696,13.696,13.696,13.696,13.859,13.859,13.859,13.859,13.696,13.696,13.696,13.696,13.696,13.536,13.536,13.536,13.536,13.536,13.536,13.381,13.229,12.793,12.518,12.384,12.254,12.254,12.001,11.879,11.879,11.879,11.879,12.001,12.001,12.254,12.001,12.254,12.384,12.518,12.384,12.384,12.254,12.254,12.254,12.384,12.384,12.384,12.254,12.254,12.254,12.254,12.001,12.001,12.001,12.001,12.001,12.254,12.384,12.518,12.518,12.518,12.384,12.384,12.384,12.384,12.384,12.254,12.254,12.254,12.384,12.518,12.935,12.935,12.935,12.935,13.229,13.229,13.229,13.229,13.229,12.935,12.935,12.793,12.518,12.518,12.384,12.254,11.879,11.641,11.526,11.194,11.087,10.88,10.779,10.68,10.488,10.302,10.212,10.123,9.95,9.783,9.166,8.955,8.753,8.623,8.497,8.436,8.375,8.315,8.256,8.256,8.256,8.256,8.256,8.256,8.198,8.198,8.198,8.141,8.084,8.028,8.028,7.973,7.919,7.866,7.813,7.761,7.709,7.559,7.368,6.971,6.729,6.54,6.327,5.735,5.597,5.517,5.44,5.389,5.389,5.389,5.389,5.389,5.389,5.389,5.34,5.316,5.268,5.268,5.244,5.22,5.174,5.151,5.151,5.174,5.22,5.22,5.244,5.316,5.316,5.34,5.389,5.415,5.44,5.465,5.44,5.415,5.415,5.389,5.34,5.316,5.268,5.268,5.244,5.244,5.244,5.244,5.174,5.151,5.106,5.084,5.018,4.975,4.933,4.912,4.891,4.871,4.851,4.81,4.752,4.713,4.638,4.565,4.512,4.46,4.393,4.36,4.328,4.249,4.203,4.114,3.987,3.906,3.868,3.829,3.804,3.792,3.767,3.755,3.743,3.731,3.696,3.672,3.661,3.627,3.615,3.582,3.538,3.496,3.485,3.465,3.454,3.414,3.384,3.365,3.355,3.336,3.336,0.0,0.0,0.0,0.0,0.0,0.0,0.0,2.4235,0.0,0.0,0.0,1.595,1.593,1.593,1.593,1.593,1.593,1.595,1.595,1.599,1.599,1.595,1.599,1.601,1.601,1.601,1.601,1.599,1.599,1.599,1.599,1.601,1.601,1.601,1.599,1.595,1.599,1.593,1.58125,1.58,1.567,1.554,1.552,1.548,1.542,1.538,1.532,1.518,1.506,1.494,1.489,1.483,1.466,1.452,1.441,1.434,1.43275,1.427,1.422,1.4195,1.421,1.42,0.0,0.0,0.0,0.0,0.0,0.0,0.0,0.0,0.0,0.0,0.0,0.0,0.0,0.0,0.0,0.0,0.0,0.0,0.0,0.0,0.0,0.0,0.0,0.0,0.0,0.0
5.651,5.624,5.624,5.597,5.597,5.597,5.597,5.597,5.597,5.597,5.597,5.597,5.624,5.624,5.624,5.651,5.651,5.651,5.651,5.651,5.624,5.624,5.597,5.597,5.57,5.57,5.543,5.543,5.517,5.491,5.465,5.465,5.465,5.465,5.465,5.465,5.491,5.491,5.517,5.543,5.543,5.57,5.57,5.597,5.597,5.597,5.597,5.597,5.597,5.624,5.624,5.597,5.597,5.597,5.57,5.57,5.543,5.543,5.517,5.491,5.465,5.44,5.44,5.415,5.415,5.415,5.415,5.465,5.491,5.517,5.543,5.543,5.57,5.57,5.597,5.597,5.624,5.651,5.651,5.707,5.792,5.8965,6.001,6.2705,6.54,6.69,6.888,7.231,7.559,7.761,7.813,7.919,7.973,7.973,8.028,8.028,8.084,8.084,8.141,8.198,8.256,8.346,8.436,9.024,9.313,9.507000000000001,9.701,9.95,10.212,10.212,10.394,10.583,10.583,10.442499999999999,10.302,0.0,0.0,0.0,10.302,10.302,10.394,10.488,10.583,10.68,10.68,10.88,11.194,11.36,11.526,11.879,12.384,12.518,12.935,13.381,13.536,13.696,13.696,13.859,13.859,13.859,13.859,13.859,13.859,13.859,13.859,13.859,13.859,13.859,13.859,13.696,13.696,13.536,13.536,13.536,13.536,13.536,13.536,13.696,13.696,13.696,13.696,13.696,13.696,13.696,13.536,13.381,13.381,13.229,12.935,12.793,12.518,12.384,12.254,12.254,12.001,12.001,11.879,11.641,11.641,11.641,11.641,11.641,11.641,11.879,12.001,12.254,12.384,12.518,12.518,12.793,12.793,12.935,12.935,12.935,12.935,12.935,12.935,12.935,12.935,12.935,12.935,12.935,12.935,12.935,12.793,12.793,12.793,12.793,12.518,12.384,12.254,12.001,12.001,12.001,11.879,11.641,0.0,0.0,0.0,0.0,0.0,0.0,0.0,0.0,0.0,0.0,0.0,0.0,0.0,0.0,0.0,0.0,12.254,12.384,12.384,12.518,12.793,12.935,13.229,13.229,13.381,13.536,13.696,13.696,13.859,13.696,13.696,13.696,13.696,13.696,13.696,13.696,13.859,13.696,13.859,14.026,14.026,14.026,14.197,14.197,14.197,14.197,14.197,14.197,14.197,14.197,14.026,14.026,13.859,13.696,13.381,12.935,12.793,12.518,12.518,12.254,12.254,12.001,12.001,12.254,12.254,12.254,12.384,12.384,12.518,12.518,12.793,12.518,12.518,12.384,12.384,12.384,12.384,12.518,12.384,12.254,12.384,12.384,12.254,12.254,12.001,12.001,12.001,12.001,12.254,12.254,12.384,12.384,12.254,12.254,12.001,12.001,12.001,11.879,11.879,11.879,12.131499999999999,12.384,12.518,12.793,12.793,13.229,13.229,13.229,13.381,13.381,13.229,13.229,13.229,13.229,12.935,12.793,12.518,12.384,12.254,11.879,11.641,11.302,11.194,10.982,10.779,10.68,10.583,10.394,10.302,10.212,9.95,9.783,9.464,9.024,8.753,8.623,8.497,8.436,8.375,8.315,8.256,8.256,8.256,8.256,8.256,8.198,8.198,8.198,8.141,8.084,8.084,8.028,7.973,7.919,7.866,7.813,7.709,7.659,7.559,7.415,7.368,7.186,6.888,6.69,6.54,6.259,5.735,5.624,5.543,5.44,5.389,5.389,5.389,5.389,5.389,5.389,5.389,5.34,5.316,5.316,5.268,5.244,5.244,5.22,5.174,5.174,5.22,5.22,5.244,5.268,5.268,5.316,5.316,5.389,5.389,5.415,5.415,5.415,5.389,5.34,5.34,5.316,5.268,5.244,5.244,5.244,5.244,5.244,5.22,5.174,5.151,5.106,5.04,5.018,4.975,4.933,4.912,4.871,4.851,4.83,4.81,4.752,4.694,4.638,4.565,4.512,4.46,4.393,4.36,4.328,4.249,4.173,4.07,3.973,3.88,3.855,3.817,3.78,3.731,3.707,3.696,3.672,3.661,3.661,3.649,3.627,3.6155,3.615,3.56,3.528,3.496,3.485,3.465,0.0,0.0,0.0,0.0,0.0,0.0,0.0,0.0,0.0,0.0,0.0,0.0,0.0,0.0,1.586,1.586,1.586,1.588,1.588,1.588,1.588,1.588,1.588,1.588,1.588,1.588,1.593,1.593,1.595,1.595,1.595,1.599,1.595,1.595,1.595,1.593,1.588,1.586,1.586,1.58,1.577,1.565,1.56,1.556,1.554,1.544,1.538,1.528,1.52,1.52,1.508,1.496,1.491,0.0,1.4785,1.4726249999999999,1.472,1.446,1.437,1.436,1.427,1.423,1.416,1.409,1.403,1.396,1.392,1.391,0.0,0.0,0.0,0.0,0.0,0.0,0.0,0.0,0.0,0.0,0.0,0.0,0.0,0.0,0.0,0.0,0.0,0.0,0.0,0.0,0.0,0.0,0.0,0.0,0.0,0.0,0.0
5.624,5.624,5.597,5.597,5.597,5.597,5.597,5.597,5.597,5.597,5.597,5.597,5.624,5.624,5.624,5.624,5.651,5.651,5.651,5.651,5.624,5.597,5.597,5.597,5.57,5.57,5.543,5.543,5.543,5.517,5.517,5.491,5.491,5.465,5.465,5.491,5.491,5.517,5.517,5.543,5.543,5.543,5.543,5.57,5.57,5.57,5.57,5.597,5.597,5.597,5.597,5.597,5.597,5.57,5.57,5.543,5.543,5.543,5.517,5.491,5.465,5.44,5.44,5.415,5.415,5.415,5.44,5.465,5.491,5.517,5.543,5.543,5.57,5.57,5.597,5.624,5.651,5.651,5.679,5.735,5.85,5.9725,6.095,6.361,6.54,6.652,6.808,7.098,7.368,7.511,7.659,7.761,7.813,7.866,7.919,7.973,7.973,7.973,8.028,8.084,8.141,8.228,8.315,8.819,9.239,9.47,9.701,10.036,10.212,10.302,10.488,10.583,10.68,10.51275,10.395,0.0,0.0,0.0,10.302,10.302,10.394,10.394,10.583,10.583,10.68,10.982,11.194,11.4175,11.641,12.001,12.384,12.793,13.229,13.381,13.536,13.696,13.696,13.859,13.859,13.859,13.859,13.859,13.859,13.859,13.859,13.859,13.859,13.859,13.696,13.696,13.536,13.536,13.381,13.381,13.381,13.536,13.536,13.536,13.536,13.536,13.696,13.696,13.536,13.536,13.381,13.381,13.229,12.935,12.793,12.518,12.518,12.384,12.254,12.254,12.254,12.001,12.001,11.879,11.641,11.641,11.641,11.641,11.641,11.879,11.879,12.001,12.254,12.254,12.384,12.384,12.518,12.518,12.518,12.793,12.793,12.793,12.935,12.935,12.935,12.935,12.935,12.935,12.935,12.935,12.935,12.935,12.935,12.935,12.793,12.518,12.254,12.254,12.001,11.879,11.879,11.641,0.0,0.0,0.0,0.0,0.0,0.0,0.0,0.0,0.0,0.0,0.0,0.0,0.0,0.0,0.0,0.0,12.001,12.254,12.384,12.518,12.793,12.935,13.229,13.381,13.536,13.696,13.696,13.859,13.859,13.859,13.859,13.859,13.696,13.696,13.696,13.696,13.696,13.859,14.026,14.026,14.197,14.372,14.372,14.372,14.552,14.552,14.552,14.552,14.552,14.552,14.552,14.372,14.372,14.197,13.859,13.536,13.381,13.229,12.935,12.793,12.518,12.518,12.518,12.793,12.935,12.935,12.935,12.935,13.229,13.381,13.381,13.381,13.229,12.935,12.935,12.793,12.518,12.793,12.384,12.384,12.384,12.384,12.254,12.254,12.001,12.001,12.001,12.001,12.001,12.254,12.254,12.254,12.254,12.254,12.001,11.879,11.879,11.641,11.641,11.641,11.976374999999999,12.254,12.384,12.518,12.935,12.935,13.229,13.381,13.381,13.536,13.381,13.381,13.381,13.381,12.935,12.793,12.518,12.384,12.254,11.879,11.526,11.194,11.087,10.88,10.68,10.68,10.488,10.394,10.212,10.036,9.783,9.464,9.024,8.819,8.623,8.497,8.436,8.375,8.315,8.256,8.256,8.256,8.198,8.198,8.198,8.198,8.198,8.141,8.084,8.028,8.028,7.973,7.919,7.761,7.709,7.559,7.511,7.368,7.322,7.231,7.186,7.098,6.848,6.652,6.504,6.259,5.735,5.624,5.517,5.44,5.415,5.389,5.389,5.415,5.389,5.389,5.389,5.34,5.34,5.316,5.316,5.268,5.268,5.244,5.22,5.22,5.244,5.244,5.244,5.244,5.268,5.316,5.316,5.34,5.34,5.389,5.389,5.34,5.34,5.316,5.268,5.268,5.244,5.22,5.22,5.22,5.22,5.22,5.22,5.174,5.151,5.084,5.04,4.996,4.975,4.933,4.912,4.871,4.851,4.83,4.791,4.732,4.694,4.638,4.565,4.512,4.46,4.393,4.36,4.312,4.233,4.158,4.028,3.933,3.868,3.829,3.804,3.755,3.672,3.661,3.661,3.627,3.627,3.61,3.593,3.593,3.593,3.593,3.56,3.528,0.0,0.0,0.0,0.0,0.0,0.0,0.0,0.0,0.0,0.0,0.0,0.0,0.0,0.0,1.593,1.5895000000000001,1.586,1.586,1.586,1.584,1.586,1.586,1.588,1.586,1.584,1.586,1.584,1.586,1.586,1.586,1.586,1.586,1.588,1.586,1.586,1.586,1.584,1.58,1.577,1.573,1.565,1.56,1.554,1.552,1.54,1.534,1.5225,1.515375,1.502,1.494,1.491,1.485,1.4815,1.471,1.4652500000000002,1.464,1.4515,1.439,1.434,1.428,1.423,1.41625,1.414,1.404,1.398,1.381,1.379,1.378,1.376,1.374,1.374,0.0,0.0,0.0,0.0,0.0,0.0,0.0,0.0,0.0,0.0,0.0,0.0,0.0,0.0,0.0,0.0,0.0,0.0,0.0,0.0,0.0,0.0,0.0,0.0,0.0,0.0,0.0
5.624,5.624,5.597,5.597,5.597,5.597,5.597,5.597,5.597,5.597,5.597,5.597,5.597,5.597,5.597,5.624,5.624,5.624,5.651,5.624,5.624,5.597,5.597,5.597,5.57,5.57,5.543,5.543,5.543,5.517,5.517,5.517,5.491,5.491,5.491,5.491,5.491,5.491,5.491,5.491,5.491,5.517,5.517,5.517,5.543,5.543,5.543,5.543,5.57,5.57,5.57,5.57,5.57,5.57,5.57,5.543,5.543,5.543,5.517,5.491,5.465,5.44,5.415,5.415,5.415,5.415,5.44,5.465,5.491,5.517,5.543,5.543,5.57,5.57,5.597,5.624,5.651,5.651,5.707,5.763,5.909,5.9868749999999995,6.127,6.361,6.54,6.652,6.768,6.971,7.231,7.322,7.511,7.559,7.659,7.709,7.761,7.813,7.919,7.919,7.973,8.028,8.084,8.1845,8.315,8.781500000000001,9.239,9.54825,9.783,10.123,10.302,10.394,10.583,10.68,10.68,10.583,10.488,10.302,10.302,10.302,10.302,10.302,10.394,10.394,10.583,10.68,10.68,10.982,11.302,11.471499999999999,11.641,12.001,12.384,12.793,13.229,13.536,13.536,13.696,13.859,13.859,13.859,13.859,13.859,13.859,13.859,14.026,13.859,13.859,13.859,13.696,13.696,13.536,13.536,13.229,13.229,13.229,13.229,13.229,13.229,13.229,13.229,13.381,13.381,13.381,13.381,13.229,13.229,13.229,12.935,12.793,12.793,12.518,12.518,12.518,12.518,12.384,12.384,12.254,12.254,12.254,12.001,12.001,12.001,11.879,11.879,11.879,11.879,11.879,12.001,12.001,12.001,12.254,12.384,12.384,12.384,12.518,12.518,12.793,12.793,12.935,12.935,13.229,13.229,13.229,13.229,13.229,13.229,12.935,12.935,12.935,12.793,12.518,12.384,12.001,12.001,12.001,11.879,11.641,11.526,0.0,0.0,0.0,0.0,0.0,0.0,0.0,0.0,0.0,0.0,0.0,0.0,0.0,0.0,0.0,12.001,12.001,12.384,12.518,12.793,12.935,13.229,13.381,13.536,13.696,13.859,13.859,13.859,13.859,13.859,13.859,13.859,13.859,13.859,13.859,13.859,14.026,14.197,14.197,14.372,14.552,14.552,14.925,14.925,14.925,15.119,15.119,14.925,14.925,14.925,14.925,14.552,14.372,14.197,14.026,13.859,13.696,13.536,13.381,13.229,12.935,12.935,13.229,13.381,13.381,13.536,13.536,13.696,13.859,13.859,13.859,13.859,13.536,13.381,13.229,12.935,12.793,12.518,12.384,12.384,12.384,12.254,12.254,12.254,12.001,11.879,12.001,12.001,12.001,12.001,12.001,12.001,11.879,11.641,11.641,11.641,11.526,11.526,11.526,11.879,12.097,12.254,12.384,12.793,12.935,13.229,13.229,13.381,13.536,13.536,13.381,13.381,13.381,12.935,12.793,12.518,12.254,12.001,11.641,11.302,11.194,10.982,10.779,10.68,10.583,10.394,10.302,10.212,9.95,9.701,9.313,8.819,8.623,8.497,8.436,8.375,8.315,8.256,8.256,8.256,8.198,8.198,8.198,8.198,8.141,8.084,8.028,8.028,7.973,7.919,7.813,7.761,7.659,7.415,7.322,7.231,7.186,7.055,7.055,6.971,6.929,6.729,6.614,6.467,6.225,5.735,5.624,5.517,5.44,5.415,5.389,5.389,5.415,5.389,5.389,5.389,5.389,5.34,5.34,5.34,5.316,5.316,5.268,5.244,5.244,5.268,5.268,5.268,5.268,5.268,5.268,5.268,5.316,5.316,5.316,5.316,5.316,5.268,5.268,5.244,5.244,5.22,5.22,5.174,5.174,5.22,5.22,5.22,5.174,5.106,5.084,5.018,4.996,4.954,4.912,4.891,4.851,4.83,4.81,4.771,4.732,4.694,4.601,4.565,4.512,4.46,4.393,4.344,4.312,4.218,4.114,4.014,3.906,3.868,3.817,3.792,3.696,3.649,3.627,3.615,3.593,3.582,0.0,0.0,3.56,3.56,3.593,3.56,0.0,0.0,0.0,0.0,0.0,0.0,0.0,0.0,0.0,0.0,0.0,0.0,0.0,1.603,1.599,1.593,1.586,1.577,1.577,1.573,1.58,1.58,1.58,1.584,1.584,1.58,1.584,1.584,1.584,1.584,1.584,1.58,1.58,1.584,1.58,1.577,1.573,1.571,1.567,1.563,1.556,1.552,1.548,1.534,1.514,1.5115,1.502875,1.489,1.483,1.479,1.472,1.461,1.453,1.443,1.434,1.43,1.427,1.423,1.42,1.41125,1.403,1.398,1.391,1.378,1.376,1.374,1.371,1.37,1.37,1.37,1.366,1.366,0.0,0.0,0.0,0.0,0.0,0.0,0.0,0.0,0.0,0.0,0.0,0.0,0.0,0.0,0.0,0.0,0.0,0.0,0.0,0.0,0.0,0.0,0.0,0.0,0.0,0.0,0.0
5.624,5.624,5.597,5.597,5.597,5.597,5.597,5.597,5.597,5.597,5.597,5.597,5.597,5.597,5.597,5.597,5.597,5.597,5.597,5.597,5.597,5.597,5.57,5.57,5.57,5.543,5.543,5.543,5.517,5.517,5.517,5.491,5.491,5.491,5.491,5.491,5.491,5.465,5.465,5.44,5.44,5.465,5.465,5.465,5.465,5.491,5.517,5.517,5.543,5.543,5.543,5.543,5.57,5.543,5.543,5.543,5.517,5.517,5.491,5.491,5.465,5.44,5.415,5.415,5.415,5.415,5.44,5.465,5.491,5.517,5.543,5.543,5.57,5.57,5.597,5.624,5.651,5.679,5.679,5.792,5.8655,5.939,6.127,6.361,6.54,6.614,6.729,6.929,7.098,7.231,7.368,7.511,7.559,7.659,7.709,7.761,7.813,7.813,7.919,7.973,8.084,8.141,8.315,8.753,9.239,9.701,9.82575,10.036,10.302,10.394,10.583,10.68,10.68,10.583,10.394,10.394,10.394,10.302,10.394,10.394,10.394,10.488,10.583,10.68,10.779,10.982,11.302,11.590499999999999,11.879,12.254,12.518,12.935,13.381,13.536,13.696,13.696,13.859,13.859,13.859,14.026,14.026,14.026,14.026,14.026,14.026,13.859,13.696,13.696,13.696,13.536,13.381,12.935,12.793,12.793,12.793,12.793,12.793,12.793,12.935,12.935,12.935,12.935,12.935,12.793,12.793,12.793,12.793,12.793,12.518,12.518,12.793,12.793,12.793,12.793,12.793,12.793,12.793,12.518,12.384,12.384,12.254,12.254,12.001,11.879,11.879,11.879,11.879,11.879,11.879,11.879,11.879,12.001,12.254,12.384,12.384,12.518,12.793,12.935,12.935,13.229,13.229,13.381,13.381,13.229,13.229,13.229,13.229,12.935,12.793,12.384,12.254,12.001,12.001,11.879,11.879,11.641,11.526,11.526,11.5835,11.641,0.0,0.0,0.0,0.0,0.0,0.0,0.0,0.0,0.0,0.0,0.0,0.0,12.001,12.254,12.254,12.518,12.518,12.793,12.935,13.381,13.536,13.696,13.859,13.859,14.026,13.859,13.859,13.859,13.859,13.859,13.859,13.859,14.026,14.026,14.197,14.372,14.372,14.736,14.925,15.119,15.119,15.317,15.317,15.317,15.317,15.119,15.119,15.119,14.925,14.552,14.372,14.372,14.197,14.197,14.026,13.696,13.536,13.536,13.536,13.696,13.696,13.536,13.696,14.026,14.197,14.197,14.372,14.197,14.197,14.026,13.859,13.381,13.229,12.935,12.518,12.518,12.384,12.384,12.254,12.254,12.001,12.001,11.879,11.879,11.641,11.879,11.879,11.879,11.641,11.641,11.526,11.526,11.526,11.302,11.302,11.302,11.641,12.001,12.192499999999999,12.384,12.793,12.935,13.229,13.381,13.536,13.696,13.536,13.536,13.381,13.381,12.935,12.793,12.518,12.254,12.001,11.641,11.302,11.087,10.88,10.68,10.583,10.488,10.394,10.302,10.123,9.865,9.542,8.955,8.753,8.56,8.497,8.436,8.315,8.315,8.256,8.256,8.256,8.198,8.198,8.198,8.141,8.084,8.028,8.028,7.973,7.919,7.813,7.709,7.559,7.415,7.186,7.098,7.055,6.971,6.888,6.888,6.888,6.848,6.69,6.577,6.396,6.127,5.707,5.597,5.517,5.44,5.415,5.389,5.389,5.389,5.389,5.389,5.389,5.389,5.34,5.34,5.34,5.34,5.316,5.316,5.268,5.268,5.268,5.316,5.268,5.268,5.268,5.244,5.244,5.268,5.268,5.268,5.268,5.244,5.22,5.22,5.22,5.22,5.174,5.174,5.174,5.174,5.22,5.174,5.174,5.151,5.106,5.084,5.018,4.975,4.933,4.912,4.851,4.83,4.83,4.81,4.771,4.713,4.657,4.583,4.53,4.512,4.46,4.393,4.344,4.312,4.203,4.114,3.987,3.893,3.855,3.817,3.78,3.672,3.627,3.593,3.593,3.56,3.549,0.0,0.0,0.0,0.0,0.0,0.0,0.0,0.0,0.0,0.0,0.0,0.0,1.626,1.626,1.624,1.624,1.617,1.612,1.61,1.603,1.599,1.593,1.588,1.577,1.571,1.567,1.565,1.567,1.567,1.567,1.567,1.567,1.567,1.571,1.571,1.571,1.573,1.573,1.573,1.573,1.571,1.567,1.563,1.56,1.556,1.554,1.55,1.544,1.52,1.502,1.489,1.483,1.477,1.4627500000000002,1.448,1.441,1.437,1.432,1.432,1.427,1.423,1.42,1.413,1.404,1.398,1.388,1.378,1.376,1.373,1.371,1.37,1.366,1.362,1.36,1.357,1.357,1.355,1.355,0.0,0.0,0.0,0.0,0.0,0.0,0.0,0.0,0.0,0.0,0.0,0.0,0.0,0.0,0.0,0.0,0.0,0.0,0.0,0.0,0.0,0.0,0.0,0.0,0.0,0.0,0.0
5.597,5.597,5.597,5.597,5.597,5.597,5.597,5.597,5.597,5.597,5.597,5.597,5.597,5.597,5.597,5.597,5.597,5.597,5.597,5.597,5.57,5.57,5.543,5.543,5.543,5.543,5.517,5.491,5.491,5.491,5.517,5.491,5.491,5.491,5.465,5.465,5.465,5.44,5.415,5.415,5.389,5.389,5.389,5.389,5.415,5.415,5.465,5.465,5.491,5.517,5.543,5.543,5.543,5.543,5.543,5.543,5.517,5.517,5.491,5.491,5.465,5.44,5.44,5.415,5.415,5.415,5.44,5.465,5.491,5.517,5.543,5.543,5.57,5.57,5.597,5.597,5.651,5.679,5.679,5.792,5.8655,5.939,6.127,6.361,6.504,6.614,6.69,6.848,6.971,7.098,7.231,7.368,7.415,7.511,7.559,7.659,7.709,7.761,7.866,7.973,8.028,8.141,8.256,8.753,9.239,9.56625,9.783,10.123,10.302,10.394,10.583,10.68,10.68,10.68,10.583,10.488,10.394,10.394,10.394,10.394,10.394,10.488,10.583,10.68,10.779,11.087,11.302,11.590499999999999,11.879,12.001,12.518,12.935,13.381,13.536,13.696,13.859,14.026,14.026,14.026,14.026,14.026,14.026,14.026,14.026,13.859,13.859,13.696,13.536,13.536,13.381,12.935,12.793,12.518,12.518,12.518,12.518,12.518,12.518,12.518,12.518,12.518,12.518,12.518,12.518,12.518,12.518,12.518,12.518,12.518,12.518,12.793,12.793,12.935,13.229,13.229,13.229,12.935,12.935,12.793,12.793,12.384,12.254,12.001,11.879,11.641,11.641,11.526,11.302,11.302,11.526,11.526,11.641,11.641,12.001,12.001,12.254,12.518,12.793,12.935,13.229,13.229,13.381,13.381,13.229,13.229,13.229,12.935,12.793,12.518,12.384,12.254,12.001,12.001,11.879,11.641,11.526,11.526,11.302,11.641,11.641,0.0,0.0,0.0,0.0,0.0,0.0,0.0,0.0,0.0,0.0,0.0,0.0,12.001,12.001,12.254,12.384,12.384,12.518,12.793,12.935,13.229,13.536,13.696,13.859,13.859,13.859,13.859,13.859,13.859,13.859,13.859,13.859,14.026,14.197,14.197,14.372,14.552,14.925,15.119,15.119,15.522,15.522,15.731,15.731,15.731,15.522,15.317,15.119,15.119,14.925,14.736,14.552,14.372,14.372,14.197,14.026,14.026,13.859,13.696,13.859,13.859,13.859,14.197,14.197,14.372,14.372,14.372,14.372,14.372,14.372,14.197,13.696,13.536,13.229,12.935,12.518,12.384,12.254,12.254,12.254,12.001,11.879,11.879,11.641,11.641,11.641,11.641,11.641,11.526,11.526,11.302,11.302,11.302,11.194,11.194,11.194,11.526,12.001,12.192499999999999,12.384,12.793,12.935,13.381,13.381,13.696,13.696,13.696,13.696,13.536,13.381,13.229,12.793,12.518,12.254,11.879,11.526,11.194,10.982,10.779,10.68,10.583,10.488,10.302,10.212,10.036,9.865,9.464,8.819,8.753,8.56,8.436,8.375,8.315,8.315,8.256,8.256,8.256,8.198,8.198,8.198,8.141,8.084,8.028,7.973,7.973,7.866,7.761,7.559,7.415,7.098,6.971,6.971,6.888,6.888,6.808,6.808,6.768,6.768,6.652,6.54,6.361,6.095,5.679,5.597,5.517,5.44,5.389,5.389,5.389,5.389,5.389,5.389,5.389,5.389,5.34,5.34,5.34,5.34,5.34,5.316,5.316,5.268,5.316,5.316,5.268,5.268,5.268,5.244,5.244,5.244,5.22,5.22,5.22,5.22,5.22,5.174,5.174,5.174,5.151,5.151,5.174,5.174,5.174,5.174,5.174,5.151,5.106,5.04,4.996,4.954,4.912,4.891,4.83,4.83,4.81,4.791,4.752,4.694,4.638,4.583,4.53,4.477,4.426,4.376,4.328,4.249,4.173,4.07,3.973,3.88,3.842,3.817,3.767,3.661,3.615,3.593,3.56,3.538,3.517,0.0,0.0,0.0,0.0,0.0,0.0,0.0,0.0,0.0,1.617,1.617,1.619,1.619,1.621,1.6195,1.621,1.615,1.612,1.61,1.603,1.599,1.593,1.577,1.567,1.565,1.563,1.558,1.558,1.558,1.556,1.558,1.558,1.56,1.56,1.563,1.563,1.56,1.558,1.556,1.556,1.554,1.552,1.55,1.546,1.544,1.528,1.508,1.492,1.498,1.489,1.479,1.47,1.457,1.437,1.432,1.428,1.427,1.425,1.423,1.416,1.408,1.401,1.391,1.384,1.379,1.373,1.371,1.37,1.368,1.365,1.362,1.36,1.357,1.355,1.355,1.355,1.35,1.352,0.0,0.0,0.0,0.0,0.0,0.0,0.0,0.0,0.0,0.0,0.0,0.0,0.0,0.0,0.0,0.0,0.0,0.0,0.0,0.0,0.0,0.0,0.0,0.0,0.0,0.0,0.0
5.597,5.597,5.597,5.597,5.597,5.597,5.597,5.597,5.597,5.597,5.597,5.597,5.597,5.597,5.597,5.57,5.57,5.57,5.57,5.57,5.543,5.543,5.543,5.543,5.517,5.491,5.491,5.44,5.465,5.465,5.44,5.44,5.44,5.415,5.415,5.415,5.415,5.389,5.316,5.316,5.268,5.268,5.268,5.316,5.316,5.34,5.389,5.415,5.44,5.465,5.491,5.517,5.517,5.517,5.517,5.517,5.517,5.491,5.491,5.465,5.465,5.44,5.44,5.44,5.415,5.44,5.44,5.465,5.491,5.517,5.543,5.543,5.57,5.57,5.597,5.597,5.651,5.679,5.707,5.792,5.8655,5.939,6.159,6.361,6.504,6.577,6.69,6.768,6.929,7.055,7.098,7.231,7.322,7.368,7.415,7.511,7.559,7.709,7.761,7.919,7.973,8.084,8.256,8.56,9.166,9.542,9.786,10.036,10.302,10.394,10.583,10.68,10.68,10.68,10.583,10.488,10.488,10.394,10.394,10.394,10.394,10.488,10.583,10.68,10.88,11.087,11.302,11.590499999999999,11.879,12.254,12.518,12.935,13.381,13.536,13.696,13.859,14.026,14.026,14.026,14.026,14.026,14.026,14.026,14.026,13.859,13.859,13.696,13.536,13.381,12.935,12.793,12.518,12.384,12.384,12.254,12.254,12.254,12.254,12.254,12.254,12.254,12.254,12.254,12.254,12.254,12.254,12.254,12.384,12.384,12.518,12.793,12.793,13.229,13.229,13.381,13.381,13.381,13.381,13.229,12.935,12.793,12.384,12.001,11.879,11.526,11.302,11.194,11.087,11.087,11.087,11.194,11.194,11.526,11.641,11.879,12.001,12.254,12.518,12.793,12.935,13.229,13.229,13.381,13.381,13.229,13.229,12.935,12.793,12.518,12.254,12.001,12.001,11.879,11.641,11.641,11.526,11.526,11.302,11.641,11.641,0.0,0.0,0.0,0.0,0.0,0.0,0.0,0.0,0.0,0.0,0.0,12.001,11.879,11.879,12.001,12.254,12.254,12.384,12.518,12.793,12.935,13.229,13.381,13.536,13.536,13.696,13.696,13.696,13.696,13.859,13.859,13.859,14.026,14.197,14.372,14.552,14.552,14.925,15.119,15.317,15.522,15.731,15.731,15.731,15.731,15.731,15.522,15.317,15.119,14.925,14.925,14.552,14.552,14.372,14.197,14.197,14.026,14.026,13.859,13.859,14.026,14.026,14.197,14.197,14.372,14.372,14.552,14.552,14.372,14.372,14.197,13.696,13.381,13.229,12.793,12.518,12.384,12.001,11.879,11.879,11.879,11.641,11.641,11.526,11.526,11.526,11.526,11.526,11.302,11.302,11.302,11.194,11.194,11.087,11.087,11.087,11.526,11.879,12.131499999999999,12.384,12.793,13.229,13.229,13.381,13.536,13.859,13.859,13.696,13.536,13.536,13.381,12.793,12.384,12.254,11.879,11.526,11.194,10.982,10.779,10.68,10.583,10.394,10.302,10.212,10.036,9.783,9.464,8.819,8.753,8.56,8.436,8.375,8.315,8.256,8.256,8.256,8.256,8.198,8.198,8.141,8.084,8.084,8.028,7.973,7.919,7.813,7.709,7.511,7.368,7.055,6.929,6.888,6.848,6.808,6.729,6.729,6.729,6.729,6.614,6.504,6.327,5.97325,5.679,5.57,5.491,5.44,5.389,5.389,5.389,5.34,5.34,5.389,5.389,5.389,5.34,5.34,5.34,5.34,5.34,5.34,5.316,5.316,5.316,5.316,5.268,5.268,5.268,5.22,5.22,5.22,5.22,5.22,5.174,5.174,5.151,5.151,5.151,5.151,5.106,5.106,5.151,5.151,5.151,5.174,5.151,5.106,5.084,5.018,4.975,4.933,4.912,4.871,4.83,4.81,4.771,4.752,4.713,4.657,4.601,4.565,4.512,4.46,4.41,4.36,4.312,4.218,4.128,4.028,3.933,3.868,3.829,3.804,3.767,3.661,3.615,3.582,3.549,3.517,3.496,3.475,0.0,0.0,0.0,0.0,0.0,0.0,1.595,1.601,1.606,1.606,1.608,1.61,1.612,1.612,1.612,1.612,1.61,1.606,1.601,1.595,1.588,1.573,1.565,1.56,1.556,1.554,1.552,1.552,1.552,1.552,1.552,1.552,1.554,1.554,1.554,1.554,1.554,1.552,1.552,1.55,1.548,1.544,1.54,1.522,1.512,1.494,1.485,1.474,1.459,1.435,1.43,1.427,1.423,1.421,1.416,1.414,1.409,1.404,1.396,1.391,1.384,1.379,1.374,1.371,1.37,1.368,1.365,1.362,1.357,1.355,1.355,1.352,1.352,1.352,1.35,1.35,1.35,0.0,0.0,0.0,0.0,0.0,0.0,0.0,0.0,0.0,0.0,0.0,0.0,0.0,0.0,0.0,0.0,0.0,0.0,0.0,0.0,0.0,0.0,0.0,0.0,0.0,0.0,0.0
5.597,5.597,5.597,5.597,5.597,5.597,5.597,5.597,5.597,5.597,5.597,5.597,5.597,5.57,5.57,5.57,5.543,5.543,5.543,5.543,5.543,5.517,5.491,5.491,5.491,5.465,5.415,5.415,5.389,5.415,5.415,5.389,5.389,5.389,5.34,5.34,5.316,5.268,5.244,5.22,5.22,5.174,5.174,5.22,5.22,5.244,5.316,5.34,5.389,5.415,5.44,5.465,5.491,5.491,5.491,5.491,5.491,5.491,5.491,5.491,5.465,5.44,5.44,5.415,5.415,5.44,5.44,5.465,5.491,5.517,5.543,5.543,5.57,5.57,5.597,5.597,5.651,5.679,5.735,5.821,5.906625000000001,6.001,6.159,6.361,6.504,6.577,6.652,6.729,6.848,6.929,7.055,7.098,7.186,7.231,7.322,7.368,7.415,7.511,7.559,7.659,7.813,7.973,8.084,8.256,8.623,9.166,9.783,9.953499999999998,10.212,10.394,10.583,10.68,10.68,10.68,10.583,10.488,10.488,10.394,10.394,10.394,10.394,10.583,10.583,10.68,10.88,11.087,11.302,11.590499999999999,11.879,12.254,12.518,12.935,13.381,13.536,13.696,13.859,14.026,14.026,14.026,14.026,14.026,14.026,14.026,14.026,13.859,13.859,13.696,13.536,13.381,12.935,12.793,12.518,12.254,12.254,12.001,12.001,12.001,12.001,12.001,12.001,12.001,12.001,11.879,12.001,11.879,11.879,12.001,12.001,12.254,12.384,12.518,12.793,12.935,13.381,13.381,13.536,13.536,13.536,13.381,13.229,12.793,12.518,12.254,11.879,11.526,11.194,11.087,10.88,10.88,10.88,10.982,10.982,11.194,11.194,11.526,11.641,12.001,12.384,12.518,12.793,12.935,13.229,13.229,13.229,12.935,12.935,12.793,12.518,12.384,12.254,11.879,11.879,11.641,11.641,11.526,11.526,11.302,11.302,11.526,11.526,11.641,0.0,0.0,0.0,0.0,0.0,0.0,0.0,0.0,0.0,0.0,11.879,11.879,11.641,11.879,11.879,12.001,12.001,12.254,12.384,12.518,12.793,12.935,13.229,13.229,13.381,13.536,13.536,13.696,13.696,13.696,13.859,14.026,14.197,14.372,14.552,14.552,14.925,15.119,15.119,15.522,15.731,15.731,15.731,15.731,15.522,15.317,15.119,15.119,14.925,14.736,14.552,14.372,14.197,14.197,14.026,14.026,13.859,13.859,13.859,13.859,14.026,14.197,14.197,14.372,14.372,14.552,14.552,14.372,14.372,14.197,13.536,13.229,12.793,12.384,12.001,11.879,11.879,11.641,11.526,11.526,11.526,11.194,11.087,11.194,11.194,11.194,11.087,11.087,11.087,11.087,11.087,11.087,11.087,11.087,10.982,11.302,11.641,12.0125,12.384,12.793,12.935,13.229,13.381,13.536,13.696,13.696,13.696,13.536,13.381,12.935,12.793,12.384,12.001,11.641,11.302,11.087,10.88,10.68,10.583,10.394,10.302,10.302,10.123,9.95,9.701,9.313,8.819,8.753,8.497,8.436,8.375,8.315,8.256,8.256,8.256,8.256,8.198,8.198,8.141,8.084,8.084,8.028,7.973,7.919,7.813,7.659,7.511,7.368,7.055,6.929,6.888,6.808,6.768,6.729,6.729,6.69,6.69,6.614,6.467,6.259,5.792,5.679,5.57,5.491,5.415,5.389,5.34,5.34,5.34,5.34,5.34,5.34,5.34,5.34,5.34,5.34,5.34,5.34,5.34,5.316,5.316,5.316,5.316,5.268,5.268,5.244,5.22,5.174,5.174,5.174,5.151,5.151,5.151,5.151,5.106,5.106,5.106,5.106,5.106,5.106,5.151,5.151,5.151,5.151,5.084,5.04,4.996,4.954,4.912,4.891,4.851,4.81,4.771,4.732,4.694,4.638,4.601,4.565,4.477,4.426,4.393,4.36,4.328,4.28,4.188,4.085,3.987,3.92,3.855,3.829,3.804,3.755,3.661,3.627,3.593,3.56,3.538,0.0,0.0,0.0,0.0,0.0,0.0,0.0,1.599,1.603,1.606,1.608,1.608,1.61,1.612,1.612,1.612,1.612,1.612,1.61,1.608,1.606,1.601,1.593,1.586,1.567,1.56,1.556,1.552,1.552,1.55,1.548,1.548,1.548,1.548,1.548,1.548,1.552,1.55,1.55,1.548,1.548,1.546,1.544,1.54,1.534,1.514,1.502,1.491,1.481,1.466,1.437,1.432,1.427,1.425,1.421,1.418,1.414,1.409,1.408,1.401,1.392,1.388,1.383,1.379,1.373,1.371,1.368,1.366,1.363,1.36,1.357,1.355,1.352,1.352,1.35,1.35,1.35,1.35,1.35,0.0,0.0,0.0,0.0,0.0,0.0,0.0,0.0,0.0,0.0,0.0,0.0,0.0,0.0,0.0,0.0,0.0,0.0,0.0,0.0,0.0,0.0,0.0,0.0,0.0,0.0,0.0
5.597,5.597,5.597,5.597,5.597,5.597,5.597,5.597,5.597,5.597,5.597,5.597,5.57,5.57,5.57,5.543,5.543,5.517,5.491,5.491,5.491,5.465,5.465,5.44,5.44,5.44,5.415,5.389,5.34,5.389,5.389,5.34,5.34,5.316,5.316,5.268,5.244,5.22,5.174,5.106,5.106,5.106,5.106,5.151,5.151,5.174,5.22,5.268,5.316,5.34,5.415,5.44,5.465,5.465,5.491,5.491,5.491,5.465,5.465,5.465,5.465,5.465,5.44,5.44,5.415,5.44,5.44,5.465,5.491,5.517,5.517,5.543,5.57,5.57,5.597,5.624,5.651,5.679,5.707,5.821,5.939,6.0329999999999995,6.127,6.327,6.432,6.54,6.577,6.652,6.69,6.729,6.729,6.768,6.808,6.848,6.929,6.971,7.055,7.098,7.186,7.368,7.5135000000000005,7.659,7.866,8.028,8.198,8.56,9.166,9.783,10.03925,10.212,10.394,10.583,10.583,10.583,10.488,10.394,10.488,10.394,10.394,10.394,10.394,10.583,10.583,10.68,10.779,10.982,11.194,11.487874999999999,11.641,12.001,12.518,12.935,13.381,13.536,13.859,13.859,14.026,14.026,14.026,14.026,14.026,14.026,14.026,14.026,13.859,13.859,13.696,13.536,13.381,12.793,12.518,12.384,12.254,12.254,12.001,12.001,11.879,11.879,11.879,11.879,11.879,11.879,11.641,11.641,11.641,11.641,11.641,11.641,11.879,12.254,12.384,12.518,12.935,13.229,13.381,13.381,13.536,13.536,13.536,13.229,12.935,12.518,12.254,11.879,11.526,11.194,10.982,10.779,10.779,10.779,10.779,10.88,11.087,11.194,11.302,11.641,12.001,12.254,12.518,12.793,12.935,13.229,13.229,13.229,12.935,12.793,12.793,12.384,12.254,12.001,11.879,11.879,11.641,11.526,11.526,11.526,11.302,11.302,11.526,11.641,11.526,0.0,0.0,0.0,0.0,0.0,0.0,0.0,0.0,0.0,0.0,11.641,11.641,11.526,11.526,11.641,11.641,11.641,11.641,11.879,12.001,12.254,12.384,12.518,12.935,12.935,13.229,13.381,13.536,13.536,13.696,13.859,14.026,14.197,14.372,14.372,14.552,14.736,14.925,15.119,15.317,15.522,15.522,15.522,15.522,15.317,15.317,15.119,15.119,14.925,14.736,14.552,14.372,14.197,14.026,14.026,13.859,13.696,13.696,13.696,13.859,13.859,14.197,14.372,14.552,14.552,14.552,14.552,14.552,14.552,14.197,13.859,13.381,12.935,12.518,12.254,12.001,11.641,11.526,11.526,11.526,11.194,11.087,11.087,11.087,11.087,11.087,11.087,11.087,11.087,11.194,11.087,11.087,11.087,11.194,11.194,11.526,11.879,12.131499999999999,12.384,12.793,12.935,13.229,13.536,13.536,13.696,13.696,13.696,13.536,13.381,12.935,12.793,12.384,12.001,11.641,11.302,10.982,10.779,10.68,10.488,10.394,10.302,10.212,10.036,9.865,9.542,9.313,8.955,8.753,8.56,8.436,8.375,8.315,8.315,8.315,8.256,8.256,8.198,8.198,8.141,8.084,8.028,8.028,7.973,7.866,7.813,7.709,7.511,7.368,7.055,6.929,6.888,6.848,6.768,6.729,6.729,6.729,6.69,6.577,6.467,6.225,5.938,5.651,5.57,5.465,5.415,5.389,5.34,5.316,5.316,5.316,5.316,5.34,5.316,5.316,5.34,5.34,5.34,5.34,5.34,5.316,5.316,5.316,5.316,5.316,5.268,5.268,5.22,5.22,5.174,5.174,5.151,5.151,5.106,5.106,5.106,5.106,5.084,5.084,5.106,5.106,5.106,5.106,5.151,5.106,5.04,5.018,4.975,4.933,4.891,4.851,4.791,4.732,4.694,4.638,4.601,4.565,4.512,4.46,4.41,4.376,4.344,4.328,4.296,4.218,4.158,4.056,3.946,3.893,3.855,3.817,3.792,3.755,3.661,3.649,3.615,3.593,3.582,0.0,0.0,0.0,0.0,0.0,0.0,1.601,1.603,1.603,1.606,1.608,1.608,1.61,1.61,1.612,1.612,1.612,1.612,1.612,1.61,1.606,1.603,1.599,1.586,1.571,1.56,1.554,1.552,1.55,1.546,1.546,1.544,1.544,1.544,1.544,1.546,1.546,1.546,1.546,1.546,1.544,1.544,1.54,1.534,1.52,1.508,1.498,1.489,1.477,1.459,1.434,1.43,1.427,1.423,1.42,1.416,1.413,1.408,1.404,1.401,1.392,1.384,1.381,1.378,1.373,1.37,1.368,1.365,1.363,1.36,1.357,1.355,1.352,1.35,1.35,1.35,1.35,1.35,1.35,0.0,0.0,0.0,0.0,0.0,0.0,0.0,0.0,0.0,0.0,0.0,0.0,0.0,0.0,0.0,0.0,0.0,0.0,0.0,0.0,0.0,0.0,0.0,0.0,0.0,0.0,0.0
5.57,5.597,5.597,5.597,5.597,5.597,5.597,5.597,5.597,5.597,5.57,5.57,5.57,5.543,5.543,5.517,5.491,5.465,5.44,5.44,5.44,5.415,5.415,5.415,5.415,5.389,5.34,5.316,5.316,5.316,5.316,5.268,5.244,5.244,5.22,5.22,5.174,5.151,5.106,5.084,5.04,5.04,5.04,5.084,5.106,5.151,5.174,5.244,5.268,5.316,5.389,5.415,5.415,5.44,5.465,5.465,5.465,5.465,5.465,5.465,5.465,5.465,5.44,5.44,5.415,5.44,5.465,5.465,5.491,5.517,5.517,5.543,5.543,5.57,5.597,5.597,5.624,5.651,5.707,5.763,5.909,5.97825,6.032,6.225,6.361,6.467,6.54,6.577,6.614,6.614,6.614,6.652,6.69,6.69,6.729,6.768,6.808,6.888,6.929,7.055,7.140750000000001,7.233499999999999,7.447375,7.761,8.028,8.256,8.623,9.313,9.95,10.14675,10.302,10.583,10.583,10.583,10.488,10.394,10.394,10.394,10.394,10.302,10.394,10.394,10.488,10.583,10.68,10.779,11.087,11.526,11.70225,12.001,12.384,12.793,13.229,13.536,13.696,13.859,14.026,14.026,14.197,14.026,14.026,14.026,14.026,14.026,13.859,13.859,13.536,13.536,12.935,12.793,12.518,12.384,12.254,12.254,12.254,12.001,12.001,12.001,12.001,11.879,11.879,11.641,11.526,11.302,11.302,11.302,11.302,11.526,11.641,11.879,12.254,12.384,12.518,12.935,13.229,13.381,13.381,13.381,13.381,13.229,12.935,12.518,12.254,11.641,11.526,11.087,10.88,10.779,10.68,10.68,10.779,10.88,10.982,11.194,11.302,11.641,12.001,12.384,12.518,12.793,12.935,13.229,13.229,12.935,12.935,12.793,12.518,12.384,12.254,12.001,11.879,11.641,11.641,11.526,11.526,11.526,11.302,11.526,11.087,0.0,0.0,0.0,0.0,0.0,0.0,0.0,0.0,0.0,0.0,0.0,0.0,11.641,11.641,11.526,11.526,11.526,11.526,11.526,11.526,11.526,11.641,11.879,12.001,12.254,12.384,12.518,12.793,12.935,13.229,13.381,13.536,13.696,14.026,14.197,14.197,14.372,14.552,14.736,14.925,14.925,15.119,15.119,15.317,15.317,15.119,15.119,15.119,14.925,14.925,14.736,14.552,14.372,14.197,14.197,13.859,13.696,13.536,13.536,13.536,13.536,13.536,13.859,14.026,14.372,14.372,14.372,14.552,14.552,14.552,14.552,14.372,13.859,13.536,12.935,12.793,12.384,12.001,11.641,11.526,11.302,11.087,10.982,10.88,10.88,10.88,10.982,10.982,10.982,10.982,11.087,10.982,11.087,11.194,11.302,11.302,11.194,11.526,11.879,12.0665,12.254,12.793,12.935,13.229,13.536,13.536,13.696,13.859,13.696,13.536,13.536,12.935,12.793,12.384,12.001,11.641,11.302,11.087,10.779,10.583,10.583,10.394,10.302,10.212,10.036,9.865,9.701,9.313,8.955,8.753,8.56,8.436,8.375,8.315,8.315,8.256,8.256,8.198,8.198,8.141,8.084,8.084,8.028,7.973,7.919,7.866,7.761,7.659,7.511,7.368,7.098,6.971,6.929,6.888,6.808,6.768,6.729,6.729,6.69,6.577,6.467,6.259,5.955,5.651,5.57,5.465,5.415,5.389,5.34,5.316,5.268,5.316,5.268,5.316,5.316,5.316,5.316,5.34,5.34,5.34,5.316,5.316,5.316,5.316,5.316,5.316,5.268,5.268,5.22,5.22,5.174,5.174,5.151,5.151,5.106,5.106,5.084,5.084,5.084,5.084,5.084,5.084,5.084,5.106,5.106,5.084,5.04,4.996,4.954,4.912,4.871,4.83,4.713,4.657,4.601,4.53,4.512,4.46,4.41,4.393,4.36,4.328,4.312,4.28,4.264,4.188,4.114,4.014,3.933,3.88,3.855,3.829,3.804,3.78,3.755,3.696,3.672,3.661,3.627,0.0,0.0,0.0,0.0,0.0,0.0,1.603,1.603,1.606,1.606,1.608,1.61,1.61,1.612,1.612,1.612,1.615,1.615,1.612,1.61,1.608,1.603,1.601,1.593,1.573,1.565,1.558,1.554,1.55,1.546,1.544,1.544,1.542,1.542,1.542,1.544,1.544,1.544,1.546,1.544,1.544,1.542,1.538,1.532,1.514,1.506,1.496,1.487,1.475,1.457,1.434,1.43,1.427,1.423,1.418,1.414,1.409,1.404,1.403,1.398,1.391,1.384,1.379,1.376,1.371,1.37,1.366,1.363,1.36,1.357,1.355,1.352,1.352,1.35,1.35,1.35,1.35,1.35,1.352,0.0,0.0,0.0,0.0,0.0,0.0,0.0,0.0,0.0,0.0,0.0,0.0,0.0,0.0,0.0,0.0,0.0,0.0,0.0,0.0,0.0,0.0,0.0,0.0,0.0,0.0,0.0
5.57,5.57,5.57,5.597,5.597,5.597,5.597,5.57,5.57,5.57,5.57,5.57,5.543,5.543,5.517,5.465,5.44,5.415,5.415,5.389,5.389,5.389,5.389,5.34,5.389,5.34,5.316,5.316,5.268,5.268,5.268,5.268,5.244,5.22,5.22,5.174,5.174,5.106,5.084,5.04,5.04,5.018,5.018,5.04,5.106,5.106,5.174,5.22,5.268,5.268,5.34,5.389,5.415,5.415,5.44,5.465,5.465,5.465,5.465,5.44,5.44,5.44,5.44,5.44,5.44,5.44,5.465,5.465,5.465,5.491,5.517,5.517,5.543,5.543,5.57,5.597,5.624,5.651,5.679,5.735,5.821,5.939,6.032,6.1285,6.225,6.327,6.361,6.432,6.467,6.504,6.467,6.467,6.54,6.54,6.577,6.577,6.614,6.614,6.69,6.729,6.768,6.808,6.929,7.186,7.559,7.919,8.198,8.56,9.313,10.123,10.353,10.583,10.394,10.394,10.302,10.302,10.302,10.212,10.212,10.212,10.212,10.302,10.302,10.394,10.583,10.68,10.982,11.302,11.641,11.9475,12.254,12.793,13.229,13.536,13.696,13.859,14.026,14.026,14.026,14.026,14.026,14.026,14.026,14.026,13.859,13.859,13.696,13.536,13.229,12.935,12.793,12.793,12.518,12.384,12.384,12.384,12.254,12.254,12.254,12.001,11.879,11.641,11.526,11.302,11.194,11.194,11.194,11.302,11.302,11.641,11.879,12.254,12.384,12.518,12.793,12.935,13.229,13.229,13.229,12.935,12.518,12.384,12.001,11.641,11.302,10.982,10.88,10.779,10.779,10.779,10.779,10.88,11.087,11.194,11.526,11.641,12.001,12.254,12.518,12.518,12.793,12.793,12.793,12.935,12.793,12.518,12.384,12.254,12.001,11.879,11.879,11.641,11.641,11.526,11.526,11.526,0.0,0.0,0.0,0.0,0.0,0.0,0.0,0.0,0.0,0.0,0.0,0.0,0.0,0.0,0.0,0.0,10.583,10.779,11.087,11.194,11.302,11.194,11.194,11.194,11.194,11.302,11.526,11.641,12.001,12.254,12.384,12.518,12.935,13.229,13.381,13.536,13.859,14.026,14.197,14.372,14.372,14.552,14.552,14.925,14.925,14.925,15.119,15.119,15.119,14.925,14.925,14.925,14.552,14.552,14.552,14.372,14.197,14.026,13.859,13.696,13.696,13.536,13.536,13.536,13.536,13.859,14.197,14.372,14.552,14.552,14.552,14.552,14.552,14.552,14.372,14.026,13.696,13.229,12.935,12.518,12.254,11.641,11.526,11.302,11.087,10.982,10.88,10.88,10.88,10.982,11.087,10.982,11.087,11.087,11.194,11.302,11.302,11.302,11.526,11.526,11.526,11.879,12.082625,12.384,12.518,12.935,13.381,13.381,13.696,13.859,13.859,13.859,13.696,13.536,13.381,12.793,12.518,12.254,11.879,11.526,11.087,10.779,10.68,10.583,10.394,10.302,10.212,10.036,9.865,9.542,9.313,8.955,8.753,8.56,8.497,8.436,8.375,8.315,8.256,8.256,8.198,8.141,8.084,8.028,8.028,7.973,7.919,7.866,7.761,7.761,7.659,7.511,7.415,7.322,7.055,6.929,6.888,6.848,6.808,6.768,6.729,6.729,6.614,6.504,6.259,5.9742500000000005,5.651,5.57,5.465,5.415,5.34,5.316,5.316,5.268,5.268,5.268,5.268,5.268,5.268,5.268,5.268,5.316,5.316,5.316,5.316,5.268,5.268,5.268,5.268,5.268,5.268,5.244,5.22,5.22,5.174,5.174,5.151,5.106,5.106,5.084,5.084,5.04,5.04,5.04,5.084,5.084,5.084,5.084,5.084,5.018,4.975,4.912,4.891,4.83,4.732,4.638,4.565,4.512,4.46,4.41,4.376,4.344,4.328,4.312,4.28,4.28,4.264,4.188,4.128,4.056,3.987,3.92,3.88,3.855,3.829,3.817,3.804,3.792,3.767,3.743,3.731,3.696,0.0,0.0,0.0,0.0,0.0,0.0,1.603,1.603,1.606,1.606,1.608,1.61,1.61,1.61,1.612,1.612,1.612,1.612,1.61,1.608,1.606,1.606,1.599,1.593,1.573,1.567,1.558,1.554,1.55,1.546,1.544,1.542,1.54,1.542,1.542,1.54,1.544,1.544,1.544,1.544,1.54,1.538,1.534,1.518,1.508,1.502,1.494,1.485,1.475,1.459,1.432,1.428,1.425,1.423,1.418,1.413,1.408,1.403,1.401,1.392,1.388,1.383,1.378,1.376,1.371,1.368,1.366,1.363,1.36,1.357,1.352,1.352,1.35,1.35,1.35,1.349,1.35,1.349,1.35,0.0,0.0,0.0,0.0,0.0,0.0,0.0,0.0,0.0,0.0,0.0,0.0,0.0,0.0,0.0,0.0,0.0,0.0,0.0,0.0,0.0,0.0,0.0,0.0,0.0,0.0,0.0
5.543,5.543,5.57,5.57,5.57,5.57,5.57,5.57,5.57,5.57,5.543,5.543,5.543,5.517,5.491,5.44,5.415,5.389,5.34,5.34,5.34,5.34,5.316,5.34,5.34,5.316,5.268,5.268,5.268,5.268,5.244,5.22,5.22,5.174,5.151,5.151,5.106,5.084,5.04,5.018,5.018,4.996,5.018,5.04,5.084,5.084,5.151,5.174,5.244,5.244,5.316,5.34,5.389,5.415,5.415,5.415,5.44,5.44,5.44,5.44,5.44,5.44,5.44,5.44,5.44,5.44,5.465,5.465,5.465,5.491,5.517,5.517,5.543,5.543,5.57,5.597,5.597,5.651,5.651,5.679,5.763,5.85,5.939,6.040875,6.095,6.159,6.259,6.327,6.361,6.396,6.327,6.361,6.396,6.396,6.432,6.467,6.504,6.5405,6.577,6.577,6.577,6.652,6.729,6.8845,6.971,7.41425,7.919,8.198,8.623,0.0,0.0,10.212,10.212,10.212,10.123,10.123,10.036,10.036,10.036,10.036,10.036,10.212,10.212,10.302,10.394,10.583,10.68,10.982,11.302,11.663625,11.879,12.384,12.935,13.381,13.536,13.696,13.859,14.026,14.026,14.026,14.026,14.026,14.026,14.026,13.859,13.859,13.696,13.536,13.536,13.229,13.229,12.935,12.935,12.935,12.935,12.935,12.793,12.793,12.518,12.384,12.254,11.879,11.641,11.526,11.302,11.194,11.194,11.194,11.302,11.526,11.641,11.879,12.001,12.254,12.518,12.518,12.793,12.793,12.793,12.518,12.384,12.001,11.879,11.526,11.302,11.087,10.88,10.88,10.779,10.88,10.982,11.087,11.194,11.302,11.526,11.641,12.001,12.254,12.518,12.518,12.793,12.793,12.518,12.518,12.518,12.384,12.384,12.254,12.001,11.879,11.641,11.641,11.641,11.641,11.526,11.526,0.0,0.0,0.0,0.0,0.0,0.0,0.0,0.0,0.0,0.0,0.0,0.0,0.0,0.0,0.0,0.0,9.95,10.394,10.68,11.087,10.982,10.982,10.982,10.982,10.982,11.087,11.194,11.302,11.526,11.641,12.001,12.254,12.384,12.935,13.229,13.381,13.696,13.859,14.197,14.197,14.372,14.372,14.552,14.552,14.736,14.736,14.736,14.925,14.736,14.552,14.552,14.552,14.372,14.372,14.372,14.197,13.859,13.859,13.696,13.536,13.381,13.229,12.935,12.935,13.229,13.536,13.859,14.197,14.197,14.372,14.372,14.552,14.552,14.552,14.372,14.026,13.696,13.381,13.229,12.793,12.254,11.641,11.526,11.302,10.982,10.982,10.88,10.88,10.88,10.982,10.982,10.982,11.087,11.087,11.194,11.302,11.526,11.526,11.526,11.641,11.641,11.821,12.001,12.254,12.518,12.935,13.229,13.536,13.536,13.696,13.696,13.859,13.696,13.536,13.381,12.935,12.518,12.254,11.879,11.526,11.087,10.88,10.68,10.488,10.394,10.302,10.212,10.036,9.783,9.701,9.313,9.239,8.819,8.623,8.497,8.375,8.315,8.256,8.256,8.198,8.141,8.084,8.028,7.973,7.973,7.866,7.813,7.761,7.709,7.659,7.659,7.511,7.415,7.368,7.186,7.055,6.971,6.888,6.848,6.808,6.768,6.729,6.614,6.54,6.259,6.032,5.679,5.57,5.465,5.389,5.316,5.268,5.244,5.244,5.244,5.244,5.268,5.268,5.268,5.268,5.268,5.268,5.268,5.244,5.244,5.244,5.244,5.244,5.244,5.268,5.244,5.22,5.22,5.174,5.174,5.151,5.151,5.106,5.084,5.084,5.04,5.04,5.04,5.018,5.04,5.04,5.04,5.04,5.018,4.996,4.933,4.891,4.851,4.81,4.657,4.565,4.46,4.41,4.36,4.344,4.328,4.312,4.296,4.28,4.264,4.233,4.203,4.114,4.056,4.014,3.946,3.906,3.868,3.855,3.829,3.817,3.817,3.804,3.78,3.767,3.755,3.743,3.731,0.0,0.0,0.0,0.0,0.0,1.606,1.608,1.608,1.608,1.61,1.61,1.61,1.612,1.612,1.612,1.612,1.612,1.61,1.608,1.606,1.606,1.603,1.599,1.593,1.573,1.565,1.558,1.552,1.548,1.546,1.544,1.538,1.538,1.538,1.536,1.538,1.538,1.538,1.538,1.538,1.534,1.528,1.512,1.506,1.498,1.492,1.485,1.474,1.459,1.432,1.427,1.423,1.42,1.414,1.408,1.403,1.398,1.396,1.391,1.384,1.379,1.376,1.371,1.37,1.368,1.365,1.362,1.357,1.355,1.352,1.352,1.35,1.35,1.35,1.35,1.35,1.35,1.35,0.0,0.0,0.0,0.0,0.0,0.0,0.0,0.0,0.0,0.0,0.0,0.0,0.0,0.0,0.0,0.0,0.0,0.0,0.0,0.0,0.0,0.0,0.0,0.0,0.0,0.0,0.0
5.517,5.543,5.543,5.543,5.543,5.57,5.543,5.543,5.543,5.543,5.543,5.543,5.517,5.491,5.465,5.415,5.389,5.34,5.34,5.34,5.316,5.316,5.316,5.316,5.316,5.316,5.268,5.268,5.244,5.244,5.244,5.22,5.174,5.174,5.151,5.106,5.084,5.084,5.018,5.018,4.996,4.996,5.018,5.018,5.04,5.084,5.106,5.174,5.22,5.244,5.268,5.316,5.34,5.34,5.389,5.389,5.415,5.415,5.415,5.415,5.44,5.44,5.415,5.415,5.415,5.44,5.44,5.44,5.465,5.491,5.491,5.517,5.543,5.543,5.57,5.57,5.597,5.624,5.651,5.679,5.707,5.792,5.85,6.001,6.032,6.127,6.127,6.159,6.159,6.127,6.095,6.095,6.127,6.127,6.159,6.159,0.0,0.0,6.225,6.259,6.259,6.396,6.54,6.652,6.75275,6.848,0.0,0.0,0.0,0.0,0.0,0.0,9.464,9.464,9.464,9.701,9.701,9.701,9.783,9.783,9.865,10.036,10.123,10.212,10.302,10.394,10.583,10.88,11.087,11.526,11.8845,12.254,12.518,12.935,13.381,13.696,13.696,13.859,14.026,14.026,14.026,14.026,14.026,14.026,13.859,13.859,13.696,13.696,13.536,13.381,13.229,13.381,13.381,13.381,13.381,13.381,13.381,13.229,12.935,12.793,12.384,12.254,11.879,11.526,11.526,11.194,11.194,11.302,11.302,11.302,11.526,11.641,11.879,12.001,12.254,12.384,12.384,12.518,12.384,12.384,12.254,12.001,11.641,11.526,11.302,11.087,11.087,10.982,10.982,10.982,11.194,11.302,11.302,11.641,11.641,12.001,12.001,12.254,12.384,12.518,12.518,12.518,12.518,12.518,12.384,12.384,12.254,12.001,12.001,11.879,11.641,11.641,11.641,11.526,11.526,11.302,0.0,0.0,0.0,0.0,0.0,0.0,0.0,0.0,0.0,0.0,0.0,0.0,0.0,0.0,0.0,0.0,9.783,10.0425,10.302,10.68,10.88,10.88,10.779,10.779,10.88,10.88,10.982,11.087,11.194,11.302,11.641,12.001,12.254,12.518,12.935,13.229,13.536,13.696,13.859,14.197,14.197,14.372,14.372,14.372,14.552,14.552,14.552,14.552,14.552,14.372,14.372,14.372,14.197,14.197,14.197,13.859,13.696,13.536,13.536,13.381,13.229,12.935,12.793,12.793,12.793,13.381,13.536,13.859,14.026,14.026,14.197,14.372,14.372,14.372,14.197,14.026,13.696,13.536,13.229,12.793,12.384,11.879,11.526,11.302,10.982,10.982,10.88,10.779,10.88,10.982,10.982,11.087,11.087,11.194,11.194,11.302,11.526,11.641,11.641,11.641,11.879,11.94,12.001,12.518,12.935,13.229,13.381,13.536,13.696,13.859,13.859,13.859,13.859,13.696,13.536,12.935,12.518,12.384,12.001,11.526,11.194,10.88,10.68,10.488,10.394,10.302,10.123,9.95,9.701,9.464,9.239,8.819,8.753,8.56,8.436,8.375,8.315,8.256,8.198,8.198,8.084,8.028,7.973,7.866,7.761,7.709,7.659,7.659,7.559,7.659,7.511,7.511,7.415,7.368,7.322,7.098,7.055,6.971,6.888,6.848,6.808,6.729,6.652,6.54,6.327,6.032,5.679,5.57,5.491,5.389,5.316,5.268,5.244,5.22,5.22,5.22,5.22,5.244,5.22,5.244,5.244,5.244,5.244,5.244,5.22,5.22,5.22,5.244,5.244,5.244,5.244,5.22,5.174,5.151,5.151,5.106,5.106,5.084,5.04,5.04,5.018,5.018,5.018,4.996,5.018,5.018,5.018,4.996,4.996,4.954,4.912,4.851,4.83,4.657,4.565,4.477,4.393,4.344,4.328,4.312,4.28,4.264,4.264,4.249,4.203,4.128,4.085,4.056,3.987,3.973,3.92,3.893,3.868,3.855,3.829,3.817,3.817,3.804,3.792,3.78,3.767,3.755,3.743,0.0,0.0,0.0,0.0,0.0,1.61,1.61,1.612,1.612,1.612,1.612,1.612,1.612,1.612,1.615,1.615,1.612,1.612,1.61,1.608,1.61,1.606,1.603,1.601,1.593,1.573,1.563,1.556,1.552,1.546,1.544,1.54,1.536,1.536,1.536,1.536,1.536,1.536,1.536,1.534,1.532,1.526,1.508,1.5,1.496,1.491,1.483,1.46425,1.434,1.427,1.423,1.42,1.414,1.408,1.401,1.392,1.391,1.386,1.384,1.379,1.378,1.376,1.371,1.37,1.368,1.365,1.362,1.36,1.357,1.355,1.355,1.352,1.352,1.352,1.35,1.35,1.35,1.352,0.0,0.0,0.0,0.0,0.0,0.0,0.0,0.0,0.0,0.0,0.0,0.0,0.0,0.0,0.0,0.0,0.0,0.0,0.0,0.0,0.0,0.0,0.0,0.0,0.0,0.0,0.0
5.491,5.491,5.517,5.543,5.543,5.543,5.543,5.543,5.543,5.543,5.543,5.517,5.517,5.491,5.465,5.44,5.389,5.389,5.34,5.316,5.316,5.316,5.316,5.34,5.34,5.34,5.316,5.268,5.268,5.268,5.244,5.22,5.174,5.151,5.151,5.106,5.084,5.04,5.018,5.018,5.018,5.018,5.018,5.04,5.084,5.106,5.151,5.174,5.22,5.244,5.268,5.268,5.316,5.34,5.34,5.34,5.389,5.389,5.389,5.389,5.415,5.415,5.389,5.415,5.415,5.44,5.44,5.465,5.465,5.465,5.491,5.517,5.517,5.543,5.57,5.57,5.597,5.624,5.651,5.651,5.679,5.763,5.792,5.85,5.881499999999999,5.909,5.945,5.9755,5.966375,5.939,5.909,5.939,5.909,5.939,5.947,5.961,0.0,0.0,5.939,5.939,5.939,6.032,6.225,6.396,6.54,0.0,0.0,0.0,0.0,0.0,0.0,0.0,0.0,8.819,8.955,9.239,9.464,9.464,9.542,9.542,9.701,9.865,9.95,10.123,10.212,10.302,10.394,10.68,10.88,11.194,11.879,12.131499999999999,12.384,12.793,13.229,13.536,13.696,13.859,13.859,14.026,14.026,14.026,14.026,14.026,13.859,13.859,13.859,13.696,13.696,13.536,13.536,13.536,13.696,13.696,13.696,13.859,13.696,13.696,13.536,13.229,12.793,12.384,12.001,11.641,11.526,11.302,11.302,11.194,11.194,11.302,11.526,11.526,11.641,11.879,12.001,12.001,12.001,12.254,12.001,12.001,12.001,11.879,11.641,11.526,11.526,11.194,11.194,11.194,11.302,11.302,11.526,11.641,11.879,11.879,12.001,12.254,12.254,12.384,12.518,12.518,12.384,12.518,12.384,12.384,12.384,12.384,12.254,12.254,12.001,11.879,11.879,11.879,11.879,11.641,11.526,11.526,0.0,0.0,0.0,0.0,5.491,5.465,5.465,5.465,0.0,0.0,0.0,0.0,0.0,0.0,0.0,0.0,0.0,0.0,0.0,10.583,10.779,10.68,10.68,10.68,10.68,10.68,10.779,10.88,11.087,11.194,11.302,11.641,12.001,12.384,12.793,13.229,13.381,13.536,13.859,14.026,14.197,14.197,14.197,14.372,14.372,14.372,14.372,14.197,14.197,14.197,14.197,14.026,14.026,13.859,13.696,13.536,13.381,13.229,12.935,12.935,12.793,12.518,12.518,12.384,12.793,12.935,13.381,13.696,13.696,13.859,14.197,14.197,14.197,14.372,14.197,14.026,13.859,13.536,13.381,12.935,12.384,12.001,11.641,11.302,11.087,10.88,10.88,10.88,10.982,10.88,10.982,10.982,11.087,11.087,11.194,11.194,11.302,11.526,11.641,11.7005,11.879,12.0665,12.254,12.254,12.793,12.935,13.381,13.381,13.696,13.696,13.859,13.859,13.859,13.696,13.536,12.935,12.518,12.384,12.001,11.526,11.087,10.779,10.68,10.488,10.302,10.212,10.036,9.783,9.542,9.313,9.166,8.819,8.623,8.436,8.315,8.256,8.256,8.198,8.084,8.028,7.973,7.866,7.709,7.659,7.559,7.415,7.415,7.368,7.415,7.415,7.368,7.368,7.322,7.322,7.186,7.098,7.055,6.971,6.929,6.888,6.848,6.768,6.652,6.54,6.327,6.095,5.679,5.57,5.465,5.389,5.268,5.244,5.22,5.22,5.174,5.174,5.174,5.174,5.174,5.174,5.22,5.22,5.22,5.22,5.22,5.22,5.22,5.22,5.22,5.22,5.22,5.174,5.174,5.151,5.151,5.106,5.084,5.04,5.04,5.018,5.018,5.018,4.996,4.975,4.975,4.975,4.954,4.954,4.933,4.912,4.871,4.83,4.694,4.565,4.46,4.393,4.328,4.312,4.28,4.264,4.249,4.233,4.203,4.173,4.085,4.056,4.014,3.973,3.946,3.92,3.906,3.88,3.868,3.855,3.829,3.817,3.817,3.804,3.804,3.78,3.78,3.767,3.767,0.0,0.0,0.0,0.0,0.0,1.615,1.615,1.615,1.612,1.615,1.612,1.612,1.612,1.615,1.615,1.615,1.615,1.612,1.612,1.612,1.612,1.61,1.608,1.606,1.599,1.593,1.573,1.563,1.554,1.548,1.546,1.54,1.538,1.536,1.534,1.534,1.534,1.534,1.532,1.532,1.526,1.512,1.502,1.496,1.491,1.487,1.481,1.466,1.432,1.425,1.42,1.414,1.408,1.401,1.396,1.388,1.384,1.383,1.381,1.378,1.376,1.373,1.37,1.368,1.366,1.363,1.362,1.36,1.357,1.355,1.355,1.352,1.352,1.352,1.352,1.352,1.352,1.355,0.0,0.0,0.0,0.0,0.0,0.0,0.0,0.0,0.0,0.0,0.0,0.0,0.0,0.0,0.0,0.0,0.0,0.0,0.0,0.0,0.0,0.0,0.0,0.0,0.0,0.0,0.0
5.465,5.465,5.491,5.517,5.517,5.543,5.517,5.517,5.543,5.543,5.517,5.517,5.517,5.491,5.465,5.44,5.415,5.389,5.389,5.34,5.389,5.34,5.34,5.34,5.34,5.34,5.316,5.316,5.268,5.268,5.244,5.22,5.22,5.174,5.174,5.151,5.106,5.084,5.04,5.04,5.04,5.04,5.084,5.106,5.151,5.174,5.174,5.22,5.244,5.244,5.268,5.268,5.316,5.316,5.34,5.34,5.34,5.34,5.389,5.389,5.389,5.389,5.389,5.415,5.415,5.44,5.44,5.465,5.465,5.465,5.491,5.517,5.543,5.543,5.57,5.57,5.597,5.597,5.597,5.624,5.679,5.679,5.679,5.707,5.735,5.735,5.763,5.792,5.792,5.735,5.735,5.707,5.735,5.735,5.735,5.763,5.7775,5.792,5.821,5.792,5.792,5.821,5.909,6.032,6.159,0.0,0.0,6.808,7.1594999999999995,7.511,0.0,0.0,0.0,8.497,8.623,8.955,9.239,9.239,9.313,9.464,9.701,9.783,9.865,9.95,10.212,10.212,10.394,10.583,10.779,11.087,11.526,11.978125,12.254,12.518,12.935,13.381,13.696,13.696,13.859,14.026,14.026,14.026,14.026,14.026,14.026,14.026,13.859,13.859,13.696,13.536,13.696,13.696,13.696,13.859,13.859,13.859,13.859,13.859,13.536,13.381,12.935,12.518,12.254,11.879,11.526,11.302,11.194,11.194,11.194,11.194,11.302,11.302,11.526,11.526,11.641,11.879,11.879,11.879,12.001,12.001,11.879,11.879,11.879,11.641,11.641,11.526,11.526,11.641,11.641,11.641,12.001,12.001,12.254,12.254,12.384,12.384,12.384,12.518,12.518,12.518,12.518,12.384,12.384,12.384,12.384,12.384,12.254,12.254,12.254,12.001,12.001,12.001,11.879,11.879,11.641,11.526,0.0,0.0,5.44,5.44,5.44,5.44,5.44,5.44,5.465,5.465,5.543,5.624,5.792,0.0,0.0,0.0,0.0,0.0,0.0,10.302,10.68,10.68,10.68,10.68,10.68,10.68,10.68,10.88,10.88,11.087,11.194,11.526,11.879,12.001,12.384,12.935,13.229,13.381,13.696,13.859,14.026,14.026,14.197,14.197,14.197,14.197,14.197,14.197,14.197,14.026,13.859,13.696,13.696,13.536,13.381,12.935,12.935,12.793,12.518,12.518,12.384,12.384,12.254,12.254,12.518,12.935,13.229,13.536,13.696,13.859,14.026,14.197,14.197,14.372,14.197,14.197,14.026,13.859,13.536,13.229,12.793,12.254,11.879,11.526,11.087,10.982,10.88,10.88,10.88,10.88,10.88,10.88,10.88,10.982,11.087,11.087,11.302,11.526,11.526,11.641,11.641,11.821,12.001,12.254,12.518,12.793,13.229,13.229,13.536,13.696,13.696,13.696,13.696,13.536,13.381,12.935,12.518,12.254,12.001,11.526,11.087,10.779,10.583,10.394,10.212,10.123,9.95,9.542,9.464,9.166,8.819,8.623,8.56,8.375,8.256,8.198,8.141,8.084,8.028,7.973,7.813,7.659,7.511,7.415,7.322,7.186,7.186,7.186,7.186,7.186,7.231,7.186,7.186,7.186,7.186,7.098,7.055,6.929,6.929,6.848,6.808,6.729,6.652,6.54,6.327,6.032,5.679,5.57,5.491,5.34,5.244,5.22,5.174,5.174,5.174,5.151,5.174,5.174,5.174,5.174,5.174,5.174,5.174,5.174,5.174,5.174,5.174,5.22,5.22,5.244,5.22,5.174,5.174,5.151,5.151,5.106,5.084,5.04,5.04,5.018,5.018,4.996,4.975,4.975,4.954,4.954,4.954,4.933,4.912,4.891,4.851,4.81,4.601,4.512,4.393,4.328,4.296,4.264,4.249,4.233,4.203,4.173,4.128,4.056,4.028,3.987,3.946,3.933,3.92,3.906,3.88,3.868,3.868,3.855,3.829,3.829,3.817,3.804,3.804,3.792,3.78,3.767,3.767,0.0,0.0,0.0,0.0,0.0,1.6204999999999998,1.619,1.617,1.617,1.617,1.617,1.617,1.617,1.617,1.617,1.617,1.617,1.615,1.615,1.615,1.615,1.612,1.612,1.61,1.606,1.601,1.586,1.571,1.556,1.552,1.546,1.542,1.538,1.536,1.534,1.534,1.532,1.528,1.528,1.526,1.52,1.506,1.498,1.492,1.489,1.483,1.477,1.459,1.427,1.42,1.409,1.404,1.398,1.391,1.386,1.381,1.378,1.378,1.378,1.376,1.374,1.371,1.37,1.368,1.365,1.363,1.362,1.36,1.36,1.357,1.355,1.352,1.352,1.352,1.352,1.352,1.352,1.352,0.0,0.0,0.0,0.0,0.0,0.0,0.0,0.0,0.0,0.0,0.0,0.0,0.0,0.0,0.0,0.0,0.0,0.0,0.0,0.0,0.0,0.0,0.0,0.0,0.0,0.0,0.0
5.44,5.465,5.465,5.491,5.491,5.517,5.517,5.517,5.517,5.517,5.517,5.517,5.517,5.491,5.465,5.465,5.44,5.415,5.389,5.389,5.389,5.389,5.389,5.389,5.389,5.34,5.34,5.316,5.268,5.268,5.244,5.244,5.22,5.22,5.174,5.151,5.151,5.106,5.106,5.106,5.106,5.106,5.151,5.174,5.174,5.22,5.22,5.244,5.244,5.268,5.268,5.268,5.316,5.316,5.316,5.316,5.34,5.34,5.34,5.34,5.389,5.389,5.389,5.415,5.415,5.44,5.44,5.465,5.465,5.491,5.491,5.517,5.543,5.543,5.57,5.57,5.57,5.597,5.597,5.597,5.624,5.624,5.624,5.624,0.0,0.0,0.0,0.0,0.0,0.0,5.651,5.679,5.679,5.679,5.707,5.735,5.735,5.735,5.735,5.735,5.707,5.707,5.763,5.85,5.939,0.0,0.0,0.0,0.0,0.0,7.761,7.9510000000000005,8.141,8.315,8.497,8.819,9.166,9.239,9.313,9.464,9.542,9.783,9.865,10.036,10.123,10.212,10.394,10.583,10.68,10.982,11.302,12.001,12.1275,12.254,12.793,13.229,13.536,13.536,13.696,13.859,13.859,13.859,13.859,13.859,13.859,13.859,13.859,13.859,13.696,13.696,13.696,13.536,13.616,13.696,13.7375,13.859,13.859,13.696,13.696,13.381,12.935,12.518,12.254,11.879,11.526,11.302,11.194,11.194,11.194,11.194,11.194,11.194,11.302,11.302,11.526,11.526,11.641,11.641,11.641,11.879,11.879,11.879,11.879,11.641,11.641,11.641,11.641,12.001,12.001,12.001,12.254,12.384,12.518,12.518,12.518,12.793,12.518,12.518,12.518,12.518,12.384,12.254,12.254,12.254,12.254,12.254,12.254,12.384,12.254,12.254,12.254,12.254,12.254,12.001,12.001,0.0,0.0,0.0,5.415,5.44,5.44,5.44,5.44,5.44,5.44,5.44,5.491,5.543,5.624,0.0,0.0,0.0,0.0,0.0,0.0,10.212,10.779,10.68,10.68,10.68,10.68,10.68,10.68,10.88,10.88,10.982,11.194,11.526,11.641,12.001,12.254,12.518,12.935,13.229,13.536,13.696,13.696,13.859,14.026,14.026,14.026,14.026,14.026,13.859,13.859,13.696,13.536,13.536,13.229,13.229,12.935,12.518,12.384,12.384,12.384,12.254,12.001,12.001,12.001,11.879,12.254,12.793,12.793,13.381,13.536,13.696,13.859,14.197,14.197,14.372,14.197,14.197,14.197,14.026,13.859,13.381,12.935,12.518,12.001,11.641,11.087,10.982,10.88,10.88,10.88,10.779,10.88,10.88,10.88,10.88,10.982,11.087,11.194,11.302,11.302,11.641,11.641,11.8355,12.001,12.001,12.254,12.518,12.793,13.229,13.381,13.536,13.536,13.696,13.696,13.536,13.381,13.229,12.518,12.254,11.879,11.302,10.982,10.68,10.583,10.302,10.212,10.036,9.783,9.464,9.166,8.955,8.623,8.497,8.375,8.256,8.256,8.198,8.084,8.028,7.973,7.761,7.659,7.415,7.368,7.186,7.098,7.055,6.929,6.929,6.929,6.971,6.971,6.971,7.055,7.098,7.098,7.055,6.971,6.929,6.888,6.848,6.808,6.729,6.652,6.504,6.259,6.001,5.679,5.57,5.491,5.34,5.22,5.174,5.151,5.151,5.151,5.151,5.151,5.151,5.151,5.151,5.151,5.151,5.151,5.151,5.151,5.151,5.151,5.174,5.174,5.174,5.174,5.174,5.151,5.106,5.106,5.106,5.084,5.04,5.018,5.018,4.996,4.996,4.975,4.954,4.954,4.933,4.933,4.912,4.912,4.891,4.83,4.81,4.565,4.426,4.344,4.312,4.264,4.249,4.203,4.158,4.114,4.085,4.028,3.987,3.973,3.933,3.92,3.906,3.893,3.88,3.868,3.868,3.855,3.855,3.829,3.817,3.817,3.804,3.804,3.78,3.78,3.767,0.0,0.0,0.0,0.0,0.0,0.0,1.626,1.624,1.621,1.621,1.621,1.621,1.621,1.619,1.621,1.621,1.621,1.621,1.617,1.617,1.617,1.617,1.615,1.617,1.615,1.612,1.612,1.608,1.584,1.565,1.554,1.548,1.544,1.538,1.536,1.532,1.532,1.528,1.526,1.522,1.522,1.512,1.5,1.494,1.491,1.485,1.481,1.472,1.452,1.4295,1.416,1.401,1.396,1.391,1.383,1.378,1.378,1.376,1.374,1.373,1.373,1.371,1.368,1.368,1.366,1.365,1.362,1.362,1.36,1.36,1.357,1.357,1.355,1.352,1.352,1.355,1.352,1.352,1.352,0.0,0.0,0.0,0.0,0.0,0.0,0.0,0.0,0.0,0.0,0.0,0.0,0.0,0.0,0.0,0.0,0.0,0.0,0.0,0.0,0.0,0.0,0.0,0.0,0.0,0.0,0.0
5.44,5.465,5.465,5.491,5.491,5.491,5.517,5.517,5.517,5.543,5.543,5.543,5.543,5.517,5.517,5.491,5.465,5.44,5.44,5.44,5.415,5.415,5.415,5.415,5.389,5.34,5.316,5.316,5.268,5.268,5.244,5.22,5.22,5.174,5.174,5.151,5.151,5.151,5.151,5.151,5.174,5.174,5.22,5.244,5.244,5.244,5.268,5.268,5.268,5.268,5.268,5.268,5.268,5.268,5.316,5.316,5.316,5.316,5.316,5.34,5.34,5.3645,5.389,5.415,5.415,5.44,5.44,5.465,5.491,5.491,5.517,5.517,5.543,5.543,5.57,5.57,5.57,5.57,5.57,5.597,5.597,5.597,5.597,5.597,0.0,0.0,0.0,0.0,0.0,0.0,0.0,0.0,5.792,5.763,5.792,5.821,5.85,5.85,5.85,5.821,5.792,5.821,5.85,5.909,5.939,0.0,0.0,0.0,0.0,0.0,7.511,7.866,8.028,8.256,8.375,8.753,9.024,9.166,9.239,9.464,9.542,9.701,9.783,9.95,10.036,10.212,10.302,10.488,10.68,10.88,11.087,11.641,11.887125,12.254,12.518,12.793,13.229,13.381,13.536,13.696,13.696,13.696,13.859,13.859,13.859,13.859,13.696,13.696,13.536,13.381,13.381,13.381,13.536,13.381,13.536,13.696,13.696,13.696,13.536,13.381,12.935,12.518,12.254,11.879,11.641,11.302,11.194,11.194,11.194,11.194,11.194,11.194,11.194,11.302,11.302,11.302,11.526,11.526,11.641,11.641,11.641,11.641,11.879,11.879,11.879,11.879,12.001,12.254,12.384,12.384,12.518,12.793,12.935,12.935,12.935,12.935,12.793,12.793,12.793,12.518,12.518,12.384,12.254,12.384,12.384,12.384,12.384,12.384,12.384,12.384,12.384,12.384,12.384,12.254,12.254,0.0,0.0,0.0,5.415,5.44,5.415,5.415,5.44,5.44,5.44,5.44,5.465,5.491,5.543,5.821,0.0,0.0,0.0,0.0,0.0,10.036,10.779,10.779,10.779,10.779,10.68,10.779,10.779,10.88,10.88,10.982,11.087,11.302,11.526,11.879,12.254,12.384,12.793,12.935,13.381,13.536,13.536,13.696,13.859,13.859,13.859,14.026,14.026,13.859,13.696,13.536,13.381,13.229,12.935,12.793,12.518,12.384,12.254,12.001,12.001,11.879,11.879,11.641,11.641,11.526,12.001,12.384,12.793,13.229,13.536,13.696,14.026,14.197,14.372,14.372,14.372,14.372,14.197,14.197,14.026,13.696,13.229,12.793,12.384,12.001,11.641,11.087,10.982,10.88,10.88,10.88,10.88,10.88,10.982,10.88,10.982,10.982,11.087,11.194,11.302,11.526,11.641,11.879,11.879,12.00325,12.254,12.518,12.935,12.935,13.381,13.536,13.536,13.536,13.696,13.536,13.536,13.381,12.518,12.254,11.879,11.302,10.982,10.68,10.488,10.302,10.123,9.95,9.542,9.313,9.024,8.753,8.56,8.375,8.315,8.256,8.198,8.084,8.028,7.973,7.761,7.559,7.368,7.231,7.098,6.971,6.888,6.808,6.808,6.808,6.808,6.848,6.848,6.848,6.888,6.929,6.971,6.971,6.929,6.848,6.808,6.768,6.729,6.69,6.614,6.467,6.159,5.735,5.624,5.543,5.44,5.268,5.174,5.151,5.151,5.106,5.106,5.106,5.106,5.106,5.106,5.106,5.106,5.106,5.106,5.106,5.084,5.084,5.084,5.174,5.174,5.174,5.174,5.151,5.151,5.106,5.106,5.106,5.04,5.04,5.018,5.018,4.996,4.975,4.954,4.954,4.933,4.912,4.912,4.912,4.891,4.851,4.83,4.657,4.512,4.376,4.312,4.28,4.249,4.203,4.158,4.114,4.07,4.028,3.987,3.973,3.933,3.92,3.92,3.893,3.893,3.88,3.868,3.868,3.855,3.855,3.829,3.817,3.817,3.804,3.792,3.78,3.767,2.732,0.0,0.0,0.0,0.0,0.0,1.649,1.63,1.626,1.624,1.624,1.621,1.621,1.621,1.621,1.621,1.621,1.621,1.621,1.617,1.617,1.615,1.615,1.615,1.612,1.612,1.606,1.603,1.601,1.58,1.565,1.554,1.546,1.542,1.538,1.534,1.528,1.526,1.522,1.52,1.514,1.508,1.502,1.494,1.491,1.487,1.483,1.475,1.464,1.44225,1.423,1.408,1.396,1.388,1.384,1.378,1.376,1.374,1.373,1.373,1.371,1.371,1.37,1.368,1.366,1.365,1.363,1.362,1.362,1.36,1.36,1.357,1.357,1.355,1.357,1.355,1.355,1.355,1.352,1.355,0.0,0.0,0.0,0.0,0.0,0.0,0.0,0.0,0.0,0.0,0.0,0.0,0.0,0.0,0.0,0.0,0.0,0.0,0.0,0.0,0.0,0.0,0.0,0.0,0.0,0.0,0.0
5.44,5.465,5.465,5.465,5.491,5.491,5.517,5.517,5.517,5.543,5.543,5.543,5.543,5.543,5.543,5.543,5.517,5.491,5.491,5.491,5.465,5.44,5.44,5.44,5.389,5.34,5.316,5.268,5.268,5.244,5.22,5.22,5.174,5.174,5.174,5.174,5.174,5.174,5.174,5.22,5.244,5.268,5.268,5.316,5.316,5.316,5.316,5.316,5.268,5.268,5.268,5.268,5.268,5.268,5.268,5.268,5.316,5.316,5.316,5.316,5.34,5.34,5.389,5.389,5.415,5.44,5.465,5.465,5.491,5.517,5.517,5.517,5.543,5.543,5.57,5.57,5.57,5.57,5.597,5.597,5.597,5.597,5.597,5.624,0.0,0.0,0.0,0.0,0.0,0.0,0.0,0.0,0.0,0.0,0.0,5.99,6.000000000000001,6.001,6.001,5.939,5.939,5.939,6.001,6.095,6.127,0.0,0.0,6.577,6.848,7.1315,7.415,7.813,8.028,8.198,8.375,8.753,9.024,9.166,9.239,9.464,9.464,9.701,9.783,9.95,10.036,10.212,10.302,10.394,10.583,10.68,10.88,11.194,11.526,12.001,12.136,12.384,12.518,12.935,13.229,13.229,13.381,13.381,13.381,13.381,13.381,13.536,13.381,13.229,12.935,12.935,12.935,12.935,12.935,13.229,13.229,13.381,13.536,13.536,13.381,13.229,12.793,12.518,12.254,11.879,11.526,11.302,11.302,11.194,11.194,11.194,11.194,11.194,11.302,11.302,11.302,11.302,11.526,11.526,11.526,11.641,11.641,11.641,11.879,11.879,12.001,12.254,12.254,12.518,12.518,12.793,12.935,12.935,13.229,13.229,13.229,12.935,12.935,12.793,12.793,12.793,12.518,12.384,12.384,12.384,12.518,12.518,12.518,12.518,12.518,12.518,12.518,12.518,12.518,12.384,12.384,0.0,0.0,0.0,5.415,5.44,5.415,5.415,5.44,5.44,5.44,5.44,5.465,5.465,5.465,5.679,0.0,0.0,0.0,0.0,0.0,9.95,10.982,10.982,10.982,10.88,10.88,10.88,10.88,10.982,10.982,11.087,11.194,11.302,11.526,11.879,12.001,12.384,12.518,12.793,13.229,13.381,13.536,13.696,13.859,13.859,14.026,14.026,14.026,13.859,13.696,13.381,13.229,12.935,12.793,12.518,12.254,12.001,11.879,11.641,11.641,11.641,11.526,11.526,11.302,11.526,11.641,12.254,12.518,12.793,13.229,13.536,13.696,14.026,14.197,14.197,14.197,14.197,14.197,14.026,13.859,13.536,13.229,12.518,12.254,11.641,11.087,10.982,10.88,10.88,10.779,10.779,10.68,10.779,10.779,10.779,10.779,10.779,10.88,10.982,11.087,11.194,11.302,11.302,11.641,11.879,12.097,12.254,12.384,12.793,12.935,13.381,13.381,13.536,13.536,13.536,13.381,12.793,12.384,11.879,11.526,11.087,10.779,10.583,10.394,10.212,9.95,9.783,9.464,9.166,8.819,8.56,8.436,8.315,8.256,8.198,8.141,8.084,7.973,7.813,7.659,7.415,7.231,7.055,6.929,6.848,6.729,6.729,6.69,6.69,6.729,6.729,6.729,6.729,6.729,6.768,6.808,6.808,6.808,6.729,6.729,6.69,6.69,6.614,6.54,6.361,6.095,5.679,5.597,5.517,5.415,5.244,5.151,5.106,5.106,5.084,5.084,5.084,5.084,5.106,5.084,5.084,5.084,5.084,5.084,5.04,5.04,5.04,5.084,5.084,5.106,5.106,5.106,5.106,5.106,5.084,5.084,5.084,5.04,5.018,4.996,4.996,4.996,4.975,4.954,4.933,4.912,4.912,4.912,4.891,4.871,4.83,4.81,4.601,4.426,4.344,4.312,4.264,4.233,4.188,4.128,4.085,4.028,4.014,3.973,3.946,3.933,3.92,3.906,3.893,3.88,3.88,3.868,3.855,0.0,0.0,0.0,0.0,2.7735000000000003,2.758,2.4907500000000002,1.704,1.699,1.697,1.692,1.69,1.685,1.677,1.668,1.656,1.635,1.63,1.626,1.624,1.624,1.624,1.621,1.621,1.621,1.621,1.621,1.619,1.617,1.615,1.615,1.612,1.612,1.61,1.608,1.601,1.599,1.595,1.577,1.565,1.554,1.546,1.542,1.536,1.534,1.532,1.526,1.52,1.518,1.508,1.502,1.498,1.491,1.487,1.483,1.4760000000000002,1.466,1.452,1.43,1.42,1.403,1.388,1.383,1.379,1.376,1.373,1.371,1.37,1.37,1.37,1.37,1.366,1.365,1.365,1.363,1.362,1.362,1.362,1.36,1.36,1.357,1.357,1.355,1.357,1.355,1.355,1.355,1.355,1.355,0.0,0.0,0.0,0.0,0.0,0.0,0.0,0.0,0.0,0.0,0.0,0.0,0.0,0.0,0.0,0.0,0.0,0.0,0.0,0.0,0.0,0.0,0.0,0.0,0.0,0.0,0.0
5.491,5.491,5.465,5.491,5.491,5.517,5.517,5.517,5.543,5.543,5.543,5.543,5.57,5.57,5.543,5.543,5.543,5.543,5.543,5.543,5.517,5.491,5.491,5.44,5.389,5.34,5.316,5.268,5.244,5.244,5.22,5.174,5.174,5.174,5.174,5.174,5.22,5.22,5.244,5.268,5.316,5.34,5.389,5.389,5.415,5.415,5.389,5.34,5.34,5.316,5.316,5.316,5.316,5.268,5.268,5.268,5.268,5.268,5.268,5.316,5.316,5.316,5.34,5.389,5.415,5.44,5.465,5.491,5.517,5.517,5.543,5.543,5.543,5.57,5.57,5.57,5.57,5.597,5.597,5.597,5.597,5.597,5.624,5.6515,0.0,0.0,0.0,0.0,0.0,0.0,0.0,0.0,0.0,0.0,0.0,6.159,6.159,6.127,6.127,6.095,6.095,6.095,6.127,6.225,6.327,6.396,6.54,6.69,6.929,7.132624999999999,7.415,7.813,8.028,8.198,8.375,8.753,9.024,9.166,9.239,9.464,9.464,9.542,9.701,9.865,9.95,10.123,10.212,10.302,10.394,10.488,10.583,10.779,10.982,11.194,11.641,11.879,12.001,12.384,12.384,12.518,12.518,12.518,12.518,12.793,12.793,12.518,12.518,12.384,12.384,12.384,12.384,12.384,12.518,12.518,12.518,12.793,12.935,12.935,12.793,12.518,12.518,12.254,11.879,11.641,11.302,11.194,11.302,11.302,11.194,11.302,11.302,11.302,11.302,11.302,11.526,11.526,11.641,11.641,11.641,11.641,11.879,12.001,12.001,12.001,12.254,12.384,12.384,12.518,12.793,12.793,12.793,12.935,12.935,12.935,12.935,12.935,12.935,12.935,12.793,12.793,12.518,12.518,12.384,12.518,12.518,12.518,12.518,12.518,12.518,12.518,12.793,12.793,12.793,12.384,12.384,0.0,0.0,0.0,0.0,5.415,5.415,5.415,5.44,5.44,5.44,5.44,5.465,5.465,5.491,5.679,0.0,0.0,0.0,0.0,9.783,10.3825,10.982,11.194,11.087,11.194,11.087,11.087,11.087,11.087,11.194,11.194,11.302,11.526,11.641,12.001,12.254,12.384,12.518,12.935,13.229,13.381,13.536,13.859,13.859,14.026,14.026,14.026,14.026,13.859,13.696,13.536,13.229,12.793,12.518,12.384,12.001,11.879,11.641,11.641,11.526,11.526,11.302,11.194,11.302,11.302,11.641,12.001,12.384,12.518,13.229,13.381,13.696,13.859,14.026,14.026,14.026,14.026,14.026,13.859,13.696,13.381,12.935,12.518,12.001,11.641,11.302,10.982,10.88,10.779,10.779,10.68,10.68,10.68,10.68,10.68,10.68,10.779,10.779,10.88,10.982,11.087,11.087,11.302,11.302,11.641,12.001,12.16,12.384,12.518,12.793,12.935,13.229,13.229,13.229,13.381,13.229,12.384,12.001,11.641,11.302,10.88,10.68,10.394,10.302,10.123,9.783,9.542,9.239,8.623,8.56,8.497,8.375,8.256,8.256,8.198,8.084,8.028,7.919,7.761,7.511,7.322,7.098,6.929,6.808,6.729,6.69,6.652,6.614,6.614,6.614,6.614,6.614,6.614,6.652,6.69,6.69,6.729,6.69,6.652,6.652,6.614,6.614,6.577,6.467,6.225,5.939,5.651,5.543,5.465,5.316,5.22,5.106,5.106,5.084,5.084,5.084,5.084,5.084,5.084,5.04,5.084,5.04,5.04,5.04,5.018,5.018,5.018,5.04,5.04,5.084,5.084,5.084,5.084,5.04,5.04,5.018,5.018,4.996,4.996,4.954,4.954,3.6260000000000003,3.6134999999999997,3.5965,3.251875,2.239,3.5755,3.5755,3.567,0.0,0.0,0.0,0.0,0.0,0.0,4.28,4.264,4.218,4.173,4.114,4.07,4.014,3.987,3.973,3.933,3.92,3.906,3.893,3.88,3.868,0.0,0.0,0.0,0.0,0.0,0.0,0.0,1.73,1.712,1.709,1.704,1.699,1.697,1.695,1.69,1.687,1.682,1.673,1.661,1.649,1.635,1.63,1.628,1.624,1.624,1.624,1.624,1.624,1.624,1.621,1.621,1.617,1.617,1.615,1.612,1.61,1.608,1.603,1.595,1.593,1.577,1.571,1.563,1.554,1.546,1.54,1.538,1.536,1.532,1.528,1.522,1.518,1.508,1.502,1.496,1.491,1.487,1.481,1.472,1.459,1.443,1.425,1.416,1.398,1.384,1.379,1.376,1.373,1.371,1.37,1.37,1.368,1.368,1.366,1.366,1.365,1.365,1.363,1.363,1.362,1.362,1.362,1.36,1.357,1.355,1.355,1.355,1.352,1.352,1.352,1.352,1.352,0.0,0.0,0.0,0.0,0.0,0.0,0.0,0.0,0.0,0.0,0.0,0.0,0.0,0.0,0.0,0.0,0.0,0.0,0.0,0.0,0.0,0.0,0.0,0.0,0.0,0.0,0.0
5.517,5.517,5.517,5.517,5.517,5.517,5.517,5.543,5.543,5.543,5.57,5.57,5.57,5.57,5.57,5.57,5.57,5.57,5.57,5.543,5.543,5.517,5.517,5.465,5.415,5.34,5.316,5.268,5.244,5.22,5.174,5.174,5.174,5.174,5.22,5.244,5.244,5.316,5.316,5.389,5.415,5.44,5.465,5.465,5.465,5.465,5.44,5.415,5.389,5.389,5.34,5.316,5.316,5.268,5.268,5.268,5.244,5.244,5.268,5.268,5.268,5.316,5.34,5.34,5.415,5.44,5.465,5.491,5.517,5.543,5.543,5.543,5.543,5.57,5.57,5.57,5.57,5.597,5.597,5.597,5.597,5.597,5.624,5.679,0.0,0.0,0.0,0.0,0.0,0.0,0.0,0.0,0.0,6.54,6.432,6.396,6.327,6.259,6.225,6.225,6.159,6.225,6.327,6.361,6.467,6.504,6.577,6.729,6.942,7.055,7.511,7.866,8.028,8.198,8.375,8.623,9.024,9.166,9.239,9.313,9.464,9.542,9.542,9.783,9.783,9.865,10.036,10.123,10.212,10.302,10.394,10.488,10.583,10.68,10.88,11.087,11.194,11.526,11.641,11.879,12.001,12.001,12.254,12.384,12.254,12.254,12.001,12.001,11.879,11.879,11.879,11.641,11.879,11.641,11.641,11.641,11.641,11.526,11.302,11.194,11.194,11.087,11.087,10.982,10.88,10.982,11.087,11.194,11.302,11.302,11.302,11.302,11.526,11.526,11.526,11.526,11.641,11.641,11.879,11.879,12.001,12.254,12.254,12.254,12.384,12.384,12.518,12.518,12.518,12.793,12.793,12.793,12.793,12.935,12.935,12.935,12.935,12.935,12.935,12.935,12.935,12.935,12.793,12.793,12.793,12.793,12.793,12.793,12.793,12.793,12.935,12.935,12.793,12.518,12.518,0.0,0.0,0.0,0.0,0.0,0.0,5.415,5.415,5.44,5.44,5.465,5.465,5.465,5.491,5.651,0.0,0.0,0.0,0.0,9.464,10.172,10.88,11.302,11.302,11.302,11.302,11.302,11.302,11.302,11.302,11.526,11.641,11.879,12.001,12.254,12.384,12.518,12.793,12.935,13.381,13.536,13.859,14.026,14.026,14.197,14.197,14.197,14.197,14.026,13.859,13.536,13.229,12.935,12.518,12.254,12.001,11.879,11.641,11.526,11.526,11.302,11.302,11.194,11.194,11.302,11.302,11.641,12.001,12.384,12.793,12.935,13.229,13.536,13.696,13.696,13.696,13.859,13.696,13.536,13.381,13.229,12.793,12.384,11.879,11.526,11.302,10.88,10.779,10.68,10.68,10.68,10.68,10.68,10.68,10.68,10.68,10.68,10.68,10.68,10.779,10.88,10.982,11.194,11.194,11.526,11.879,12.001,12.192499999999999,12.384,12.518,12.793,12.935,12.935,13.229,12.935,12.518,12.384,11.879,11.302,11.087,10.68,10.488,10.302,10.123,9.865,9.464,9.166,9.024,8.56,8.436,8.375,8.315,8.256,8.198,8.141,8.084,7.973,7.866,7.659,7.415,7.186,6.971,6.848,6.768,6.652,6.614,6.577,6.54,6.54,6.54,6.54,6.54,6.54,6.577,6.577,6.614,6.652,6.614,6.614,6.577,6.577,6.54,6.467,6.327,6.095,5.679,5.597,5.517,5.44,5.268,5.174,5.084,5.084,5.04,5.04,5.084,5.04,5.084,5.084,5.04,5.04,5.04,5.04,5.04,5.018,5.018,4.996,5.018,5.04,5.04,5.04,5.018,5.018,4.996,3.6479999999999997,3.6369999999999996,3.6369999999999996,3.2885,2.265,2.265,2.265,2.256,2.252,2.239,2.239,2.239,2.239,2.239,2.243,0.0,0.0,0.0,0.0,0.0,0.0,0.0,0.0,4.188,4.128,4.056,4.028,3.973,3.973,3.933,3.92,3.906,3.893,3.88,3.868,0.0,0.0,0.0,0.0,0.0,0.0,0.0,0.0,1.73,1.712,1.709,1.704,1.702,1.697,1.697,1.69,1.687,1.682,1.675,1.665,1.651,1.637,1.633,1.628,1.626,1.624,1.624,1.624,1.624,1.624,1.624,1.621,1.619,1.617,1.617,1.615,1.612,1.608,1.606,1.599,1.593,1.58,1.57025,1.563,1.554,1.548,1.544,1.544,1.54,1.538,1.536,1.532,1.526,1.522,1.518,1.502,1.496,1.491,1.485,1.479,1.466,1.453,1.428,1.42,1.404,1.388,1.378,1.376,1.373,1.371,1.37,1.368,1.366,1.366,1.366,1.363,1.365,1.363,1.362,1.362,1.362,1.362,1.36,1.36,1.357,1.355,1.355,1.355,1.352,1.352,1.352,1.352,1.352,0.0,0.0,0.0,0.0,0.0,0.0,0.0,0.0,0.0,0.0,0.0,0.0,0.0,0.0,0.0,0.0,0.0,0.0,0.0,0.0,0.0,0.0,0.0,0.0,0.0,0.0,0.0
5.543,5.543,5.543,5.543,5.543,5.543,5.543,5.543,5.543,5.57,5.57,5.57,5.57,5.597,5.597,5.597,5.57,5.57,5.57,5.57,5.543,5.543,5.517,5.491,5.415,5.34,5.316,5.268,5.22,5.174,5.174,5.174,5.22,5.22,5.244,5.268,5.316,5.389,5.415,5.44,5.465,5.517,5.517,5.543,5.543,5.517,5.491,5.465,5.44,5.415,5.389,5.34,5.316,5.268,5.268,5.244,5.244,5.244,5.22,5.244,5.268,5.268,5.316,5.34,5.389,5.44,5.491,5.517,5.517,5.543,5.543,5.543,5.57,5.57,5.57,5.57,5.57,5.57,5.57,5.57,5.597,5.597,5.597,5.679,5.84,6.001,6.225,6.3825,6.54,6.69,6.69,6.69,6.652,6.614,6.54,6.504,6.432,6.361,6.327,6.327,6.327,6.361,6.361,6.432,6.504,6.577,6.652,6.768,7.055,7.21375,7.559,7.866,8.028,8.198,8.315,8.56,8.819,9.024,9.166,9.239,9.313,9.464,9.464,9.542,9.542,9.701,9.783,9.865,9.95,10.036,10.212,10.212,10.302,10.394,10.583,10.583,10.779,10.88,11.087,11.302,11.526,11.526,11.641,11.879,11.879,11.879,11.641,11.526,11.302,11.302,11.194,11.087,10.982,10.982,10.88,10.88,10.779,10.68,10.583,10.583,10.583,10.583,10.583,10.583,10.583,10.68,10.779,10.982,11.194,11.194,11.302,11.302,11.526,11.526,11.641,11.641,11.879,11.879,12.001,12.254,12.254,12.254,12.384,12.384,12.384,12.384,12.384,12.518,12.384,12.384,12.384,12.384,12.518,12.518,12.793,12.793,12.793,12.935,12.935,13.229,13.229,13.229,13.229,13.229,13.229,12.935,12.935,12.935,12.935,12.935,13.229,13.229,12.793,12.793,12.793,0.0,0.0,0.0,0.0,0.0,0.0,5.415,5.44,5.44,5.44,5.465,5.465,5.491,5.491,5.651,0.0,0.0,0.0,0.0,8.819,9.701,10.583,11.087,11.302,11.641,11.526,11.641,11.526,11.641,11.641,11.879,11.879,12.001,12.254,12.384,12.518,12.793,13.229,13.381,13.536,13.859,14.026,14.197,14.197,14.372,14.372,14.372,14.197,14.197,14.026,13.696,13.381,12.935,12.518,12.384,12.001,11.879,11.641,11.526,11.302,11.302,11.302,11.302,11.194,11.302,11.526,11.641,12.001,12.254,12.518,12.935,12.935,13.381,13.381,13.381,13.381,13.381,13.381,13.381,13.229,12.793,12.384,12.254,11.879,11.526,10.982,10.88,10.779,10.68,10.68,10.583,10.583,10.583,10.583,10.68,10.68,10.68,10.68,10.68,10.779,10.88,10.982,11.087,11.194,11.526,11.879,12.001,12.175374999999999,12.254,12.384,12.518,12.793,12.793,12.793,12.518,12.254,12.001,11.526,11.087,10.88,10.583,10.394,10.212,9.95,9.542,9.239,8.955,8.56,8.436,8.375,8.315,8.256,8.198,8.198,8.084,8.028,7.973,7.813,7.559,7.322,7.098,6.888,6.768,6.652,6.614,6.577,6.54,6.467,6.432,6.432,6.432,6.396,6.396,6.432,6.467,6.504,6.54,6.54,6.504,6.467,6.432,6.396,6.259,6.127,5.909,5.624,5.57,5.491,5.389,5.244,5.151,5.084,5.04,5.04,5.04,5.04,5.04,5.04,5.04,5.04,5.04,5.018,5.018,5.018,5.018,3.6414999999999997,3.6260000000000003,3.2880000000000003,2.256,2.256,2.256,2.252,2.252,2.252,2.256,2.256,2.256,2.256,2.256,2.256,2.256,2.252,2.243,2.239,2.239,2.234,2.239,2.243,2.243,2.252,2.252,2.256,2.269,0.0,0.0,0.0,0.0,0.0,0.0,0.0,0.0,0.0,0.0,0.0,0.0,0.0,0.0,0.0,0.0,0.0,0.0,0.0,0.0,1.745,0.0,0.0,1.735,1.72,1.714,1.709,1.707,1.702,1.699,1.697,1.692,1.687,1.682,1.677,1.665,1.656,1.637,1.633,1.63,1.626,1.626,1.624,1.624,1.624,1.624,1.624,1.624,1.621,1.621,1.617,1.615,1.612,1.61,1.603,1.59625,1.588,1.573,1.567,1.563,1.556,1.552,1.548,1.548,1.546,1.546,1.544,1.544,1.54,1.534,1.528,1.52,1.506,1.494,1.489,1.483,1.47275,1.461,1.432,1.425,1.409,1.392,1.381,1.376,1.371,1.37,1.37,1.366,1.366,1.366,1.365,1.363,1.363,1.363,1.362,1.362,1.362,1.36,1.36,1.357,1.357,1.355,1.355,1.355,1.352,1.352,1.352,1.352,0.0,0.0,0.0,0.0,0.0,0.0,0.0,0.0,0.0,0.0,0.0,0.0,0.0,0.0,0.0,0.0,0.0,0.0,0.0,0.0,0.0,0.0,0.0,0.0,0.0,0.0,0.0,0.0
5.57,5.543,5.543,5.543,5.543,5.543,5.543,5.543,5.57,5.57,5.57,5.597,5.597,5.597,5.597,5.597,5.597,5.597,5.597,5.57,5.57,5.543,5.517,5.491,5.389,5.34,5.268,5.244,5.22,5.174,5.174,5.174,5.22,5.244,5.268,5.34,5.389,5.44,5.491,5.517,5.543,5.57,5.57,5.57,5.57,5.543,5.543,5.517,5.465,5.415,5.389,5.34,5.268,5.268,5.244,5.244,5.22,5.22,5.22,5.22,5.244,5.268,5.316,5.34,5.389,5.44,5.491,5.517,5.543,5.543,5.543,5.57,5.57,5.57,5.57,5.57,5.57,5.57,5.57,5.57,5.597,5.597,5.597,0.0,0.0,0.0,0.0,6.361,6.614,6.729,6.729,6.729,6.729,6.69,6.652,6.54,6.504,6.432,6.396,6.396,6.396,6.432,6.504,6.54,6.577,6.614,6.69,6.848,7.0169999999999995,7.186,7.511,7.866,8.028,8.198,8.315,8.56,8.753,8.955,8.955,9.024,9.166,9.239,9.239,9.239,9.313,9.313,9.464,9.542,9.542,9.701,9.783,9.865,10.036,10.123,10.212,10.302,10.394,10.583,10.68,10.779,10.88,10.982,11.194,11.194,11.302,11.302,11.194,11.087,10.982,10.88,10.779,10.68,10.68,10.583,10.488,10.488,10.394,10.302,10.302,10.212,10.302,10.212,10.302,10.394,10.394,10.583,10.68,10.779,11.087,11.087,11.194,11.302,11.526,11.641,11.641,11.879,12.001,12.001,12.254,12.384,12.384,12.384,12.384,12.384,12.384,12.254,12.254,12.254,12.001,12.254,12.254,12.001,12.254,12.254,12.384,12.518,12.793,12.935,13.229,13.381,13.536,13.536,13.381,13.381,13.381,13.381,13.381,13.381,13.229,13.229,13.229,13.229,13.229,12.935,12.935,0.0,0.0,0.0,0.0,0.0,0.0,5.44,5.44,5.44,5.465,5.465,5.465,5.491,5.517,5.624,0.0,0.0,0.0,0.0,8.436,9.5555,10.302,10.88,11.302,11.879,11.879,11.879,11.879,11.879,12.001,12.001,12.001,12.254,12.384,12.518,12.793,12.935,13.229,13.536,13.696,14.026,14.197,14.197,14.372,14.372,14.372,14.372,14.372,14.197,14.026,13.696,13.381,13.229,12.793,12.384,12.254,12.001,11.879,11.526,11.526,11.302,11.302,11.194,11.194,11.302,11.526,11.641,12.001,12.254,12.384,12.518,12.793,12.935,12.935,13.229,13.229,13.229,13.229,12.935,12.793,12.384,12.254,11.879,11.641,11.302,10.88,10.779,10.68,10.68,10.68,10.583,10.583,10.583,10.583,10.583,10.583,10.68,10.68,10.779,10.779,10.88,10.982,11.194,11.302,11.526,11.879,12.0665,12.254,12.254,12.518,12.518,12.518,12.793,12.518,12.384,12.001,11.641,11.194,10.982,10.68,10.394,10.302,10.036,9.701,9.313,9.024,8.56,8.497,8.375,8.315,8.256,8.256,8.198,8.141,8.084,8.028,7.919,7.761,7.511,7.186,6.971,6.808,6.652,6.577,6.54,6.504,6.432,6.361,6.327,6.259,6.225,6.225,6.159,6.159,6.225,6.225,6.327,6.327,6.327,6.259,6.225,6.159,6.095,5.909,5.651,5.597,5.543,5.465,5.316,5.244,5.106,5.084,5.04,5.04,5.018,5.04,5.04,5.04,5.04,5.04,3.668,3.6525,3.304375,2.269,2.265,2.265,2.256,2.252,2.252,2.243,2.252,2.243,2.243,2.243,2.252,2.252,2.252,2.252,2.256,2.256,2.256,2.252,2.252,2.243,2.243,2.243,2.243,2.252,2.256,2.252,2.256,2.265,2.269,2.278,2.278,2.283,2.278,0.0,0.0,0.0,0.0,0.0,0.0,0.0,0.0,0.0,0.0,0.0,0.0,0.0,0.0,0.0,0.0,1.748,1.74,1.738,1.73,1.72,1.712,1.709,1.707,1.702,1.697,1.697,1.692,1.69,1.685,1.68,1.668,1.658,1.649,1.635,1.63,1.628,1.624,1.624,1.624,1.624,1.624,1.624,1.624,1.621,1.621,1.617,1.615,1.612,1.61,1.603,1.595,1.58,1.571,1.565,1.563,1.556,1.554,1.552,1.552,1.552,1.55,1.55,1.548,1.546,1.544,1.54,1.532,1.514,1.5,1.492,1.487,1.481,1.472,1.457,1.43,1.42,1.404,1.384,1.378,1.371,1.37,1.368,1.365,1.365,1.365,1.363,1.363,1.363,1.362,1.362,1.36,1.36,1.36,1.357,1.355,1.355,1.355,1.355,1.355,1.352,1.352,1.352,1.352,0.0,0.0,0.0,0.0,0.0,0.0,0.0,0.0,0.0,0.0,0.0,0.0,0.0,0.0,0.0,0.0,0.0,0.0,0.0,0.0,0.0,0.0,0.0,0.0,0.0,0.0,0.0,0.0
5.57,5.57,5.57,5.57,5.57,5.57,5.57,5.57,5.57,5.57,5.597,5.597,5.597,5.597,5.597,5.597,5.597,5.597,5.597,5.57,5.57,5.543,5.517,5.491,5.415,5.34,5.268,5.244,5.22,5.174,5.22,5.22,5.244,5.268,5.34,5.389,5.44,5.491,5.543,5.57,5.57,5.597,5.597,5.597,5.597,5.57,5.543,5.517,5.465,5.44,5.389,5.316,5.316,5.268,5.244,5.22,5.174,5.174,5.174,5.22,5.22,5.244,5.268,5.34,5.389,5.44,5.491,5.517,5.543,5.543,5.543,5.57,5.57,5.57,5.57,5.57,5.57,5.57,5.57,5.57,5.57,5.57,5.597,0.0,0.0,0.0,0.0,0.0,6.652,6.729,6.729,6.729,6.729,6.69,6.652,6.577,6.54,6.504,6.467,6.467,6.504,6.54,6.577,6.577,6.652,6.69,6.768,6.929,7.06875,7.231,7.559,7.866,8.028,8.141,8.256,8.375,8.56,8.623,8.753,8.819,8.955,8.955,8.955,9.024,9.024,9.024,9.024,9.166,9.166,9.239,9.313,9.313,9.542,9.701,9.783,10.036,10.123,10.302,10.394,10.488,10.583,10.68,10.779,10.982,10.982,10.982,10.88,10.779,10.68,10.68,10.583,10.488,10.488,10.394,10.302,10.302,10.212,10.212,10.123,10.036,10.123,10.123,10.212,10.302,10.302,10.488,10.583,10.68,10.88,10.982,11.087,11.302,11.302,11.641,11.879,11.879,12.001,12.254,12.254,12.384,12.384,12.384,12.384,12.384,12.254,12.254,12.001,12.001,12.001,11.879,11.879,11.641,12.001,12.254,12.254,12.518,12.793,12.935,13.229,13.536,13.696,13.696,13.536,13.696,13.696,13.536,13.381,13.381,13.381,13.381,13.381,13.381,13.229,13.229,12.935,0.0,0.0,0.0,0.0,5.44,5.44,5.44,5.44,5.44,5.465,5.465,5.465,5.491,5.517,5.597,5.821,0.0,0.0,0.0,8.198,9.783,10.183,10.583,11.087,12.001,12.001,12.001,12.001,12.001,12.001,12.254,12.254,12.384,12.518,12.793,12.935,13.229,13.381,13.696,13.859,14.197,14.197,14.372,14.372,14.552,14.372,14.552,14.372,14.197,14.197,13.859,13.696,13.381,12.935,12.793,12.384,12.254,12.001,11.879,11.641,11.641,11.526,11.526,11.302,11.526,11.641,11.879,12.001,12.254,12.384,12.518,12.793,12.793,12.793,12.793,12.935,12.793,12.518,12.518,12.384,12.254,12.001,11.526,11.302,10.982,10.779,10.68,10.68,10.68,10.583,10.583,10.583,10.583,10.583,10.583,10.68,10.68,10.68,10.779,10.88,10.982,11.087,11.302,11.526,11.641,11.879,12.113375,12.254,12.384,12.384,12.518,12.384,12.384,12.254,12.001,11.879,11.302,10.982,10.68,10.583,10.302,10.123,9.865,9.464,9.166,8.819,8.497,8.375,8.315,8.256,8.256,8.198,8.198,8.084,8.084,7.973,7.866,7.659,7.368,7.098,6.888,6.729,6.614,6.54,6.504,6.432,6.361,6.225,6.159,6.095,6.032,6.001,5.939,5.909,5.85,5.85,5.909,5.939,5.939,5.939,5.8945,5.85,5.85,5.735,5.597,5.543,5.491,5.389,5.268,5.174,5.106,5.04,5.04,5.018,5.018,0.0,0.0,3.682,2.319,2.314,2.296,2.287,2.278,2.265,2.256,2.252,2.252,2.243,2.243,2.243,2.243,2.239,2.243,2.252,2.252,2.256,2.252,2.256,2.252,2.252,2.256,2.256,2.252,2.252,2.252,2.256,2.256,2.256,2.256,2.265,2.265,2.269,2.278,2.283,2.283,2.283,2.283,2.278,2.269,2.252,0.0,0.0,0.0,0.0,2.071,2.053,2.025,2.0004999999999997,1.976,1.966,1.887,1.808,1.782,1.756,1.74,1.735,1.73,1.727,1.714,1.709,1.707,1.704,1.699,1.697,1.692,1.69,1.687,1.68,1.673,1.658,1.649,1.633,1.628,1.626,1.624,1.624,1.624,1.624,1.624,1.624,1.624,1.624,1.621,1.619,1.617,1.612,1.6087500000000001,1.601,1.593,1.577,1.571,1.563,1.563,1.558,1.556,1.556,1.558,1.558,1.55825,1.558,1.556,1.554,1.552,1.546,1.544,1.536,1.512,1.5,1.4935,1.487,1.481,1.47,1.453,1.425,1.409,1.386,1.378,1.371,1.37,1.366,1.366,1.366,1.363,1.365,1.363,1.363,1.362,1.362,1.36,1.36,1.36,1.357,1.357,1.355,1.355,1.355,1.352,1.352,1.352,0.0,0.0,0.0,0.0,0.0,0.0,0.0,0.0,0.0,0.0,0.0,0.0,0.0,0.0,0.0,0.0,0.0,0.0,0.0,0.0,0.0,0.0,0.0,0.0,0.0,0.0,0.0,0.0,0.0,0.0
