0,0,0,0,0,0,0,0,0,0,0,0,5.316,5.268,5.268,5.268,5.268,5.268,5.316,5.34,5.389,5.415,5.44,5.465,5.517,5.543,5.543,5.57,5.57,5.597,5.597,5.624,5.624,5.624,5.624,5.624,5.57,5.57,5.543,5.517,5.465,5.415,5.389,5.316,5.268,5.268,5.244,5.244,5.22,5.22,5.22,5.22,5.244,5.268,5.316,5.34,5.389,5.415,5.44,5.465,5.465,5.465,5.465,5.465,5.44,5.415,5.389,5.316,5.268,5.174,5.151,5.084,5.04,4.996,4.996,5.018,5.018,5.04,5.106,5.151,5.174,5.244,5.268,5.316,5.34,5.389,5.415,5.44,5.44,5.465,5.491,5.491,5.491,5.491,5.491,5.491,5.465,5.44,5.44,5.44,5.415,5.415,5.415,5.415,5.415,5.44,5.44,5.465,5.491,5.491,5.517,5.543,5.543,5.57,5.57,5.57,5.57,5.57,5.57,5.543,5.543,5.517,5.491,5.491,5.491,5.465,5.44,5.465,5.465,5.465,5.465,5.465,5.465,5.465,5.465,5.465,5.44,5.44,5.44,5.44,5.44,5.44,5.44,5.44,5.44,5.44,5.44,5.415,5.44,5.44,5.44,5.44,5.415,5.415,5.415,5.415,5.389,5.389,5.389,5.389,5.389,5.389,5.34,5.34,5.34,5.389,5.389,5.389,5.415,5.415,5.415,5.415,5.415,5.415,5.415,5.415,5.415,5.415,5.415,5.415,5.415,5.415,5.415,5.415,5.389,5.389,5.389,5.389,5.389,5.389,5.389,5.389,5.389,5.415,5.415,5.44,5.44,5.44,5.465,5.465,5.465,5.465,5.465,5.465,5.44,5.44,5.415,5.415,5.415,5.389,5.34,5.34,5.316,5.316,5.268,5.268,5.244,5.22,5.22,5.174,5.174,5.174,5.174,5.174,5.174,5.174,5.174,5.174,5.174,5.174,5.174,5.174,5.174,5.22,5.22,5.244,5.268,5.268,5.316,5.34,5.389,5.389,5.389,5.415,5.415,5.415,5.415,5.415,5.415,5.389,5.389,5.34,5.316,5.268,5.244,5.244,5.22,5.174,5.174,5.174,5.151,5.151,5.151,5.151,5.151,5.151,5.22,5.22,5.22,5.244,5.244,5.268,5.268,5.268,5.268,5.268,5.268,5.316,5.316,5.316,5.316,5.268,5.268,5.244,5.244,5.22,5.22,5.174,5.174,5.174,5.174,5.22,5.22,5.22,5.244,5.244,5.268,5.268,5.316,5.34,5.34,5.389,5.389,5.415,5.415,5.465,5.465,5.491,5.597,5.909,6.54,0,0,0,9.239,0,10.123,10.488,10.68,10.982,11.087,11.087,11.194,11.302,11.302,11.302,11.302,11.641,11.302,11.194,11.087,10.88,10.68,10.302,10.036,9.464,8.955,8.497,8.256,8.084,7.866,7.659,7.055,6.888,6.768,6.729,6.652,6.577,6.54,6.396,0,0,0,0,5.821,5.821,0,0,6.095,6.127,6.327,6.396,6.396,6.432,0,6.614,6.69,6.768,6.929,7.055,7.098,7.231,7.231,7.231,7.231,7.231,7.186,7.231,7.231,7.231,7.368,7.415,7.415,7.659,0,8.084,0,8.375,8.955,0,10.212,10.583,10.982,11.302,11.526,11.641,11.641,11.641,11.641,11.641,11.641,11.641,11.641,11.526,11.302,11.302,11.194,11.087,10.982,10.88,10.779,10.68,10.583,10.583,10.488,10.394,10.302,10.212,10.036,9.865,9.464,9.313,9.239,9.239,9.313,9.239,9.166,9.166,8.955,8.819,8.56,8.375,8.256,8.084,7.919,0,7.322,6.888,6.729,6.614,6.577,6.504,6.432,6.361,6.259,6.159,6.159,6.127,6.095,5.821,5.735,5.679,5.624,5.57,5.543,5.491,5.415,5.34,5.316,5.316,5.268,5.268,5.268,5.244,5.244,5.244,5.22,5.22,5.22,5.22,5.244,5.22,5.22,5.244,5.244,5.244,5.268,5.268,5.268,5.244,5.244,5.22,5.151,5.106,5.084,5.04,5.018,5.018,5.018,5.018,5.018,5.018,5.018,5.018,5.018,5.018,5.018,5.018,5.018,5.04,5.084,5.084,5.106,5.151,5.151,5.174,5.174,5.174,5.174,5.174,5.174,5.151,5.151,5.106,5.084,5.04,5.018,4.996,4.975,4.954,4.912,4.891,4.851,4.81,4.752,4.512,4.393,4.312,4.264,4.233,4.173,4.114,4.07,4.014,3.933,3.92,3.88,3.868,3.842,3.817,3.792,3.743,3.672,3.615,3.538,3.485,3.465,3.454,3.444,3.424,3.404,3.394,3.365,3.355,3.326,3.298,3.288,3.288,3.27,3.27,3.27,3.288,3.298,3.326,3.355,3.394,3.424,3.454,3.485,3.506,3.549,3.615,3.696,3.755,3.792,3.804,3.817,3.817,3.817,3.817,3.817,3.817,3.817,3.804,3.804,3.804,3.804,3.804,3.792,3.767,3.755,3.731,3.696,3.672,3.627,3.593,3.56,3.517,3.506,3.496,3.485,3.475,3.465,3.454,3.454,3.444,3.434,3.414,3.404,3.394,3.384,3.365,3.336,3.336,3.336,3.326,3.326,3.326,3.326,3.326,3.336,3.326,3.355,0,0,0,0,0,0,0,0,0,0,0,0,0,0,0,0,0
0,0,0,0,0,0,0,0,0,0,0,5.174,5.174,5.151,5.106,5.151,5.151,5.174,5.22,0,5.244,5.268,5.316,5.34,5.44,5.465,5.491,5.491,5.517,5.543,5.57,5.57,5.597,5.597,5.597,5.597,5.57,5.543,5.491,5.465,5.415,5.34,5.316,5.268,5.244,5.22,5.174,5.151,5.151,5.151,5.151,5.151,5.174,5.174,5.22,5.244,5.268,5.316,5.34,5.389,5.389,5.389,5.389,5.389,5.34,5.316,5.268,5.244,5.151,5.106,5.084,5.04,4.996,4.975,4.975,4.996,5.018,5.04,5.106,5.151,5.22,5.244,5.268,5.316,5.34,5.389,5.415,5.44,5.44,5.465,5.491,5.491,5.517,5.517,5.491,5.491,5.491,5.491,5.465,5.465,5.465,5.44,5.44,5.44,5.44,5.44,5.44,5.465,5.465,5.491,5.491,5.517,5.543,5.543,5.543,5.543,5.543,5.543,5.543,5.543,5.517,5.517,5.491,5.491,5.465,5.465,5.465,5.465,5.491,5.465,5.465,5.465,5.465,5.465,5.465,5.44,5.44,5.44,5.44,5.44,5.44,5.44,5.44,5.44,5.44,5.44,5.44,5.44,5.44,5.44,5.44,5.44,5.44,5.44,5.44,5.44,5.415,5.415,5.389,5.389,5.389,5.389,5.389,5.34,5.389,5.389,5.389,5.415,5.415,5.415,5.415,5.415,5.415,5.415,5.415,5.415,5.415,5.415,5.415,5.415,5.415,5.415,5.415,5.389,5.389,5.389,5.34,5.34,5.316,5.34,5.34,5.34,5.34,5.389,5.415,5.44,5.44,5.465,5.465,5.465,5.465,5.465,5.465,5.44,5.44,5.44,5.415,5.389,5.389,5.389,5.34,5.316,5.316,5.268,5.268,5.244,5.22,5.22,5.174,5.174,5.174,5.151,5.151,5.151,5.151,5.151,5.151,5.151,5.151,5.151,5.151,5.151,5.151,5.174,5.174,5.22,5.244,5.268,5.268,5.34,5.34,5.389,5.389,5.389,5.415,5.415,5.415,5.415,5.415,5.389,5.34,5.34,5.316,5.268,5.268,5.22,5.174,5.174,5.151,5.151,5.151,5.151,5.151,5.151,5.151,5.174,5.22,5.22,5.244,5.244,5.268,5.316,5.316,5.316,5.316,5.316,5.316,5.316,5.316,5.316,5.268,5.268,5.268,5.244,5.22,5.22,5.174,5.174,5.151,5.174,5.174,5.174,5.22,5.22,5.22,5.244,5.268,5.268,5.316,5.34,5.389,5.389,5.415,5.44,5.44,5.517,5.543,5.597,5.763,0,0,0,0,0,0,10.394,10.88,11.641,12.384,12.384,12.254,12.001,12.001,11.879,11.526,11.526,11.302,11.194,11.087,10.982,10.779,10.68,10.302,10.212,9.783,9.313,8.819,8.497,8.315,8.084,7.973,7.709,7.186,6.971,6.848,6.729,6.69,6.614,6.577,6.467,0,0,0,6.001,6.001,5.939,0,0,0,6.259,6.432,6.54,6.54,0,0,6.729,0,6.971,7.186,7.322,7.368,7.511,7.559,7.511,7.415,7.415,7.415,7.415,7.511,7.511,7.559,7.709,7.761,7.866,8.028,0,8.256,8.753,9.464,10.036,10.394,10.68,11.194,11.302,11.641,11.879,11.879,11.879,11.879,11.879,11.879,11.879,11.641,11.526,11.526,11.302,11.194,11.087,10.982,10.88,10.779,10.68,10.68,10.583,10.488,10.394,10.302,10.212,10.036,9.865,9.542,9.239,9.239,9.166,9.166,9.024,9.024,8.955,8.753,8.623,8.497,8.315,8.198,8.084,7.973,7.813,7.368,7.098,6.848,6.729,6.614,6.577,6.504,6.432,6.361,6.259,6.259,6.225,6.127,5.85,5.763,5.679,5.624,5.57,5.543,5.491,5.415,5.34,5.316,5.268,5.268,5.244,5.244,5.244,5.22,5.22,5.22,5.22,5.22,5.22,5.22,5.22,5.22,5.22,5.22,5.244,5.244,5.244,5.244,5.244,5.22,5.174,5.151,5.106,5.084,5.04,5.018,5.018,5.018,5.018,5.018,5.04,5.04,5.04,5.04,5.04,5.04,5.04,5.04,5.084,5.084,5.106,5.151,5.151,5.151,5.174,5.174,5.174,5.174,5.174,5.174,5.151,5.106,5.084,5.084,5.04,5.018,4.975,4.954,4.912,4.891,4.851,4.83,4.771,4.694,4.426,4.328,4.28,4.218,4.158,4.07,4.028,3.973,3.906,3.88,3.868,3.855,3.829,3.817,3.792,3.755,3.707,3.649,3.582,3.528,3.475,3.454,3.444,3.434,3.414,3.384,3.365,3.355,3.336,3.317,3.288,3.288,3.27,3.27,3.27,3.27,3.288,3.298,3.326,3.355,3.394,3.424,3.444,3.475,3.496,3.538,3.615,3.672,3.767,3.792,3.804,3.817,3.817,3.817,3.817,3.817,3.817,3.817,3.817,3.817,3.817,3.804,3.804,3.804,3.78,3.767,3.743,3.707,3.672,3.649,3.593,3.56,3.517,3.506,3.485,3.485,3.475,3.465,3.454,3.444,3.434,3.424,3.414,3.394,3.384,3.365,3.355,3.336,3.326,3.326,3.317,3.317,3.326,3.317,3.326,3.326,3.326,3.336,0,0,0,0,0,0,0,0,0,0,0,0,0,0,0,0,0
0,0,0,0,0,0,0,0,0,0,5.04,5.04,5.018,5.04,5.04,4.996,4.996,5.018,5.084,5.084,5.106,5.174,5.244,5.316,0,5.34,5.389,5.415,5.44,5.491,5.517,5.543,5.543,5.57,5.57,5.543,5.543,5.491,5.44,5.389,5.316,5.244,5.22,5.174,5.151,5.106,5.106,5.084,5.084,5.04,5.04,5.084,5.084,5.106,5.106,5.174,5.174,5.244,5.244,5.268,5.268,5.268,5.268,5.268,5.244,5.244,5.174,5.106,5.084,5.04,5.04,5.018,4.996,4.975,4.996,4.996,5.018,5.04,5.106,5.151,5.22,5.244,5.268,5.316,5.34,5.389,5.415,5.44,5.44,5.465,5.491,5.491,5.517,5.517,5.491,5.491,5.491,5.491,5.491,5.465,5.465,5.465,5.465,5.44,5.465,5.465,5.465,5.465,5.465,5.465,5.491,5.491,5.517,5.543,5.543,5.543,5.543,5.543,5.543,5.543,5.543,5.517,5.517,5.491,5.491,5.491,5.491,5.491,5.491,5.491,5.491,5.491,5.465,5.465,5.465,5.44,5.44,5.44,5.44,5.44,5.44,5.44,5.44,5.44,5.44,5.44,5.44,5.44,5.44,5.44,5.44,5.44,5.44,5.44,5.44,5.44,5.44,5.415,5.415,5.415,5.415,5.415,5.389,5.389,5.389,5.389,5.415,5.415,5.415,5.415,5.415,5.415,5.415,5.415,5.415,5.415,5.415,5.415,5.415,5.415,5.415,5.415,5.389,5.389,5.389,5.34,5.34,5.316,5.316,5.316,5.316,5.34,5.34,5.34,5.389,5.44,5.44,5.465,5.465,5.465,5.465,5.465,5.465,5.465,5.44,5.44,5.415,5.389,5.389,5.34,5.34,5.316,5.316,5.268,5.268,5.244,5.22,5.22,5.174,5.174,5.151,5.151,5.106,5.106,5.106,5.106,5.106,5.106,5.106,5.106,5.106,5.151,5.174,5.174,5.22,5.244,5.268,5.316,5.34,5.34,5.389,5.415,5.415,5.415,5.415,5.415,5.44,5.415,5.415,5.415,5.34,5.316,5.316,5.268,5.244,5.22,5.22,5.174,5.174,5.174,5.174,5.151,5.151,5.151,5.174,5.22,5.22,5.244,5.268,5.316,5.316,5.34,5.34,5.34,5.34,5.34,5.34,5.316,5.316,5.316,5.316,5.268,5.268,5.244,5.22,5.174,5.151,5.151,5.151,5.151,5.151,5.174,5.174,5.22,5.22,5.244,5.268,5.316,5.34,5.34,5.389,5.415,5.44,5.465,5.465,5.543,5.597,5.679,6.127,0,0,0,0,0,9.95,10.583,11.087,12.001,12.254,12.001,11.879,11.879,11.879,11.641,11.302,11.194,11.194,11.087,10.88,10.68,10.68,10.488,10.212,0,9.542,9.166,8.753,8.436,8.315,8.198,8.028,7.813,7.559,7.055,6.888,6.768,6.69,6.614,6.577,6.504,6.361,0,6.095,6.032,6.001,6.001,6.032,0,0,6.259,6.432,6.54,6.577,6.577,0,6.808,6.971,7.231,7.511,7.659,7.709,0,7.761,7.813,7.761,7.761,7.761,7.761,7.813,7.813,7.866,7.919,7.973,0,8.084,8.256,8.497,9.166,0,10.212,10.488,10.68,11.087,11.526,11.641,11.879,11.879,11.879,11.879,11.879,11.879,11.641,11.641,11.526,11.526,11.302,11.194,11.087,10.982,10.88,10.68,10.68,10.68,10.583,10.488,10.394,10.302,10.212,10.123,9.95,9.542,9.464,9.239,9.024,8.955,8.819,8.819,8.56,8.497,8.375,8.315,8.198,8.084,8.028,7.973,7.866,7.709,7.231,6.971,6.768,6.69,6.614,6.54,6.504,6.432,6.361,6.327,6.225,6.159,5.85,5.735,5.679,5.624,5.57,5.543,5.465,5.389,5.316,5.316,5.268,5.244,5.244,5.244,5.22,5.22,5.22,5.22,5.22,5.22,5.22,5.174,5.174,5.174,5.151,5.174,5.174,5.22,5.22,5.22,5.22,5.174,5.174,5.106,5.106,5.084,5.04,5.018,5.018,5.018,5.04,5.04,5.04,5.04,5.084,5.084,5.084,5.084,5.084,5.084,5.106,5.106,5.151,5.151,5.174,5.174,5.174,5.22,5.174,5.174,5.174,5.151,5.151,5.106,5.04,5.018,4.996,4.975,4.954,4.933,4.891,4.871,4.83,4.791,4.713,4.46,4.344,4.28,4.249,4.158,4.056,3.987,3.933,3.868,3.855,3.855,3.829,3.817,3.804,3.78,3.743,3.707,3.661,3.615,3.549,3.506,3.465,3.454,3.444,3.414,3.394,3.384,3.355,3.336,3.326,3.317,3.288,3.27,3.27,3.261,3.261,3.27,3.288,3.298,3.326,3.355,3.394,3.414,3.444,3.475,3.496,3.538,3.615,3.696,3.767,3.804,3.817,3.829,3.829,3.829,3.829,3.829,3.829,3.829,3.817,3.817,3.817,3.817,3.817,3.804,3.792,3.78,3.755,3.731,3.696,3.649,3.615,3.56,3.549,3.506,3.485,3.485,3.465,3.465,3.454,3.444,3.424,3.404,3.394,3.384,3.355,3.336,3.326,3.317,3.317,3.317,3.298,3.298,3.298,3.298,3.317,3.317,3.317,3.326,0,0,0,0,0,0,0,0,0,0,0,0,0,0,0,0,0
0,0,0,0,0,0,0,0,0,0,0,4.975,4.954,4.954,4.933,4.933,4.933,4.954,4.975,4.975,5.018,5.04,5.106,5.151,5.174,5.22,5.268,5.316,5.34,5.415,5.465,5.491,5.517,5.517,5.517,5.517,5.491,5.44,5.34,5.268,5.22,5.174,5.151,5.106,5.084,5.084,5.04,5.018,5.018,5.018,4.996,5.018,5.018,5.018,5.04,5.084,5.106,5.151,5.151,5.174,5.174,5.174,5.174,5.174,5.174,5.106,5.084,5.04,5.04,5.018,5.018,4.996,4.996,4.996,5.018,5.018,5.04,5.084,5.106,5.174,5.22,5.244,5.268,5.316,5.34,5.389,5.415,5.415,5.44,5.465,5.465,5.491,5.491,5.517,5.517,5.491,5.491,5.491,5.491,5.491,5.491,5.465,5.465,5.465,5.465,5.465,5.465,5.465,5.465,5.491,5.491,5.491,5.517,5.517,5.543,5.543,5.543,5.543,5.543,5.543,5.517,5.517,5.517,5.517,5.517,5.517,5.517,5.491,5.517,5.517,5.517,5.491,5.491,5.465,5.465,5.465,5.44,5.44,5.44,5.44,5.44,5.44,5.44,5.44,5.44,5.44,5.44,5.44,5.44,5.44,5.44,5.44,5.44,5.44,5.44,5.44,5.44,5.44,5.44,5.44,5.415,5.415,5.415,5.415,5.415,5.415,5.415,5.415,5.415,5.415,5.415,5.415,5.415,5.415,5.415,5.415,5.415,5.415,5.415,5.415,5.415,5.389,5.389,5.389,5.34,5.34,5.316,5.268,5.268,5.268,5.268,5.316,5.34,5.34,5.389,5.415,5.44,5.465,5.465,5.465,5.465,5.465,5.465,5.465,5.44,5.44,5.415,5.415,5.389,5.389,5.389,5.34,5.316,5.316,5.268,5.244,5.244,5.22,5.174,5.174,5.151,5.151,5.106,5.106,5.106,5.106,5.106,5.106,5.151,5.151,5.151,5.174,5.22,5.22,5.244,5.268,5.316,5.316,5.34,5.389,5.389,5.415,5.44,5.415,5.44,5.44,5.415,5.415,5.415,5.415,5.389,5.316,5.316,5.34,5.389,5.44,5.465,5.491,5.543,5.57,5.597,5.624,5.624,5.597,5.57,5.57,5.543,5.543,5.491,5.465,5.415,5.389,5.389,5.389,5.389,5.389,5.389,5.34,5.34,5.316,5.316,5.268,5.316,5.268,5.244,5.22,5.174,5.106,0,5.151,5.151,0,5.174,5.22,5.22,5.244,5.268,5.316,5.34,5.389,5.415,5.44,5.465,5.465,5.491,5.597,5.679,5.821,6.432,0,0,0,0,0,10.302,10.779,11.302,11.641,11.879,11.879,11.879,11.641,11.641,11.526,11.194,11.087,10.982,10.779,10.68,10.583,10.488,10.302,10.123,0,9.464,9.166,8.819,8.497,8.375,8.198,8.028,7.866,7.231,6.971,6.848,6.729,6.69,6.614,6.577,6.504,6.361,6.225,6.127,6.095,6.032,6.032,6.095,6.127,6.259,6.396,6.54,6.614,6.614,6.69,6.808,6.971,7.231,7.415,0,7.761,7.813,7.919,7.973,8.028,8.028,7.973,7.973,7.973,8.028,7.973,8.028,8.028,8.084,8.141,8.256,8.497,9.024,9.701,0,10.302,10.583,10.88,11.194,11.302,11.641,11.641,11.641,11.641,11.641,11.641,11.641,11.641,11.526,11.302,11.302,11.194,11.194,11.087,10.982,10.88,10.779,10.68,10.68,10.583,10.583,10.394,10.394,10.302,10.212,10.036,9.95,9.542,9.313,9.166,9.024,8.819,8.623,8.497,8.436,8.315,8.256,8.198,8.084,8.028,7.973,7.919,7.813,7.368,7.098,6.929,6.768,6.69,6.577,6.54,6.504,6.432,6.361,6.259,6.159,5.85,5.735,5.679,5.597,5.57,5.517,5.465,5.389,5.316,5.268,5.268,5.244,5.22,5.22,5.22,5.22,5.22,5.22,5.22,5.22,5.22,5.151,5.151,5.151,5.151,5.151,5.151,5.174,5.174,5.174,5.174,5.174,5.151,5.151,5.106,5.084,5.04,5.04,5.04,5.04,5.084,5.084,5.084,5.084,5.084,5.106,5.106,5.084,5.084,5.084,5.106,5.106,5.151,5.174,5.174,5.174,5.22,5.22,5.174,5.174,5.174,5.151,5.106,5.084,5.04,5.018,4.996,4.975,4.933,4.891,4.851,4.83,4.771,4.713,4.477,4.36,4.296,4.249,4.158,4.056,3.973,3.906,3.868,3.855,3.829,3.817,3.817,3.804,3.767,3.743,3.696,3.661,3.615,3.56,3.528,3.465,3.454,3.444,3.424,3.404,3.394,3.355,3.355,3.326,3.317,3.298,3.288,3.27,3.27,3.27,3.27,3.288,3.288,3.317,3.326,3.355,3.394,3.424,3.444,3.465,3.496,3.538,3.615,3.707,3.78,3.804,3.817,3.829,3.829,3.829,3.829,3.829,3.829,3.829,3.817,3.829,3.817,3.817,3.817,3.804,3.804,3.792,3.767,3.743,3.696,3.661,3.615,3.582,3.549,3.496,3.485,3.485,3.465,3.454,3.444,3.424,3.404,3.384,3.365,3.336,3.326,3.317,3.317,3.298,3.288,3.288,3.288,3.288,3.288,3.288,3.288,3.288,3.288,3.298,0,0,0,0,0,0,0,0,0,0,0,0,0,0,0,0,0
0,0,0,0,0,0,0,0,0,0,0,0,4.912,4.912,4.891,4.891,4.891,4.891,4.912,4.912,4.933,4.954,4.996,5.018,5.04,5.106,5.151,5.174,5.244,5.316,5.389,5.44,5.465,5.465,5.491,5.465,5.44,5.389,5.268,5.22,5.174,5.106,5.084,5.04,5.018,5.018,4.996,4.975,4.975,4.975,4.975,4.975,4.975,4.996,4.996,5.018,5.04,5.084,5.084,5.106,5.106,5.106,5.106,5.106,5.084,5.084,5.084,5.04,5.04,5.04,5.04,5.04,5.04,5.04,5.04,5.084,5.084,5.106,5.151,5.174,5.22,5.244,5.268,5.316,5.34,5.389,5.415,5.415,5.44,5.44,5.465,5.491,5.491,5.517,5.517,5.517,5.491,5.491,5.491,5.491,5.491,5.491,5.465,5.491,5.465,5.465,5.465,5.465,5.465,5.465,5.491,5.491,5.517,5.517,5.543,5.543,5.543,5.543,5.543,5.543,5.543,5.517,5.517,5.517,5.517,5.543,5.517,5.543,5.543,5.543,5.517,5.517,5.491,5.491,5.465,5.465,5.44,5.44,5.44,5.44,5.44,5.44,5.44,5.44,5.44,5.44,5.44,5.44,5.44,5.44,5.44,5.465,5.465,5.44,5.44,5.44,5.44,5.44,5.44,5.44,5.44,5.44,5.44,5.44,5.44,5.44,5.44,5.44,5.44,5.44,5.415,5.415,5.415,5.415,5.415,5.415,5.415,5.415,5.415,5.389,5.389,5.389,5.389,5.389,5.34,5.316,5.268,5.268,5.244,5.244,5.244,5.244,5.268,5.316,5.34,5.389,5.415,5.44,5.465,5.465,5.465,5.465,5.465,5.465,5.465,5.44,5.44,5.44,5.415,5.389,5.389,5.34,5.34,5.316,5.316,5.268,5.244,5.22,5.174,5.174,5.151,5.151,5.106,5.106,5.106,5.106,5.106,5.106,5.151,5.151,5.151,5.151,5.174,5.22,5.244,5.268,5.316,5.34,5.34,5.415,5.44,5.44,5.44,5.44,5.44,5.415,5.44,5.44,5.415,5.389,5.34,5.316,5.389,5.491,5.57,5.597,5.707,5.792,5.909,6.095,6.159,6.225,6.225,6.225,6.095,6.032,5.85,5.763,5.679,5.624,5.57,5.491,5.44,5.44,5.44,5.415,5.415,5.415,5.415,5.34,5.34,5.316,5.316,5.268,5.244,5.244,5.174,5.174,5.151,5.151,5.174,5.174,5.174,5.22,5.244,5.268,5.316,5.34,5.389,5.415,5.44,5.44,5.465,5.491,5.543,5.651,5.792,6.159,6.614,0,7.415,0,0,0,10.488,10.982,11.302,11.641,11.641,11.879,11.641,11.526,11.526,11.302,11.194,11.087,10.88,10.68,10.583,10.583,10.302,10.212,10.036,0,9.542,9.239,8.955,8.623,8.436,8.256,8.141,7.973,7.231,6.971,6.848,6.729,6.69,6.614,6.577,6.54,6.396,6.327,6.159,0,6.095,6.095,6.159,6.259,6.396,6.504,6.614,6.69,6.768,6.888,7.186,7.415,0,7.659,7.866,7.973,8.028,8.141,8.198,8.198,8.198,8.198,8.198,8.198,8.198,8.198,8.256,8.256,8.315,8.436,8.623,9.166,9.701,10.036,10.302,10.488,10.68,10.88,11.194,11.302,11.526,11.641,11.641,11.641,11.641,11.641,11.641,11.526,11.526,11.302,11.302,11.194,11.194,11.087,10.982,10.779,10.779,10.68,10.68,10.583,10.583,10.488,10.394,10.302,10.212,10.123,9.95,9.542,9.313,9.166,8.955,8.753,8.56,8.436,8.256,8.198,8.256,8.198,8.141,8.084,8.028,7.973,7.919,7.761,7.322,7.055,6.848,6.729,6.614,6.54,6.504,6.396,6.361,6.259,6.127,5.85,5.735,5.679,5.597,5.57,5.517,5.44,5.389,5.316,5.244,5.244,5.244,5.22,5.22,5.22,5.22,5.22,5.22,5.22,5.22,5.174,5.151,5.151,5.106,5.106,5.151,5.151,5.151,5.174,5.174,5.174,5.174,5.174,5.174,5.151,5.106,5.084,5.084,5.084,5.084,5.084,5.084,5.106,5.106,5.106,5.106,5.106,5.106,5.106,5.106,5.106,5.151,5.174,5.174,5.174,5.174,5.22,5.22,5.22,5.174,5.174,5.151,5.106,5.04,5.018,4.996,4.975,4.933,4.912,4.851,4.83,4.791,4.713,4.583,4.376,4.312,4.249,4.173,4.056,3.946,3.893,3.855,3.842,3.829,3.817,3.804,3.792,3.767,3.743,3.707,3.661,3.615,3.56,3.538,3.496,3.465,3.444,3.434,3.414,3.394,3.384,3.355,3.336,3.326,3.317,3.298,3.288,3.288,3.27,3.27,3.288,3.288,3.298,3.317,3.336,3.355,3.394,3.424,3.444,3.465,3.496,3.538,3.615,3.707,3.78,3.817,3.817,3.829,3.829,3.829,3.829,3.829,3.829,3.829,3.829,3.829,3.829,3.817,3.817,3.817,3.804,3.804,3.78,3.755,3.707,3.672,3.649,3.593,3.549,3.496,3.485,3.465,3.454,3.444,3.434,3.404,3.384,3.355,3.336,3.326,3.317,3.298,3.288,3.27,3.261,3.27,3.261,3.261,3.261,3.261,3.261,3.261,3.261,3.261,0,0,0,0,0,0,0,0,0,0,0,0,0,0,0,0,0
0,0,0,0,0,0,0,0,0,0,0,4.891,4.871,4.871,4.851,4.851,4.851,4.851,4.851,4.871,4.891,4.891,4.912,4.954,4.975,4.996,5.018,5.084,5.151,5.244,5.316,5.34,5.415,5.44,5.44,5.44,5.415,5.34,5.268,5.174,5.106,5.04,5.04,5.018,4.996,4.996,4.975,4.975,4.954,4.954,4.933,4.933,4.954,4.954,4.954,4.975,4.996,5.018,5.018,5.04,5.04,5.04,5.04,5.04,5.04,5.04,5.04,5.04,5.04,5.084,5.084,5.084,5.084,5.106,5.106,5.106,5.151,5.174,5.174,5.244,5.244,5.268,5.316,5.316,5.34,5.389,5.389,5.415,5.44,5.44,5.465,5.491,5.491,5.491,5.491,5.491,5.491,5.491,5.491,5.491,5.491,5.491,5.491,5.491,5.491,5.491,5.491,5.491,5.491,5.491,5.517,5.517,5.517,5.543,5.543,5.543,5.543,5.543,5.543,5.543,5.543,5.543,5.543,5.543,5.543,5.543,5.543,5.543,5.543,5.543,5.543,5.517,5.517,5.491,5.465,5.465,5.465,5.44,5.44,5.44,5.44,5.44,5.44,5.415,5.415,5.415,5.415,5.44,5.44,5.44,5.44,5.44,5.44,5.44,5.44,5.44,5.465,5.465,5.465,5.465,5.465,5.465,5.465,5.44,5.44,5.44,5.44,5.44,5.44,5.44,5.44,5.44,5.44,5.415,5.415,5.415,5.389,5.389,5.389,5.389,5.389,5.34,5.316,5.316,5.316,5.268,5.244,5.22,5.174,5.174,5.22,5.22,5.244,5.268,5.316,5.389,5.415,5.44,5.465,5.465,5.491,5.491,5.491,5.491,5.491,5.44,5.44,5.44,5.415,5.415,5.389,5.34,5.34,5.316,5.316,5.268,5.244,5.244,5.22,5.174,5.151,5.151,5.151,5.106,5.106,5.106,5.106,5.106,5.151,5.151,5.151,5.174,5.22,5.22,5.268,5.316,5.316,5.389,5.389,5.415,5.44,5.465,5.465,5.44,5.44,5.517,5.517,5.517,5.543,5.57,5.597,5.543,5.543,5.707,6.095,0,6.361,6.504,6.54,6.614,6.69,6.729,6.729,6.768,6.768,6.729,6.69,6.577,6.327,6.032,5.763,5.597,5.543,5.465,5.44,5.415,5.415,5.415,5.389,5.389,5.389,5.34,5.34,5.316,5.316,5.244,5.22,5.22,5.174,5.174,5.22,5.22,5.22,5.244,5.268,5.316,5.316,5.389,5.415,5.415,5.44,5.465,5.491,5.517,5.57,5.707,6.032,6.432,6.808,0,7.813,8.436,0,10.036,10.583,11.087,11.302,11.641,11.879,11.641,11.641,11.526,11.302,11.194,11.087,10.982,10.779,10.68,10.583,10.394,10.394,10.212,10.036,9.865,9.701,9.464,9.166,8.819,8.753,8.497,8.256,8.084,7.866,7.186,6.888,6.768,6.69,6.614,6.577,6.504,6.396,6.327,6.259,6.225,6.259,6.327,6.396,6.54,6.614,6.69,6.888,7.186,7.368,7.511,0,7.761,7.973,8.028,8.141,8.256,8.315,8.436,8.497,8.56,8.56,8.56,8.497,8.497,8.497,8.497,8.56,8.56,8.753,8.819,9.166,9.542,9.95,10.212,10.394,10.583,10.68,10.88,11.087,11.194,11.302,11.526,11.526,11.526,11.641,11.641,11.641,11.526,11.302,11.302,11.194,11.194,11.087,10.982,10.982,10.88,10.779,10.68,10.68,10.583,10.583,10.488,10.394,10.394,10.212,10.212,10.123,9.95,9.464,9.166,8.955,8.753,8.56,8.315,8.198,8.141,8.084,8.084,8.084,8.084,8.028,8.028,7.973,7.866,7.415,7.098,6.848,6.729,6.614,6.577,6.504,6.396,6.327,6.225,6.127,5.85,5.763,5.679,5.597,5.57,5.517,5.465,5.389,5.316,5.244,5.244,5.244,5.22,5.22,5.22,5.22,5.22,5.22,5.22,5.22,5.22,5.151,5.151,5.106,5.106,5.151,5.151,5.174,5.174,5.22,5.174,5.174,5.174,5.174,5.174,5.151,5.151,5.106,5.106,5.151,5.151,5.151,5.151,5.174,5.151,5.151,5.151,5.151,5.151,5.151,5.151,5.151,5.174,5.22,5.22,5.22,5.22,5.22,5.22,5.22,5.174,5.151,5.084,5.04,5.018,4.975,4.933,4.912,4.871,4.83,4.791,4.713,4.583,4.376,4.312,4.264,4.203,4.085,3.987,3.92,3.88,3.855,3.829,3.817,3.817,3.804,3.78,3.755,3.707,3.661,3.627,3.56,3.538,3.506,3.485,3.454,3.434,3.414,3.404,3.384,3.365,3.336,3.336,3.326,3.317,3.317,3.298,3.288,3.288,3.288,3.288,3.298,3.298,3.317,3.336,3.365,3.404,3.434,3.444,3.465,3.496,3.538,3.615,3.707,3.78,3.804,3.817,3.817,3.829,3.817,3.829,3.817,3.817,3.817,3.817,3.817,3.817,3.817,3.817,3.817,3.804,3.804,3.78,3.755,3.731,3.672,3.649,3.593,3.549,3.496,3.475,3.454,3.444,3.424,3.414,3.384,3.355,3.326,3.298,3.288,3.27,3.261,3.261,3.243,3.243,3.243,3.243,3.234,3.234,3.234,3.234,3.234,3.225,3.234,0,0,0,0,0,0,0,0,0,0,0,0,0,0,0,0,0
0,0,0,0,0,0,0,0,0,0,0,0,4.83,4.83,4.81,4.81,4.81,4.83,4.83,4.83,4.851,4.871,4.891,4.912,4.912,4.954,4.996,5.018,5.084,5.174,5.268,5.316,5.415,5.415,5.415,5.415,5.389,5.316,5.22,5.151,5.084,5.04,5.018,4.996,4.975,4.975,4.975,4.954,4.954,4.933,4.933,4.933,4.933,4.933,4.954,4.954,4.954,4.975,4.975,4.996,4.996,4.996,5.018,5.018,5.018,5.04,5.04,5.04,5.084,5.084,5.106,5.106,5.106,5.151,5.151,5.174,5.22,5.22,5.244,5.268,5.268,5.316,5.316,5.34,5.34,5.389,5.389,5.415,5.44,5.44,5.465,5.465,5.491,5.491,5.491,5.491,5.517,5.491,5.491,5.491,5.517,5.517,5.517,5.491,5.491,5.491,5.491,5.491,5.491,5.491,5.491,5.517,5.517,5.543,5.543,5.543,5.543,5.543,5.543,5.543,5.543,5.543,5.543,5.543,5.543,5.543,5.543,5.543,5.543,5.543,5.543,5.543,5.517,5.491,5.465,5.465,5.465,5.44,5.44,5.44,5.415,5.415,5.415,5.415,5.415,5.415,5.389,5.389,5.389,5.389,5.389,5.415,5.415,5.44,5.44,5.44,5.465,5.465,5.465,5.465,5.465,5.465,5.465,5.465,5.465,5.465,5.465,5.465,5.44,5.44,5.44,5.44,5.44,5.415,5.389,5.389,5.389,5.34,5.34,5.316,5.316,5.268,5.268,5.268,5.244,5.22,5.22,5.174,5.174,5.174,5.174,5.174,5.22,5.268,5.316,5.389,5.415,5.44,5.491,5.491,5.491,5.517,5.517,5.491,5.491,5.491,5.465,5.44,5.415,5.415,5.389,5.389,5.389,5.34,5.34,5.316,5.316,5.268,5.244,5.22,5.22,5.174,5.151,5.106,5.106,5.106,5.106,5.106,5.151,5.174,5.22,5.22,5.268,5.268,5.316,5.34,5.389,5.415,5.44,5.465,5.491,5.491,5.491,5.543,5.543,5.543,5.57,5.679,5.909,0,6.327,0,6.577,0,0,0,0,0,0,0,0,0,0,0,0,0,0,0,0,6.848,6.361,5.85,5.651,5.543,5.465,5.44,5.44,5.44,5.44,5.415,5.415,5.389,5.389,5.34,5.34,5.34,5.244,5.244,5.244,5.244,5.244,5.244,5.268,5.268,5.316,5.316,5.34,5.415,5.415,5.44,5.465,5.491,5.517,5.543,5.597,5.821,6.225,6.577,0,0,8.028,8.623,0,10.212,10.583,10.982,11.194,11.526,11.641,11.641,11.526,11.526,11.302,11.194,10.982,10.88,10.68,10.583,10.488,10.394,10.212,10.212,10.036,9.95,9.783,9.542,9.313,9.166,8.955,8.753,8.436,8.198,8.028,7.761,7.098,6.848,6.729,6.69,6.614,6.54,6.467,6.432,6.396,6.361,6.467,6.54,6.577,6.69,6.848,7.055,7.415,0,7.761,7.973,8.028,8.084,8.198,8.256,8.315,8.497,8.56,8.753,8.819,9.024,9.024,8.955,8.955,8.955,8.955,8.955,9.024,9.024,9.239,9.313,9.701,9.95,10.212,10.302,10.488,10.583,10.68,10.88,11.087,11.194,11.302,11.526,11.526,11.526,11.526,11.526,11.526,11.526,11.526,11.302,11.194,11.194,11.194,11.087,10.982,10.88,10.779,10.68,10.68,10.583,10.583,10.583,10.488,10.394,10.302,10.302,10.212,10.123,9.542,9.239,8.955,8.623,8.436,8.256,8.141,8.084,8.028,8.028,8.028,7.973,7.973,7.973,7.973,7.866,7.709,7.186,6.848,6.729,6.614,6.54,6.504,6.396,6.327,6.225,6.127,5.85,5.763,5.679,5.624,5.57,5.517,5.465,5.34,5.316,5.244,5.244,5.22,5.22,5.22,5.22,5.22,5.22,5.22,5.22,5.22,5.22,5.174,5.151,5.151,5.151,5.151,5.174,5.174,5.22,5.22,5.22,5.244,5.244,5.244,5.244,5.174,5.174,5.174,5.174,5.174,5.174,5.174,5.174,5.174,5.174,5.174,5.174,5.174,5.174,5.151,5.174,5.174,5.22,5.22,5.22,5.22,5.22,5.22,5.22,5.22,5.174,5.106,5.084,5.04,4.996,4.933,4.912,4.871,4.83,4.791,4.713,4.601,4.376,4.312,4.264,4.218,4.128,4.028,3.946,3.88,3.868,3.842,3.829,3.817,3.804,3.792,3.767,3.743,3.696,3.649,3.593,3.549,3.517,3.496,3.485,3.454,3.434,3.414,3.404,3.384,3.384,3.355,3.355,3.336,3.326,3.317,3.317,3.298,3.298,3.288,3.298,3.298,3.317,3.326,3.336,3.384,3.404,3.434,3.454,3.465,3.496,3.538,3.627,3.707,3.767,3.804,3.817,3.817,3.817,3.817,3.804,3.804,3.804,3.804,3.804,3.804,3.804,3.804,3.804,3.804,3.804,3.792,3.78,3.755,3.731,3.672,3.649,3.593,3.549,3.485,3.465,3.454,3.434,3.404,3.384,3.355,3.317,3.298,3.27,3.261,3.243,3.234,3.234,3.225,3.225,3.225,3.225,3.216,3.216,3.216,3.216,3.216,3.207,3.216,0,0,0,0,0,0,0,0,0,0,0,0,0,0,0,0,0
0,0,0,0,0,0,0,0,0,0,0,0,4.791,4.791,4.791,4.791,4.791,4.791,4.81,4.81,4.83,4.851,4.851,4.871,4.891,4.912,4.954,4.996,5.04,5.151,5.244,5.316,5.389,5.415,5.415,5.389,5.389,5.316,5.22,5.151,5.084,5.018,5.018,4.996,4.975,4.975,4.954,4.954,4.933,4.933,4.912,4.912,4.912,4.912,4.933,4.933,4.933,4.954,4.975,4.975,4.975,4.996,4.996,4.996,5.018,5.018,5.04,5.084,5.106,5.106,5.151,5.174,5.174,5.22,5.22,5.244,5.268,5.268,5.316,5.316,5.34,5.34,5.389,5.389,5.389,5.415,5.415,5.415,5.44,5.44,5.465,5.465,5.491,5.491,5.491,5.491,5.491,5.517,5.517,5.517,5.517,5.517,5.517,5.517,5.517,5.517,5.517,5.517,5.517,5.517,5.517,5.543,5.543,5.543,5.543,5.543,5.543,5.543,5.543,5.543,5.543,5.543,5.543,5.543,5.543,5.543,5.543,5.543,5.543,5.543,5.543,5.543,5.517,5.491,5.491,5.465,5.465,5.44,5.44,5.415,5.415,5.415,5.415,5.389,5.389,5.389,5.34,5.34,5.34,5.34,5.389,5.389,5.389,5.415,5.415,5.44,5.465,5.465,5.465,5.465,5.491,5.491,5.491,5.491,5.491,5.491,5.491,5.491,5.465,5.465,5.44,5.415,5.415,5.389,5.34,5.316,5.316,5.316,5.268,5.268,5.268,5.244,5.244,5.244,5.22,5.22,5.174,5.174,5.151,5.151,5.151,5.174,5.22,5.244,5.316,5.34,5.415,5.465,5.465,5.491,5.517,5.517,5.517,5.517,5.517,5.517,5.491,5.465,5.44,5.44,5.44,5.415,5.415,5.389,5.389,5.389,5.34,5.34,5.268,5.268,5.244,5.22,5.174,5.151,5.151,5.174,5.22,5.22,5.244,5.244,5.268,5.316,5.34,5.34,5.415,5.44,5.465,5.491,5.517,5.517,5.517,5.543,5.517,5.57,5.597,5.624,0,0,0,0,0,0,0,0,0,0,0,0,8.256,8.375,8.436,8.56,8.623,8.623,8.753,8.623,8.497,8.256,0,0,0,6.396,5.792,5.597,5.517,5.517,5.517,5.465,5.465,5.44,5.44,5.415,5.415,5.415,5.389,5.389,5.34,5.316,5.268,5.316,5.316,5.316,5.316,5.316,5.34,5.34,5.389,5.415,5.44,5.465,5.491,5.491,5.517,5.543,5.624,5.909,6.396,6.69,0,0,8.084,8.955,0,10.212,10.68,10.982,11.194,11.302,11.526,11.526,11.526,11.302,11.302,11.087,10.982,10.88,10.68,10.583,10.488,10.394,10.302,10.212,10.123,10.036,9.95,9.865,9.783,9.701,9.464,9.313,8.955,8.56,8.256,8.084,7.973,7.659,7.098,6.929,6.848,6.768,6.729,6.69,6.69,6.69,6.768,6.848,6.971,7.322,0,7.559,7.813,8.028,8.141,8.256,8.375,8.497,8.56,8.753,8.753,9.024,9.166,9.313,9.464,9.542,9.542,9.542,9.542,9.464,9.542,9.542,9.542,9.542,9.701,9.865,10.036,10.212,10.302,10.394,10.583,10.68,10.779,10.982,11.087,11.087,11.302,11.302,11.526,11.526,11.526,11.526,11.526,11.302,11.302,11.194,11.194,11.194,11.087,11.087,10.982,10.88,10.779,10.68,10.68,10.68,10.583,10.583,10.583,10.488,10.394,10.394,10.302,10.212,10.036,9.464,9.024,8.753,8.436,8.256,8.084,8.084,8.028,8.028,8.028,8.028,8.028,7.973,7.973,7.919,7.659,7.186,6.848,6.729,6.652,6.577,6.467,6.396,6.259,6.225,6.127,6.001,5.763,5.679,5.624,5.57,5.543,5.465,5.389,5.316,5.268,5.244,5.22,5.22,5.22,5.22,5.22,5.22,5.22,5.22,5.22,5.22,5.174,5.151,5.151,5.151,5.174,5.22,5.22,5.244,5.244,5.268,5.268,5.268,5.268,5.268,5.244,5.244,5.244,5.22,5.22,5.22,5.22,5.244,5.22,5.22,5.22,5.174,5.174,5.174,5.174,5.174,5.174,5.22,5.22,5.22,5.22,5.22,5.22,5.22,5.22,5.174,5.106,5.084,5.04,4.996,4.933,4.891,4.851,4.81,4.752,4.638,4.376,4.328,4.28,4.249,4.173,4.07,3.987,3.92,3.868,3.868,3.842,3.829,3.817,3.804,3.792,3.767,3.743,3.696,3.649,3.582,3.538,3.517,3.496,3.475,3.454,3.434,3.414,3.404,3.394,3.384,3.365,3.365,3.355,3.355,3.326,3.326,3.298,3.298,3.298,3.317,3.317,3.317,3.326,3.365,3.394,3.404,3.434,3.454,3.485,3.496,3.549,3.627,3.731,3.767,3.804,3.804,3.804,3.804,3.804,3.804,3.792,3.792,3.792,3.792,3.792,3.792,3.792,3.804,3.792,3.792,3.78,3.767,3.743,3.707,3.661,3.627,3.582,3.506,3.485,3.465,3.444,3.414,3.384,3.355,3.326,3.288,3.261,3.243,3.234,3.225,3.225,3.216,3.216,3.207,3.207,3.207,3.207,3.198,3.198,3.198,3.198,3.189,3.198,0,0,0,0,0,0,0,0,0,0,0,0,0,0,0,0,0
0,0,0,0,0,0,0,0,0,0,0,0,0,0,0,0,4.791,4.81,4.81,4.83,4.851,4.851,4.891,4.891,4.912,4.933,4.975,5.018,5.084,5.151,5.244,5.316,5.389,5.389,5.389,5.389,5.34,5.268,5.22,5.151,5.106,5.04,5.04,5.018,4.996,4.996,4.975,4.954,4.954,4.933,4.933,4.933,4.933,4.933,4.933,4.933,4.933,4.933,4.954,4.954,4.954,4.975,4.975,4.996,4.996,5.018,5.04,5.084,5.106,5.151,5.174,5.22,5.244,5.268,5.268,5.316,5.34,5.34,5.389,5.389,5.415,5.415,5.415,5.44,5.44,5.44,5.44,5.465,5.465,5.465,5.465,5.491,5.491,5.517,5.517,5.517,5.517,5.517,5.517,5.517,5.517,5.543,5.543,5.543,5.517,5.517,5.543,5.543,5.517,5.517,5.543,5.543,5.543,5.543,5.543,5.543,5.543,5.543,5.543,5.543,5.543,5.543,5.543,5.543,5.543,5.543,5.543,5.543,5.543,5.543,5.543,5.517,5.517,5.491,5.491,5.465,5.465,5.44,5.44,5.415,5.415,5.389,5.389,5.389,5.34,5.34,5.34,5.316,5.316,5.316,5.316,5.34,5.34,5.389,5.415,5.44,5.44,5.465,5.465,5.491,5.491,5.491,5.491,5.491,5.491,5.491,5.491,5.465,5.44,5.44,5.415,5.389,5.34,5.316,5.316,5.268,5.268,5.268,5.244,5.244,5.244,5.22,5.22,5.22,5.22,5.174,5.151,5.151,5.151,5.151,5.174,0,5.22,5.244,5.268,5.34,5.415,5.44,5.491,5.491,5.517,5.517,5.517,5.517,5.517,5.517,5.491,5.491,5.491,5.465,5.465,5.465,5.465,5.44,5.44,5.44,5.415,5.415,5.389,5.34,5.34,5.316,5.268,5.244,5.244,5.268,5.268,5.268,5.316,5.34,5.389,5.415,5.44,5.465,5.465,5.517,5.543,5.543,5.543,5.57,5.57,5.57,5.543,5.597,5.735,6.032,0,0,0,0,0,0,0,11.641,12.254,11.879,12.384,10.488,9.865,9.95,10.036,10.212,10.212,10.212,10.302,10.302,10.212,10.036,9.701,9.239,0,0,0,5.707,5.57,5.57,5.57,5.543,5.543,5.491,5.465,5.465,5.44,5.44,5.44,5.415,5.389,5.389,5.34,5.34,5.34,5.34,5.389,5.389,5.389,5.415,5.415,5.44,5.465,5.465,5.491,5.517,5.543,5.543,5.651,6.001,6.504,6.768,0,7.559,8.198,9.239,0,10.302,10.68,10.88,11.087,11.302,11.526,11.526,11.526,11.302,11.194,11.194,10.982,10.88,10.68,10.583,10.488,10.394,10.394,10.302,10.212,10.212,10.212,10.212,10.123,10.123,10.036,9.865,9.701,9.313,8.753,8.436,0,8.028,7.919,7.709,7.559,7.415,7.186,7.186,7.231,7.231,7.368,0,7.559,7.813,7.973,8.084,8.256,8.497,8.753,9.166,9.239,9.464,9.542,9.542,9.542,9.783,9.865,9.865,9.95,10.123,10.123,10.036,10.036,10.036,10.036,10.036,10.036,10.036,10.123,10.212,10.302,10.394,10.583,10.583,10.68,10.779,10.88,10.982,11.087,11.194,11.194,11.302,11.526,11.526,11.526,11.526,11.526,11.526,11.302,11.302,11.302,11.194,11.194,11.087,11.087,10.982,10.88,10.779,10.68,10.68,10.68,10.583,10.583,10.583,10.488,10.488,10.394,10.302,10.212,9.542,9.239,8.819,8.497,8.256,8.084,8.028,8.028,8.028,8.028,8.028,8.028,7.973,7.973,7.919,7.813,7.559,6.929,6.729,6.652,6.577,6.504,6.396,6.327,6.225,6.095,6.001,5.763,5.679,5.624,5.57,5.543,5.465,5.389,5.316,5.268,5.244,5.22,5.22,5.22,5.22,5.22,5.22,5.22,5.22,5.22,5.22,5.22,5.22,5.174,5.174,5.22,5.22,5.244,5.268,5.268,5.268,5.316,5.316,5.316,5.316,5.268,5.268,5.244,5.244,5.268,5.268,5.244,5.244,5.244,5.244,5.244,5.22,5.22,5.22,5.174,5.22,5.22,5.22,5.22,5.22,5.22,5.22,5.22,5.244,5.22,5.174,5.151,5.106,5.04,4.996,4.933,4.891,4.851,4.81,4.732,4.601,4.36,4.312,4.264,4.218,4.128,4.056,3.973,3.906,3.868,3.855,3.842,3.829,3.817,3.804,3.792,3.767,3.743,3.696,3.649,3.582,3.538,3.506,3.496,3.475,3.444,3.434,3.424,3.414,3.404,3.394,3.394,3.384,3.384,3.365,3.355,3.336,3.326,3.317,3.317,3.317,3.317,3.326,3.336,3.365,3.394,3.414,3.444,3.454,3.475,3.506,3.56,3.649,3.707,3.755,3.78,3.792,3.792,3.792,3.792,3.78,3.767,3.755,3.767,3.767,3.767,3.767,3.78,3.767,3.78,3.767,3.755,3.743,3.731,3.696,3.649,3.615,3.56,3.496,3.475,3.454,3.424,3.394,3.355,3.326,3.298,3.261,3.243,3.225,3.225,3.216,3.216,3.207,3.207,3.207,3.198,3.198,3.198,3.198,3.189,3.198,3.198,3.189,3.189,0,0,0,0,0,0,0,0,0,0,0,0,0,0,0,0,0
0,0,0,0,0,0,0,0,0,0,0,0,0,0,0,0,0,4.891,4.891,4.891,4.912,4.912,4.933,4.954,4.975,4.996,5.04,5.04,5.106,5.174,5.22,5.34,5.34,5.389,5.389,5.389,5.389,5.316,5.268,5.22,5.151,5.106,5.106,5.084,5.084,5.04,5.018,5.018,4.996,4.996,4.975,4.954,4.954,4.954,4.933,4.933,4.954,4.954,4.954,4.954,4.975,4.975,4.975,4.996,5.018,5.04,5.084,5.106,5.151,5.174,5.244,5.268,5.316,5.34,5.34,5.389,5.415,5.415,5.44,5.44,5.465,5.465,5.465,5.465,5.465,5.465,5.465,5.491,5.491,5.491,5.491,5.517,5.517,5.517,5.517,5.517,5.543,5.543,5.543,5.543,5.543,5.543,5.543,5.543,5.543,5.543,5.543,5.543,5.543,5.543,5.543,5.543,5.543,5.543,5.543,5.543,5.543,5.543,5.543,5.543,5.543,5.543,5.543,5.543,5.543,5.543,5.543,5.543,5.543,5.543,5.543,5.517,5.491,5.491,5.465,5.465,5.44,5.44,5.415,5.415,5.415,5.389,5.389,5.34,5.34,5.34,5.316,5.268,5.268,5.268,5.316,5.316,5.34,5.34,5.389,5.415,5.44,5.465,5.491,5.491,5.491,5.491,5.491,5.491,5.491,5.491,5.465,5.465,5.44,5.415,5.389,5.389,5.34,5.316,5.268,5.244,5.244,5.244,5.22,5.22,5.174,5.174,5.174,5.174,5.174,5.174,5.151,5.151,5.151,5.151,5.174,5.22,5.22,5.268,5.316,5.34,5.415,5.465,5.491,5.517,5.517,5.517,5.543,5.543,5.543,5.543,5.517,5.491,5.491,5.491,5.491,5.491,5.517,5.517,5.517,5.517,5.491,5.491,5.465,5.44,5.415,5.389,5.389,5.34,5.316,5.34,5.389,5.415,5.415,5.465,5.491,5.491,5.543,5.57,5.57,5.597,5.597,5.597,5.624,5.624,5.651,5.651,5.651,5.763,6.095,0,6.54,0,8.084,0,10.88,12.518,13.536,12.254,10.68,10.68,11.087,10.779,10.982,10.982,10.982,10.982,10.982,10.982,10.982,10.982,10.779,10.68,10.488,10.212,9.783,0,0,0,5.679,5.651,5.651,5.597,5.597,5.57,5.57,5.543,5.491,5.491,5.465,5.491,5.44,5.44,5.44,5.415,5.415,5.415,5.415,5.415,5.415,5.44,5.44,5.465,5.465,5.491,5.491,5.517,5.543,5.543,5.651,6.095,6.577,0,6.971,7.813,8.315,9.464,0,10.394,10.779,10.982,11.194,11.302,11.526,11.526,11.526,11.526,11.302,11.194,11.087,10.88,10.779,10.68,10.583,10.583,10.394,10.394,10.394,10.302,10.302,10.302,10.302,10.302,10.302,10.302,10.212,10.036,9.542,9.166,8.753,8.436,8.198,0,0,7.973,7.866,7.761,7.761,7.813,7.866,7.973,0,8.198,8.315,8.56,9.024,9.464,9.783,10.036,10.123,10.212,10.212,10.212,10.212,10.212,10.302,10.302,10.302,10.302,10.302,10.302,10.302,10.302,10.302,10.302,10.302,10.302,10.302,10.394,10.488,10.583,10.68,10.68,10.779,10.88,10.982,11.194,11.194,11.194,11.302,11.526,11.526,11.526,11.526,11.526,11.526,11.526,11.526,11.526,11.302,11.302,11.302,11.194,11.194,11.087,10.982,10.88,10.779,10.779,10.68,10.68,10.68,10.583,10.583,10.583,10.488,10.394,10.302,10.212,9.542,9.166,8.623,8.375,8.198,8.084,8.084,8.084,8.084,8.028,8.028,8.028,7.973,7.973,7.813,7.368,7.055,6.848,6.69,6.577,6.54,6.432,6.327,6.225,6.127,6.032,5.792,5.679,5.651,5.597,5.543,5.465,5.389,5.316,5.268,5.244,5.22,5.22,5.22,5.22,5.22,5.22,5.22,5.22,5.22,5.22,5.22,5.22,5.22,5.22,5.244,5.268,5.268,5.316,5.316,5.316,5.316,5.316,5.316,5.316,5.268,5.268,5.268,5.268,5.268,5.268,5.268,5.268,5.268,5.244,5.244,5.244,5.22,5.22,5.22,5.22,5.22,5.22,5.244,5.244,5.22,5.22,5.244,5.244,5.22,5.22,5.151,5.106,5.04,4.996,4.933,4.891,4.851,4.81,4.732,4.638,4.36,4.296,4.249,4.203,4.114,4.014,3.92,3.88,3.868,3.855,3.855,3.829,3.817,3.817,3.792,3.767,3.743,3.696,3.627,3.582,3.538,3.496,3.485,3.465,3.454,3.434,3.424,3.424,3.414,3.404,3.394,3.394,3.394,3.384,3.365,3.355,3.326,3.326,3.326,3.326,3.326,3.326,3.336,3.365,3.394,3.414,3.444,3.454,3.485,3.506,3.56,3.627,3.696,3.743,3.767,3.78,3.78,3.78,3.767,3.755,3.743,3.731,3.743,3.731,3.731,3.731,3.743,3.743,3.743,3.743,3.731,3.707,3.696,3.661,3.627,3.582,3.549,3.485,3.465,3.444,3.404,3.365,3.326,3.317,3.27,3.234,3.234,3.225,3.216,3.216,3.207,3.207,3.207,3.207,3.207,3.207,3.207,3.207,3.198,3.198,3.198,3.198,3.198,0,0,0,0,0,0,0,0,0,0,0,0,0,0,0,0,0
0,0,0,0,0,0,0,0,0,0,0,0,0,0,0,0,0,0,5.04,5.04,5.04,5.04,5.04,5.084,5.106,5.106,5.151,5.174,5.22,5.268,5.34,5.389,5.415,5.415,5.415,5.415,5.415,5.34,5.316,5.268,5.22,5.22,5.174,5.151,5.151,5.151,5.106,5.106,5.084,5.04,5.018,5.018,4.996,4.996,4.975,4.975,4.954,4.954,4.975,4.975,4.975,4.996,4.996,5.018,5.018,5.084,5.106,5.151,5.174,5.244,5.268,5.316,5.389,5.389,5.415,5.44,5.44,5.465,5.465,5.465,5.491,5.491,5.491,5.517,5.517,5.517,5.517,5.517,5.517,5.543,5.543,5.543,5.543,5.543,5.543,5.543,5.543,5.543,5.543,5.543,5.543,5.543,5.543,5.543,5.543,5.543,5.543,5.543,5.543,5.543,5.543,5.543,5.543,5.57,5.543,5.57,5.57,5.543,5.543,5.543,5.543,5.543,5.543,5.543,5.543,5.543,5.543,5.543,5.543,5.543,5.543,5.517,5.491,5.491,5.465,5.44,5.44,5.415,5.415,5.415,5.389,5.34,5.34,5.34,5.34,5.268,5.268,5.244,5.244,5.244,5.268,5.268,5.316,5.34,5.389,5.415,5.44,5.465,5.465,5.491,5.517,5.517,5.517,5.517,5.517,5.491,5.465,5.44,5.44,5.415,5.389,5.34,5.316,5.268,5.244,5.22,5.22,5.22,5.174,5.174,5.174,5.174,5.174,5.174,5.174,5.151,5.174,5.174,5.151,0,5.174,5.22,5.244,5.268,5.316,5.389,5.415,5.465,5.491,5.517,5.517,5.543,5.543,5.543,5.543,5.543,5.543,5.517,5.543,5.543,5.543,5.543,5.543,5.543,5.543,5.57,5.57,5.543,5.543,5.517,5.491,5.465,5.465,5.44,5.44,5.465,5.491,5.491,5.543,5.57,5.57,5.597,5.624,5.651,5.679,5.679,5.679,5.735,5.735,5.763,5.763,5.763,5.763,6.127,0,6.54,6.848,0,0,0,10.302,12.793,13.229,12.384,12.518,12.518,12.518,12.518,12.793,12.793,12.518,12.518,12.384,12.518,12.384,12.384,12.001,11.641,11.302,10.982,10.583,10.212,0,0,5.909,5.821,5.792,5.763,5.707,5.679,5.651,5.651,5.597,5.57,5.543,5.543,5.517,5.491,5.465,5.465,5.465,5.465,5.465,5.465,5.465,5.465,5.465,5.491,5.491,5.517,5.517,5.543,5.543,5.57,5.679,6.127,6.614,0,7.098,7.919,8.436,9.783,0,10.583,10.88,11.087,11.194,11.302,11.526,11.641,11.641,11.641,11.526,11.302,11.194,11.194,10.982,10.779,10.68,10.68,10.68,10.583,10.583,10.583,10.583,10.583,10.583,10.583,10.583,10.583,10.583,10.488,10.302,10.123,9.783,9.313,8.955,8.623,0,8.315,8.256,8.198,8.198,0,0,0,8.56,8.819,9.239,9.701,9.95,10.212,10.302,10.488,10.583,10.583,10.488,10.488,10.583,10.488,10.394,10.488,10.488,10.488,10.488,10.488,10.394,10.394,10.394,10.394,10.394,10.394,10.394,10.488,10.583,10.68,10.779,10.88,10.982,11.087,11.194,11.302,11.302,11.526,11.526,11.641,11.641,11.641,11.641,11.641,11.641,11.641,11.641,11.641,11.526,11.526,11.526,11.302,11.302,11.194,11.087,10.982,10.982,10.88,10.779,10.68,10.68,10.68,10.68,10.68,10.583,10.488,10.394,10.212,9.701,9.313,8.819,8.436,8.256,8.141,8.141,8.084,8.084,8.084,8.028,8.028,8.028,7.973,7.919,7.709,7.098,6.888,6.729,6.652,6.577,6.467,6.361,6.225,6.127,6.032,5.821,5.707,5.651,5.597,5.543,5.491,5.415,5.34,5.268,5.244,5.22,5.22,5.22,5.22,5.22,5.22,5.22,5.244,5.244,5.244,5.244,5.268,5.244,5.244,5.268,5.316,5.34,5.34,5.389,5.389,5.34,5.34,5.316,5.316,5.316,5.244,5.244,5.244,5.244,5.268,5.268,5.268,5.268,5.268,5.244,5.244,5.244,5.22,5.22,5.22,5.22,5.244,5.244,5.244,5.244,5.22,5.244,5.244,5.244,5.22,5.174,5.106,5.084,5.018,4.954,4.891,4.851,4.81,4.752,4.657,4.376,4.312,4.264,4.203,4.085,3.987,3.92,3.868,3.855,3.855,3.855,3.842,3.829,3.817,3.804,3.78,3.743,3.696,3.627,3.56,3.538,3.496,3.485,3.475,3.454,3.444,3.434,3.424,3.414,3.414,3.404,3.404,3.394,3.394,3.384,3.355,3.336,3.326,3.326,3.326,3.317,3.326,3.336,3.355,3.394,3.414,3.444,3.454,3.475,3.496,3.56,3.627,3.696,3.743,3.755,3.755,3.755,3.755,3.755,3.743,3.707,3.707,3.696,3.696,3.696,3.696,3.707,3.707,3.707,3.707,3.696,3.672,3.661,3.627,3.593,3.56,3.496,3.475,3.454,3.424,3.384,3.336,3.317,3.288,3.261,3.234,3.225,3.225,3.225,3.216,3.216,3.216,3.216,3.216,3.216,3.216,3.216,3.216,3.216,3.216,3.207,3.207,3.207,0,0,0,0,0,0,0,0,0,0,0,0,0,0,0,0,0
0,0,0,0,0,0,0,0,0,0,0,0,0,0,0,0,0,0,0,5.268,5.268,5.244,5.244,5.268,5.316,5.316,5.34,5.34,5.389,5.44,5.465,5.491,5.517,5.491,5.491,5.465,5.465,5.44,5.389,5.34,5.316,5.268,5.268,5.268,5.268,5.244,5.244,5.244,5.22,5.174,5.151,5.106,5.084,5.04,5.04,5.018,4.996,4.975,4.996,4.996,4.996,4.996,5.018,5.04,5.04,5.106,5.151,5.174,5.22,5.268,5.34,0,5.415,5.44,5.465,5.465,5.465,5.491,5.491,5.517,5.517,5.517,5.543,5.543,5.543,5.543,5.543,5.543,5.543,5.543,5.543,5.543,5.543,5.543,5.543,5.543,5.543,5.543,5.543,5.543,5.543,5.543,5.57,5.57,5.57,5.57,5.57,5.57,5.543,5.543,5.57,5.543,5.543,5.57,5.57,5.57,5.57,5.57,5.543,5.543,5.543,5.543,5.543,5.543,5.543,5.517,5.517,5.517,5.517,5.517,5.517,5.491,5.491,5.465,5.465,5.44,5.44,5.415,5.415,5.389,5.389,5.34,5.34,5.316,5.316,5.268,5.244,5.244,5.244,5.244,5.244,5.268,5.316,5.34,5.389,5.415,5.465,5.465,5.517,5.517,5.517,5.517,5.517,5.517,5.491,5.491,5.465,5.44,5.415,5.389,5.389,5.316,5.268,5.244,5.22,5.22,5.22,5.174,5.174,5.174,5.174,5.174,5.174,5.174,5.174,5.174,5.174,5.174,5.174,5.174,5.174,0,5.244,5.268,5.316,5.389,5.415,5.44,5.491,5.517,5.517,5.543,5.543,5.543,5.543,5.543,5.57,5.543,5.543,5.543,5.57,5.57,5.597,5.57,5.597,5.597,5.597,5.57,5.57,5.57,5.543,5.543,5.543,5.517,5.543,5.543,5.57,5.597,5.624,5.651,5.679,5.679,5.735,5.735,5.763,5.792,5.792,5.821,5.85,5.821,5.85,5.85,5.85,0,6.396,6.768,0,0,0,0,0,12.518,13.536,13.536,13.229,12.935,12.935,12.793,12.793,12.793,12.518,12.518,12.518,12.518,12.384,12.518,12.384,12.254,12.001,11.879,11.526,10.779,0,0,6.259,6.001,6.001,5.909,5.85,5.792,5.763,5.707,5.679,5.651,5.597,5.597,5.57,5.543,5.543,5.517,5.517,5.517,5.491,5.491,5.491,5.491,5.491,5.517,5.517,5.517,5.543,5.543,5.543,5.57,5.679,6.127,6.614,0,7.186,7.973,8.623,0,10.036,10.68,11.087,11.194,11.302,11.641,11.641,11.879,11.879,11.879,11.879,11.641,11.526,11.526,11.194,11.087,10.982,10.982,10.88,10.779,10.779,10.779,10.68,10.779,10.779,10.779,10.88,10.88,10.982,10.88,10.88,10.68,10.394,10.302,10.036,9.865,9.701,9.313,9.239,9.166,9.166,9.239,9.313,9.542,9.865,10.036,10.212,10.394,10.583,10.68,10.68,10.779,10.88,10.779,10.779,10.68,10.68,10.68,10.583,10.68,10.68,10.68,10.583,10.583,10.583,10.583,10.583,10.583,10.583,10.488,10.488,10.583,10.68,10.88,10.982,11.087,11.194,11.302,11.526,11.641,11.641,11.641,11.641,11.641,11.879,11.879,11.641,11.879,11.879,11.879,11.879,11.879,11.879,11.641,11.641,11.526,11.526,11.302,11.194,11.087,11.087,10.982,10.88,10.779,10.68,10.68,10.68,10.68,10.68,10.583,10.394,10.212,10.123,9.783,8.955,8.56,8.315,8.256,8.198,8.198,8.141,8.084,8.084,8.084,8.028,8.028,7.919,7.709,7.231,6.971,6.808,6.69,6.614,6.54,6.432,6.259,6.159,6.095,5.85,5.735,5.651,5.597,5.57,5.491,5.44,5.34,5.268,5.244,5.22,5.22,5.22,5.22,5.22,5.22,5.244,5.244,5.268,5.268,5.316,5.316,5.316,5.34,5.34,5.389,5.415,5.44,5.44,5.44,5.389,5.389,5.389,5.34,5.316,5.268,5.244,5.244,5.244,5.268,5.268,5.268,5.268,5.268,5.244,5.244,5.244,5.244,5.244,5.244,5.244,5.268,5.268,5.244,5.244,5.244,5.244,5.244,5.244,5.22,5.174,5.151,5.106,5.018,4.954,4.912,4.871,4.83,4.791,4.713,4.601,4.328,4.264,4.203,4.114,4.014,3.92,3.868,3.855,3.855,3.855,3.842,3.829,3.817,3.804,3.78,3.743,3.696,3.627,3.56,3.528,3.496,3.485,3.465,3.444,3.444,3.434,3.434,3.424,3.414,3.414,3.404,3.404,3.394,3.384,3.365,3.336,3.326,3.326,3.326,3.317,3.326,3.326,3.355,3.394,3.414,3.444,3.454,3.475,3.496,3.549,3.593,3.661,3.707,3.743,3.731,3.731,3.731,3.731,3.707,3.696,3.672,3.672,3.661,3.661,3.661,3.661,3.672,3.672,3.661,3.661,3.627,3.615,3.593,3.549,3.538,3.485,3.465,3.444,3.404,3.365,3.326,3.317,3.288,3.27,3.243,3.234,3.234,3.234,3.234,3.234,3.234,3.234,3.234,3.234,3.234,3.234,3.225,3.225,3.225,3.225,3.216,3.216,0,0,0,0,0,0,0,0,0,0,0,0,0,0,0,0,0
0,0,0,0,0,0,0,0,0,0,0,0,0,0,0,0,0,5.597,5.597,5.543,5.543,5.491,5.465,5.465,5.465,5.491,5.491,5.491,5.517,5.543,5.543,5.543,5.57,5.543,5.543,5.543,5.517,5.491,5.465,5.44,5.44,5.44,5.44,5.415,5.415,5.415,5.389,5.389,5.34,5.316,5.268,5.244,5.22,5.151,5.106,5.084,5.04,5.018,5.018,5.018,5.018,5.04,5.04,5.084,5.106,5.151,5.174,5.244,5.244,5.316,5.34,0,5.415,5.44,5.465,5.491,5.491,5.517,5.517,5.543,5.543,5.543,5.543,5.543,5.543,5.543,5.543,5.543,5.543,5.543,5.543,5.543,5.543,5.543,5.543,5.543,5.543,5.543,5.543,5.543,5.543,5.543,5.57,5.57,5.57,5.57,5.57,5.57,5.57,5.57,5.57,5.543,5.57,5.57,5.57,5.543,5.543,5.543,5.543,5.543,5.543,5.543,5.517,5.517,5.517,5.491,5.491,5.491,5.491,5.491,5.491,5.491,5.465,5.465,5.44,5.44,5.415,5.415,5.389,5.389,5.389,5.34,5.34,5.316,5.316,5.268,5.244,5.244,5.244,5.244,5.244,5.268,5.316,5.34,5.415,5.465,5.491,5.491,5.517,5.543,5.543,5.543,5.543,5.517,5.491,5.491,5.465,5.44,5.415,5.389,5.34,5.316,5.268,5.244,5.22,5.22,5.22,5.174,5.174,5.174,5.174,5.174,5.174,5.174,5.174,5.174,5.174,5.174,5.151,5.174,0,5.22,5.244,5.268,0,5.34,5.415,5.465,5.491,5.491,5.543,5.543,5.543,5.543,5.57,5.57,5.597,5.597,5.597,5.597,5.597,5.597,0,5.624,5.624,5.651,5.651,5.624,5.651,5.624,5.624,5.597,5.597,5.597,5.597,5.651,5.679,5.735,5.792,5.821,5.85,5.939,0,6.001,6.032,6.001,6.001,6.032,0,6.095,6.127,6.225,6.327,6.467,6.848,7.761,0,0,0,10.583,0,0,13.696,13.536,13.381,13.229,12.935,12.793,12.935,12.935,12.793,12.518,12.518,12.793,12.793,12.793,12.518,12.384,12.384,12.254,12.001,11.302,0,0,6.54,6.259,6.159,6.127,6.095,6.001,5.939,5.909,5.792,5.735,5.679,5.651,5.624,5.597,5.57,5.57,5.543,5.543,5.543,5.543,5.517,5.517,5.517,5.517,5.517,5.543,5.543,5.543,5.57,5.57,5.679,6.127,6.614,0,0,0,8.753,0,10.212,10.88,11.302,11.526,11.641,11.879,11.879,12.001,12.254,12.254,12.001,12.001,11.879,11.641,11.641,11.526,11.302,11.194,11.194,11.087,11.087,11.087,11.087,11.087,11.087,11.194,11.302,11.302,11.302,11.526,11.526,11.302,11.194,11.087,10.779,10.583,10.394,10.394,10.302,10.302,10.212,10.302,10.394,10.488,10.583,10.583,10.68,10.88,11.087,11.087,0,11.194,11.302,11.194,11.194,11.087,10.982,10.88,10.88,10.88,10.779,10.779,10.68,10.68,10.68,10.68,10.68,10.583,10.583,10.583,10.583,10.68,10.779,10.982,11.087,11.194,11.526,11.526,11.879,11.879,12.001,11.879,12.001,12.001,12.001,12.001,12.001,12.001,12.001,12.001,12.001,12.001,12.001,11.879,11.879,11.879,11.641,11.526,11.302,11.302,11.194,11.087,10.982,10.88,10.779,10.779,10.779,10.68,10.68,10.488,10.394,10.212,10.123,9.783,0,8.623,8.375,8.256,8.256,8.198,8.198,8.141,8.141,8.084,8.084,8.028,7.973,7.813,7.322,7.098,6.888,6.729,6.614,6.54,6.467,6.396,6.327,6.225,6.032,5.763,5.679,5.624,5.57,5.517,5.44,5.34,5.268,5.244,5.22,5.174,5.22,5.22,5.22,5.22,5.244,5.244,5.268,5.316,5.34,5.389,5.389,5.415,5.415,5.44,5.465,5.465,5.491,5.465,5.44,5.389,5.34,5.34,5.316,5.268,5.244,5.244,5.244,5.268,5.268,5.268,5.244,5.244,5.244,5.244,5.244,5.244,5.244,5.244,5.268,5.268,5.268,5.268,5.244,5.244,5.244,5.244,5.244,5.22,5.174,5.151,5.106,5.04,4.975,4.912,4.891,4.851,4.83,4.771,4.657,4.344,4.28,4.233,4.128,4.028,3.92,3.868,3.855,3.855,3.855,3.829,3.817,3.804,3.792,3.755,3.731,3.672,3.627,3.56,3.517,3.496,3.485,3.475,3.454,3.444,3.444,3.434,3.424,3.414,3.414,3.414,3.404,3.404,3.394,3.365,3.355,3.336,3.326,3.326,3.317,3.326,3.326,3.336,3.384,3.414,3.444,3.454,3.475,3.496,3.538,3.593,3.661,3.696,3.731,3.731,3.731,3.731,3.707,3.696,3.696,3.672,3.661,3.661,3.649,3.649,3.649,3.649,3.649,3.627,3.627,3.615,3.582,3.549,3.517,3.485,3.465,3.444,3.424,3.394,3.355,3.326,3.298,3.288,3.27,3.261,3.243,3.243,3.261,3.261,3.243,3.261,3.243,3.261,3.261,3.261,3.243,3.243,3.234,3.243,3.243,3.234,3.234,0,0,0,0,0,0,0,0,0,0,0,0,0,0,0,0,0
0,0,0,0,0,0,0,0,0,0,0,0,0,0,5.792,5.735,5.707,5.679,5.679,5.651,5.624,5.597,5.57,5.57,5.57,5.57,5.57,5.57,5.597,5.597,5.597,5.624,5.624,5.597,5.597,5.57,5.57,5.57,5.543,5.543,5.543,5.543,5.543,5.543,5.543,5.517,5.517,5.491,5.491,5.44,5.415,5.389,5.316,5.244,5.22,5.174,5.106,5.106,5.084,5.084,5.084,5.084,5.084,5.106,5.151,5.174,5.22,5.244,5.268,5.316,0,5.389,5.415,5.465,5.491,5.491,5.517,5.517,5.543,5.543,5.543,5.543,5.57,5.57,5.57,5.57,5.57,5.57,5.57,5.57,5.57,5.57,5.57,5.57,5.57,5.543,5.543,5.543,5.543,5.57,5.57,5.57,5.57,5.57,5.57,5.57,5.57,5.57,5.57,5.57,5.57,5.57,5.57,5.57,5.543,5.57,5.543,5.543,5.543,5.543,5.543,5.543,5.517,5.517,5.517,5.491,5.491,5.491,5.491,5.465,5.465,5.465,5.465,5.44,5.44,5.415,5.415,5.389,5.389,5.389,5.389,5.34,5.34,5.34,5.34,5.268,5.244,5.244,5.244,5.268,5.268,5.389,5.389,5.44,5.465,5.491,5.517,5.517,5.517,5.543,5.543,5.543,5.543,5.517,5.517,5.491,5.465,5.44,5.415,5.389,5.34,5.316,5.268,5.244,5.22,5.22,5.22,5.174,5.174,5.174,5.151,5.174,5.174,5.174,5.174,5.174,5.22,5.174,5.174,5.22,5.22,5.22,5.244,5.34,5.415,5.517,5.57,5.624,5.679,5.679,5.735,5.763,5.707,5.679,5.679,5.679,5.651,5.624,5.651,5.651,5.651,5.679,5.679,5.679,5.679,5.679,5.679,5.707,5.707,5.707,5.707,5.707,5.735,5.763,5.792,5.85,0,5.939,6.032,6.127,6.259,6.259,6.327,6.327,6.259,6.225,6.259,6.327,6.396,6.467,6.54,6.614,6.729,6.929,7.813,8.256,0,0,0,11.087,12.254,13.381,13.696,13.536,13.536,13.381,13.229,12.935,12.935,12.935,12.935,12.793,12.793,12.935,12.935,12.935,12.518,12.384,12.384,12.518,12.384,11.879,0,8.198,7.368,6.432,6.361,6.327,6.259,6.225,6.127,6.032,5.939,5.821,5.735,5.707,5.679,5.651,5.597,5.57,5.57,5.543,5.543,5.543,5.543,5.517,5.543,5.543,5.543,5.543,5.543,5.543,5.543,5.57,5.651,6.095,6.577,0,0,7.973,8.819,0,10.212,10.982,11.302,11.641,11.879,11.879,12.001,12.254,12.254,12.384,12.254,12.254,12.254,12.001,11.879,11.879,11.641,11.526,11.526,11.526,11.302,11.302,11.302,11.302,11.302,11.526,11.526,11.641,11.879,11.879,12.001,12.001,12.001,12.001,11.879,11.526,11.302,11.302,11.194,11.087,10.982,11.087,10.982,11.087,11.194,11.302,11.526,11.526,11.641,11.641,11.641,11.641,11.641,11.641,11.526,11.526,11.194,11.087,11.087,11.087,10.88,10.779,10.779,10.68,10.68,10.68,10.68,10.68,10.583,10.68,10.583,10.68,10.88,11.087,11.302,11.526,11.641,12.001,12.254,12.384,12.254,12.254,12.254,12.254,12.254,12.254,12.254,12.254,12.254,12.254,12.254,12.254,12.001,12.001,12.001,12.001,11.879,11.641,11.641,11.526,11.302,11.194,11.087,10.982,10.88,10.779,10.779,10.68,10.583,10.488,10.394,10.212,10.123,9.464,9.166,8.623,8.497,8.375,8.315,8.256,8.198,8.198,8.141,8.141,8.084,8.028,7.973,7.866,7.368,7.098,6.929,6.768,6.652,6.577,6.504,6.396,6.361,6.259,6.159,5.85,5.707,5.651,5.57,5.517,5.465,5.34,5.268,5.22,5.22,5.174,5.174,5.22,5.22,5.22,5.244,5.268,5.268,5.316,5.389,5.415,5.415,5.44,5.44,5.465,5.491,5.491,5.517,5.465,5.44,5.389,5.316,5.316,5.268,5.268,5.244,5.244,5.244,5.244,5.244,5.244,5.244,5.244,5.244,5.244,5.244,5.268,5.244,5.268,5.268,5.268,5.268,5.268,5.244,5.244,5.244,5.244,5.22,5.22,5.174,5.151,5.106,5.084,4.975,4.933,4.912,4.871,4.851,4.81,4.732,4.565,4.393,0,4.173,4.028,3.92,3.868,3.855,3.842,3.842,3.817,3.804,3.804,3.767,3.731,3.672,3.649,3.593,3.549,3.517,3.496,3.485,3.475,3.465,3.444,3.444,3.444,3.424,3.424,3.424,3.424,3.414,3.404,3.394,3.365,3.355,3.336,3.326,3.317,3.317,3.317,3.317,3.336,3.365,3.394,3.424,3.454,3.465,3.496,3.528,3.582,3.627,3.672,3.696,3.707,3.707,3.707,3.707,3.696,3.672,3.672,3.661,3.649,3.649,3.627,3.627,3.627,3.615,3.593,3.593,3.56,3.538,3.506,3.496,3.465,3.454,3.434,3.404,3.384,3.355,3.326,3.317,3.298,3.298,3.288,3.27,3.288,3.27,3.288,3.288,3.288,3.27,3.288,3.288,3.27,3.27,3.27,3.261,3.261,3.261,3.243,3.243,0,0,0,0,0,0,0,0,0,0,0,0,0,0,0,0,0
0,0,0,0,0,0,0,0,0,0,0,0,0,0,5.821,5.735,5.735,5.707,5.707,5.679,5.651,5.651,5.651,5.624,5.624,5.651,5.651,5.651,5.651,5.679,5.679,5.679,5.679,5.679,5.651,5.651,5.624,5.597,5.597,5.597,5.597,5.597,5.597,5.597,5.597,5.597,5.57,5.57,5.57,5.543,5.517,5.465,5.415,5.389,5.316,5.244,5.22,5.174,5.151,5.151,5.151,5.151,5.151,5.151,5.174,5.22,5.244,5.268,0,5.34,0,5.415,5.44,5.465,5.491,5.517,5.517,5.543,5.543,5.57,5.57,5.57,5.57,5.57,5.57,5.57,5.57,5.57,5.57,5.57,5.57,5.57,5.57,5.57,5.57,5.57,5.57,5.57,5.57,5.57,5.57,5.57,5.57,5.57,5.57,5.57,5.57,5.57,5.57,5.57,5.57,5.57,5.57,5.57,5.57,5.543,5.543,5.543,5.543,5.543,5.517,5.517,5.491,5.491,5.491,5.465,5.465,5.465,5.44,5.44,5.44,5.44,5.44,5.44,5.415,5.415,5.415,5.415,5.389,5.389,5.389,5.389,5.389,5.34,5.34,5.34,5.316,5.316,5.389,5.389,5.415,5.415,5.44,5.465,5.491,5.491,5.517,5.543,5.543,5.543,5.543,5.543,5.543,5.517,5.517,5.491,5.465,5.44,5.415,5.389,5.34,5.316,5.268,5.244,5.22,5.22,5.174,5.174,5.174,5.174,5.174,5.22,5.22,5.244,5.244,5.244,5.268,5.316,5.389,5.44,5.491,5.543,5.57,5.624,5.707,5.821,6.001,6.127,6.259,6.361,6.467,6.504,6.432,6.361,6.225,6.095,6.001,5.85,5.792,5.763,5.735,5.763,5.763,5.763,5.792,5.792,5.821,5.821,5.85,5.909,5.939,6.001,6.032,6.127,6.127,6.259,6.396,6.432,6.504,6.54,6.54,6.54,6.54,6.54,6.54,6.54,6.577,6.577,6.614,6.69,6.808,6.971,7.368,7.866,8.256,0,8.955,0,0,11.526,12.384,13.536,13.696,13.696,13.536,13.536,13.536,13.381,13.536,13.381,13.381,13.229,13.229,13.229,13.229,13.229,12.935,12.793,12.793,12.793,12.518,12.001,10.583,0,7.761,6.768,6.54,6.504,6.467,6.432,6.432,6.327,6.225,6.032,5.909,5.821,5.763,5.679,5.651,5.597,5.57,5.57,5.57,5.57,5.543,5.543,5.543,5.543,5.543,5.543,5.543,5.543,5.57,5.57,5.679,6.095,6.577,0,0,8.028,8.955,0,10.302,11.194,11.526,11.641,11.879,12.001,12.254,12.254,12.384,12.384,12.384,12.384,12.384,12.254,12.254,12.001,12.001,11.879,11.879,11.641,11.641,11.641,11.641,11.641,11.641,11.641,11.879,12.001,12.001,12.254,12.254,12.384,12.384,12.384,12.384,12.254,12.254,12.254,12.254,12.001,12.001,12.001,12.001,11.879,12.001,12.001,12.001,12.001,12.001,11.879,12.001,12.001,11.879,11.879,11.879,11.641,11.302,11.194,11.087,11.087,10.982,10.88,10.779,10.779,10.68,10.779,10.779,10.779,10.68,10.68,10.68,10.88,10.982,11.302,11.526,11.641,12.001,12.254,12.384,12.518,12.518,12.384,12.384,12.384,12.384,12.384,12.254,12.384,12.384,12.384,12.254,12.254,12.254,12.254,12.254,12.001,12.001,11.879,11.879,11.641,11.526,11.302,11.194,11.087,10.982,10.88,10.779,10.779,10.583,10.488,10.394,10.212,10.123,9.542,9.166,8.753,8.56,8.436,8.375,8.315,8.256,8.198,8.198,8.198,8.141,8.084,8.028,7.919,7.709,7.231,6.971,6.808,6.69,6.614,6.54,6.467,6.396,6.361,6.259,6.127,5.763,5.679,5.597,5.543,5.465,5.389,5.268,5.22,5.22,5.22,5.174,5.22,5.22,5.22,5.244,5.268,5.316,5.316,5.389,5.415,5.415,5.44,5.465,5.491,5.491,5.491,5.465,5.465,5.44,5.34,5.316,5.268,5.244,5.22,5.22,5.174,5.174,5.22,5.22,5.22,5.22,5.22,5.22,5.244,5.244,5.244,5.244,5.268,5.268,5.268,5.268,5.268,5.244,5.22,5.244,5.244,5.22,5.22,5.151,5.151,5.151,5.084,5.018,4.954,4.912,4.912,4.891,4.851,4.81,4.638,4.426,0,4.188,4.056,3.906,3.855,3.829,3.829,3.817,3.804,3.792,3.767,3.731,3.696,3.649,3.627,3.593,3.549,3.517,3.496,3.485,3.475,3.465,3.444,3.444,3.444,3.434,3.424,3.424,3.424,3.414,3.414,3.394,3.365,3.336,3.336,3.326,3.317,3.298,3.317,3.317,3.326,3.355,3.394,3.414,3.444,3.465,3.485,3.506,3.549,3.615,3.661,3.696,3.696,3.707,3.707,3.696,3.696,3.696,3.672,3.661,3.649,3.627,3.627,3.615,3.593,3.593,3.582,3.549,3.528,3.496,3.465,3.454,3.444,3.434,3.414,3.394,3.384,3.355,3.336,3.336,3.326,3.326,3.317,3.317,3.317,3.317,3.317,3.317,3.317,3.317,3.298,3.317,3.298,3.288,3.288,3.27,3.261,3.261,3.261,3.261,0,0,0,0,0,0,0,0,0,0,0,0,0,0,0,0,0
0,0,0,0,0,0,0,0,0,0,0,0,0,0,5.763,5.735,5.707,5.707,5.707,5.679,5.679,5.679,5.679,5.679,5.679,5.679,5.679,5.707,5.707,5.735,5.735,5.735,5.735,5.735,5.707,5.679,5.679,5.679,5.651,5.651,5.651,5.679,5.679,5.651,5.679,5.651,5.651,5.651,5.624,5.597,5.57,5.543,5.517,5.465,5.415,5.34,5.268,5.268,5.244,5.22,5.22,5.22,5.22,5.22,5.22,5.244,5.268,5.268,5.34,5.34,5.389,5.44,5.465,5.491,5.517,5.543,5.543,5.543,5.543,5.57,5.57,5.57,5.597,5.597,5.597,5.597,5.597,5.597,5.597,5.597,5.597,5.597,5.597,5.57,5.57,5.57,5.57,5.57,5.57,5.57,5.57,5.57,5.57,5.57,5.57,5.57,5.57,5.57,5.57,5.57,5.57,5.57,5.543,5.543,5.543,5.543,5.543,5.543,5.543,5.517,5.517,5.491,5.491,5.465,5.465,5.44,5.44,5.44,5.44,5.44,5.44,5.415,5.415,5.415,5.415,5.415,5.415,5.415,5.415,5.415,5.415,5.415,5.415,5.415,5.415,5.389,5.415,5.415,5.44,5.44,5.44,5.465,5.465,5.491,5.517,5.517,5.517,5.543,5.543,5.543,5.543,5.543,5.543,5.543,5.491,5.491,5.465,5.44,5.415,5.389,5.34,5.316,5.268,5.268,5.244,5.22,5.22,5.22,5.22,5.244,5.244,5.268,5.316,5.316,5.316,5.316,5.415,5.517,5.57,5.624,5.679,5.763,5.909,6.127,6.396,6.54,6.614,6.69,6.729,6.768,6.929,7.098,7.055,6.929,6.768,6.69,6.577,6.432,6.327,6.127,6.001,5.939,5.85,5.85,5.85,5.939,5.939,6.001,6.032,6.127,6.225,6.259,6.396,6.504,6.504,6.577,6.614,6.614,6.652,6.69,6.69,6.69,6.729,6.69,6.69,6.69,6.729,6.808,6.929,7.098,7.368,7.709,8.028,8.256,0,0,0,0,0,11.641,12.518,13.536,13.696,13.696,13.696,13.696,13.859,13.859,13.859,13.859,13.696,13.696,13.536,13.536,13.696,13.536,13.381,13.229,13.229,13.229,12.793,12.254,10.88,0,0,7.368,6.729,6.69,6.614,6.577,6.577,6.504,6.432,6.361,6.159,6.032,5.85,5.735,5.679,5.624,5.597,5.597,5.57,5.57,5.543,5.543,5.543,5.543,5.543,5.543,5.543,5.57,5.57,5.57,5.679,6.095,6.577,0,0,0,9.166,0,10.488,11.302,11.526,11.641,11.879,12.254,12.254,12.384,12.384,12.384,12.518,12.518,12.518,12.518,12.518,12.384,12.384,12.384,12.254,12.001,12.001,12.001,11.879,12.001,12.001,12.001,12.254,12.254,12.384,12.384,12.384,12.518,12.518,12.518,12.518,12.518,12.518,12.518,12.518,12.384,12.384,12.384,12.384,12.384,12.254,12.254,12.254,12.254,12.001,12.001,12.001,11.879,11.879,11.879,11.641,11.641,11.302,11.194,11.194,11.194,11.087,10.982,10.88,10.88,10.779,10.88,10.88,10.88,10.779,10.779,10.88,10.982,11.302,11.641,12.001,12.254,0,12.518,12.518,0,12.793,12.518,12.518,12.518,12.518,12.384,12.384,12.384,12.384,12.384,12.384,12.384,12.384,12.384,12.384,12.254,12.254,12.001,12.001,11.879,11.641,11.526,11.302,11.194,11.087,10.982,10.88,10.779,10.68,10.488,10.394,10.212,10.123,9.542,9.239,8.819,8.623,8.497,8.497,8.375,8.315,8.256,8.256,8.198,8.141,8.084,8.028,7.919,7.761,7.231,6.971,6.808,6.69,6.614,6.54,6.54,6.467,6.432,6.361,6.225,5.821,5.707,5.651,5.57,5.517,5.415,5.316,5.244,5.22,5.22,5.22,5.22,5.22,5.244,5.268,5.268,5.316,5.34,5.389,5.415,5.44,5.44,5.44,5.465,5.465,5.465,5.465,5.44,5.34,5.316,5.244,5.244,5.22,5.151,5.151,5.151,5.151,5.174,5.174,5.174,5.174,5.174,5.22,5.22,5.244,5.244,5.244,5.268,5.268,5.268,5.268,5.268,5.244,5.22,5.22,5.244,5.22,5.174,5.151,5.151,5.174,5.106,5.04,4.996,4.975,4.954,4.912,4.891,4.851,4.732,4.376,4.28,4.203,4.056,3.893,3.842,3.817,3.804,3.78,3.767,3.743,3.731,3.696,3.661,3.627,3.615,3.56,3.538,3.517,3.496,3.485,3.475,3.465,3.444,3.434,3.434,3.424,3.414,3.414,3.414,3.414,3.404,3.384,3.365,3.336,3.326,3.317,3.298,3.298,3.298,3.298,3.326,3.355,3.384,3.414,3.444,3.465,3.485,3.506,3.538,3.593,3.649,3.672,3.696,3.696,3.696,3.696,3.696,3.672,3.672,3.661,3.627,3.627,3.615,3.593,3.593,3.56,3.538,3.528,3.496,3.485,3.454,3.444,3.424,3.404,3.394,3.365,3.355,3.355,3.355,3.355,3.355,3.336,3.336,3.336,3.336,3.326,3.326,3.326,3.326,3.317,3.317,3.317,3.317,3.298,3.288,3.27,3.27,3.261,3.261,3.261,0,0,0,0,0,0,0,0,0,0,0,0,0,0,0,0,0
0,0,0,0,0,0,0,0,0,0,0,0,0,5.735,5.707,5.679,5.707,5.679,5.679,5.679,5.679,5.679,5.679,5.679,5.707,5.707,5.735,5.763,5.792,5.792,5.821,5.821,5.821,5.821,5.763,5.763,5.735,5.707,5.707,5.707,5.735,5.735,5.735,5.735,5.735,5.735,5.707,5.707,5.679,5.651,5.624,5.597,5.57,5.543,5.491,5.44,5.389,5.34,5.316,5.316,5.268,5.268,5.268,5.268,5.268,5.268,5.316,5.316,5.34,5.389,5.415,5.44,5.465,5.465,5.517,5.517,5.543,5.543,5.57,5.57,5.597,5.597,5.597,5.597,5.597,5.597,5.597,5.597,5.597,5.597,5.597,5.597,5.597,5.597,5.597,5.597,5.57,5.57,5.57,5.57,5.57,5.57,5.57,5.57,5.57,5.57,5.57,5.57,5.57,5.57,5.543,5.543,5.543,5.543,5.543,5.543,5.543,5.517,5.517,5.491,5.491,5.465,5.465,5.465,5.44,5.44,5.415,5.415,5.415,5.415,5.415,5.415,5.415,5.415,5.415,5.415,5.415,5.415,5.415,5.415,5.415,5.44,5.465,5.465,5.465,5.465,5.465,5.465,5.465,5.465,5.491,5.491,5.491,5.517,5.543,5.543,5.543,5.543,5.543,5.543,5.543,5.543,5.543,5.517,5.517,5.491,5.491,5.44,5.44,5.415,5.389,5.34,5.316,5.316,5.316,5.268,5.316,5.316,5.316,5.389,5.389,5.389,5.491,5.491,5.57,5.57,5.624,5.85,6.001,6.159,6.432,6.504,6.577,6.69,6.808,6.971,0,7.231,0,0,0,0,0,0,7.973,7.813,7.055,6.768,6.69,6.54,6.361,6.159,6.095,6.127,6.259,6.361,6.432,6.432,6.54,6.54,6.577,6.614,6.614,6.69,6.69,6.729,6.768,6.808,6.848,6.848,6.888,6.888,6.888,6.888,6.888,6.971,7.098,7.186,7.415,0,0,0,8.315,0,8.819,9.701,10.212,10.583,11.194,12.001,12.793,13.536,13.696,13.859,13.859,14.026,14.197,14.197,14.197,14.197,14.197,14.026,14.026,14.026,13.859,13.859,13.696,13.381,13.536,13.381,13.229,12.384,11.194,0,0,0,7.186,6.929,6.768,6.729,6.69,6.614,6.577,6.504,6.396,6.259,6.095,5.909,5.735,5.651,5.624,5.597,5.597,5.57,5.57,5.543,5.543,5.543,5.543,5.543,5.543,5.57,5.57,5.57,5.651,6.001,6.54,0,0,0,9.239,0,10.68,11.526,11.641,11.641,11.879,12.254,12.254,12.384,12.518,12.518,12.793,12.793,12.793,12.793,12.793,12.793,12.518,12.518,12.384,12.384,12.384,12.254,12.384,12.254,12.384,12.384,12.384,12.518,12.518,12.518,12.793,12.793,12.935,12.935,12.935,12.935,12.935,12.935,12.935,12.935,12.793,12.793,12.518,12.518,12.518,12.384,12.254,12.254,12.254,12.001,11.879,11.879,11.641,11.641,11.526,11.526,11.194,11.194,11.087,11.087,10.982,10.982,10.88,10.88,10.88,10.982,10.982,10.982,10.88,10.982,10.982,11.194,11.302,11.641,12.254,0,12.384,12.793,12.935,12.935,13.229,12.935,12.793,12.793,12.518,12.518,12.518,12.518,12.518,12.518,12.518,12.518,12.384,12.384,12.384,12.384,12.384,12.254,12.001,12.001,11.879,11.641,11.526,11.302,11.194,11.087,10.88,10.88,10.68,10.488,10.302,10.212,10.036,9.542,9.166,8.753,8.623,8.497,8.497,8.436,8.375,8.256,8.198,8.198,8.198,8.084,8.028,7.919,7.709,7.231,6.971,6.808,6.69,6.652,6.577,6.54,6.54,6.504,6.432,6.327,6.127,5.735,5.651,5.597,5.543,5.44,5.34,5.268,5.244,5.22,5.22,5.22,5.244,5.244,5.268,5.268,5.316,5.34,5.389,5.415,5.415,5.415,5.44,5.44,5.44,5.44,5.44,5.415,5.244,5.244,5.174,5.151,5.106,5.084,5.084,5.084,5.084,5.084,5.106,5.106,5.106,5.151,5.151,5.151,5.174,5.22,5.244,5.244,5.268,5.268,5.268,5.268,5.244,5.22,5.22,5.22,5.22,5.174,5.151,5.151,5.151,5.106,5.084,5.018,5.018,4.996,4.975,4.933,4.891,4.81,4.638,4.312,4.218,4.056,3.893,3.829,3.78,3.755,3.743,3.707,3.696,3.672,3.649,3.627,3.593,3.582,3.549,3.538,3.517,3.496,3.485,3.475,3.444,3.444,3.434,3.414,3.414,3.404,3.404,3.394,3.404,3.394,3.384,3.355,3.326,3.317,3.298,3.298,3.288,3.288,3.298,3.317,3.355,3.384,3.404,3.444,3.465,3.485,3.506,3.538,3.593,3.627,3.672,3.672,3.672,3.696,3.672,3.672,3.661,3.649,3.627,3.615,3.593,3.593,3.56,3.549,3.528,3.506,3.496,3.485,3.444,3.424,3.414,3.404,3.394,3.384,3.355,3.355,3.365,3.365,3.365,3.365,3.365,3.355,3.355,3.336,3.355,3.336,3.326,3.326,3.326,3.317,3.317,3.298,3.288,3.27,3.261,3.261,3.261,3.243,3.243,0,0,0,0,0,0,0,0,0,0,0,0,0,0,0,0,0
0,0,0,0,0,0,0,0,0,0,0,0,0,5.679,5.679,5.679,5.679,5.679,5.679,5.679,5.679,5.679,5.679,5.679,5.707,5.707,5.735,5.763,5.792,5.821,5.85,5.909,5.85,5.85,5.85,5.85,5.792,5.792,5.792,5.792,5.792,5.821,5.821,5.85,5.85,5.821,5.792,5.792,5.763,5.707,5.679,5.651,5.597,5.57,5.543,5.517,5.465,5.44,5.389,5.389,5.389,5.34,5.316,5.316,5.316,5.316,5.316,5.34,5.34,5.389,5.415,5.44,5.465,5.491,5.517,5.543,5.543,5.543,5.57,5.57,5.597,5.597,5.597,5.624,5.624,5.624,5.624,5.624,5.624,5.624,5.624,5.624,5.597,5.597,5.597,5.597,5.597,5.597,5.57,5.57,5.57,5.57,5.57,5.57,5.57,5.57,5.57,5.57,5.57,5.543,5.543,5.543,5.543,5.543,5.517,5.517,5.517,5.491,5.491,5.491,5.465,5.44,5.44,5.44,5.415,5.415,5.415,5.415,5.415,5.415,5.415,5.389,5.415,5.415,5.415,5.415,5.415,5.415,5.415,5.44,5.465,5.465,5.491,5.491,5.491,5.491,5.491,5.517,5.517,5.517,5.517,5.517,5.543,5.543,5.543,5.543,5.57,5.57,5.57,5.57,5.57,5.57,5.57,5.57,5.597,5.597,5.597,5.597,5.597,5.597,5.57,5.543,5.543,5.517,5.491,5.465,5.44,5.44,5.415,5.491,5.57,5.597,5.679,5.735,5.939,6.225,6.467,6.614,0,0,0,0,0,0,0,0,0,0,8.141,8.256,8.315,8.436,8.623,8.56,0,0,0,0,7.761,7.186,6.848,6.729,6.69,6.69,6.808,6.848,6.929,6.971,6.971,7.055,7.055,7.055,7.055,7.055,7.055,7.098,7.055,7.098,7.186,7.186,7.186,7.186,7.186,7.186,7.231,7.322,7.511,7.659,0,0,8.141,8.375,0,8.819,9.464,10.123,10.488,10.88,11.526,12.384,12.935,13.696,13.859,14.026,14.197,14.197,14.197,14.372,14.372,14.372,14.372,14.197,14.372,14.197,14.197,14.197,14.026,13.859,13.696,13.536,13.381,12.793,11.641,0,0,0,7.559,7.231,6.971,6.888,6.888,6.808,6.729,6.614,6.54,6.432,6.259,6.032,5.85,5.707,5.651,5.651,5.597,5.597,5.57,5.57,5.543,5.543,5.57,5.57,5.57,5.57,5.57,5.57,5.651,6.032,6.54,0,0,0,9.239,0,10.68,11.526,11.526,11.641,11.879,12.001,12.254,12.384,12.384,12.793,12.793,12.935,12.935,12.935,12.935,12.935,12.935,12.793,12.793,12.518,12.518,12.518,12.518,12.518,12.518,12.793,12.793,12.793,12.935,12.935,12.935,13.229,13.229,13.229,13.381,13.381,13.381,13.381,13.381,13.381,13.229,13.229,12.935,12.935,12.793,12.793,12.518,12.384,12.254,12.254,12.001,11.879,11.641,11.641,11.526,11.526,11.194,11.087,11.087,11.087,10.982,10.88,10.88,10.982,10.982,10.982,11.087,10.982,10.982,11.087,11.194,11.302,11.641,12.001,12.254,0,12.518,12.935,13.229,13.229,13.229,13.229,12.793,12.793,12.793,12.518,12.518,12.518,12.518,12.518,12.518,12.518,12.518,12.518,12.518,12.384,12.384,12.384,12.254,12.254,12.001,12.001,11.879,11.526,11.302,11.087,10.982,10.88,10.68,10.488,10.302,10.212,9.95,9.313,9.024,8.753,8.56,8.497,8.497,8.375,8.315,8.256,8.198,8.198,8.141,8.084,8.028,7.866,7.709,7.186,6.971,6.808,6.729,6.652,6.614,6.577,6.54,6.54,6.467,6.396,6.159,5.763,5.679,5.597,5.543,5.465,5.389,5.316,5.268,5.244,5.244,5.244,5.244,5.244,5.268,5.316,5.316,5.34,5.34,5.389,5.389,5.389,5.389,5.415,5.389,5.389,5.34,5.244,5.22,5.151,5.084,5.04,5.04,5.018,4.996,4.996,4.996,5.018,5.04,5.084,5.084,5.084,5.106,5.106,5.151,5.174,5.22,5.244,5.244,5.268,5.268,5.244,5.244,5.22,5.22,5.22,5.174,5.151,5.151,5.151,5.151,5.106,5.084,5.018,5.018,4.996,4.975,4.933,4.891,4.791,4.393,4.28,4.173,3.987,3.868,3.817,3.755,3.731,3.696,3.661,3.649,3.627,3.593,3.582,3.56,3.56,3.538,3.528,3.517,3.496,3.485,3.475,3.465,3.444,3.424,3.414,3.404,3.394,3.394,3.394,3.384,3.384,3.355,3.326,3.317,3.298,3.288,3.288,3.288,3.288,3.298,3.317,3.355,3.394,3.414,3.444,3.465,3.485,3.506,3.549,3.593,3.627,3.672,3.672,3.672,3.672,3.672,3.661,3.649,3.627,3.615,3.593,3.56,3.549,3.538,3.517,3.506,3.496,3.485,3.444,3.424,3.404,3.394,3.384,3.365,3.365,3.355,3.355,3.365,3.365,3.384,3.384,3.365,3.365,3.355,3.355,3.336,3.336,3.326,3.326,3.317,3.298,3.298,3.288,3.27,3.261,3.243,3.243,3.243,3.234,3.234,0,0,0,0,0,0,0,0,0,0,0,0,0,0,0,0,0
0,0,0,0,0,0,0,0,0,0,0,0,0,0,5.651,5.651,5.651,5.651,5.651,5.651,5.651,5.651,5.651,5.679,5.679,5.707,5.735,5.763,5.821,5.85,5.909,5.909,5.909,5.939,5.909,5.909,5.85,5.821,5.821,5.85,5.85,5.85,5.85,5.909,5.909,5.909,5.85,5.821,5.821,5.763,5.707,5.679,5.651,5.597,5.57,5.543,5.517,5.465,5.465,5.44,5.44,5.415,5.389,5.389,5.34,5.34,5.34,5.34,5.389,5.389,5.415,5.44,5.44,5.491,5.517,5.543,5.543,5.57,5.57,5.597,5.597,5.597,5.624,5.624,5.651,5.651,5.651,5.651,5.651,5.651,5.651,5.651,5.651,5.651,5.624,5.624,5.597,5.597,5.597,5.597,5.57,5.57,5.57,5.57,5.57,5.57,5.57,5.543,5.543,5.543,5.543,5.543,5.543,5.517,5.517,5.517,5.491,5.491,5.465,5.44,5.44,5.44,5.415,5.415,5.415,5.389,5.389,5.389,5.389,5.389,5.389,5.389,5.389,5.415,5.415,5.44,5.44,5.44,5.44,5.465,5.465,5.491,5.491,5.517,5.517,5.517,5.517,5.543,5.543,5.543,5.543,5.543,5.543,5.543,5.543,5.57,5.57,5.57,5.57,5.57,5.57,5.597,5.651,5.651,5.679,5.735,5.763,5.763,5.821,5.821,5.763,5.679,5.651,5.624,5.597,5.57,5.543,5.543,5.517,5.543,5.679,0,0,0,0,0,0,7.098,0,0,0,0,8.028,8.084,8.198,8.375,8.497,8.819,9.239,9.464,9.542,9.783,10.036,9.95,9.783,9.464,8.955,0,8.256,0,8.084,7.919,7.761,0,0,7.866,7.919,0,0,0,7.919,7.813,7.761,7.761,7.659,7.559,7.415,7.415,7.415,7.415,7.415,7.511,7.511,7.559,7.659,7.761,7.973,8.028,8.198,8.315,0,8.623,9.239,9.865,10.212,10.583,10.88,11.526,12.254,12.935,13.381,13.696,14.026,14.197,14.197,14.372,14.372,14.372,14.552,14.552,14.552,14.552,14.552,14.372,14.372,14.372,14.197,14.026,13.859,13.696,13.536,13.381,12.518,0,0,8.375,7.973,7.659,7.186,7.098,7.055,6.971,6.888,6.808,6.614,6.577,6.467,6.225,5.939,5.763,5.679,5.651,5.624,5.597,5.57,5.57,5.57,5.57,5.57,5.57,5.57,5.57,5.57,5.57,5.651,6.001,6.504,0,0,8.028,9.313,0,10.68,11.302,11.526,11.641,11.641,12.001,12.254,12.384,12.518,12.793,12.935,12.935,13.229,13.229,13.229,13.229,13.229,12.935,12.935,12.935,12.935,12.793,12.935,12.935,12.793,12.935,12.935,12.935,13.229,13.229,13.229,13.381,13.381,13.536,13.696,13.696,13.859,13.859,13.859,13.696,13.696,13.536,13.381,13.229,13.229,12.935,12.793,12.793,12.518,12.384,12.001,11.879,11.641,11.641,11.526,11.194,11.194,11.087,11.087,11.087,10.982,10.982,10.982,11.087,11.087,11.087,11.194,11.194,11.194,11.302,11.302,11.641,11.879,12.001,0,12.384,12.518,12.935,13.229,13.229,13.229,13.229,12.793,12.793,12.793,12.793,12.518,12.518,12.518,12.518,12.793,12.518,12.518,12.518,12.518,12.518,12.384,12.384,12.384,12.254,12.254,12.254,11.879,11.641,11.302,11.194,11.087,10.88,10.68,10.488,10.302,10.123,9.542,9.166,8.753,8.497,8.375,8.375,8.375,8.315,8.256,8.198,8.198,8.141,8.084,8.028,7.973,7.813,7.559,7.098,6.929,6.768,6.729,6.652,6.614,6.614,6.577,6.54,6.54,6.432,6.259,5.821,5.707,5.624,5.57,5.491,5.415,5.316,5.268,5.268,5.268,5.268,5.268,5.268,5.268,5.268,5.316,5.316,5.316,5.316,5.316,5.316,5.268,5.316,5.268,5.244,5.22,5.174,5.106,5.04,5.018,4.975,4.954,4.954,4.954,4.933,4.933,4.954,4.975,4.996,4.996,5.018,5.04,5.084,5.106,5.151,5.174,5.22,5.22,5.244,5.244,5.244,5.244,5.22,5.22,5.174,5.174,5.151,5.106,5.106,5.106,5.106,5.04,5.018,4.996,4.996,4.954,4.912,4.851,4.752,4.36,4.264,4.173,3.987,3.868,3.817,3.731,3.696,3.649,3.627,3.593,3.582,3.56,3.56,3.549,3.549,3.538,3.528,3.517,3.506,3.496,3.485,3.465,3.444,3.424,3.414,3.404,3.394,3.394,3.384,3.384,3.365,3.336,3.326,3.298,3.288,3.27,3.27,3.27,3.288,3.288,3.326,3.355,3.394,3.414,3.444,3.465,3.485,3.517,3.549,3.593,3.649,3.672,3.672,3.672,3.661,3.649,3.627,3.627,3.615,3.582,3.549,3.538,3.517,3.506,3.485,3.475,3.465,3.434,3.394,3.384,3.365,3.336,3.336,3.336,3.326,3.326,3.336,3.355,3.365,3.365,3.365,3.365,3.355,3.355,3.336,3.336,3.326,3.317,3.317,3.288,3.288,3.27,3.261,3.243,3.234,3.225,3.225,3.225,3.216,3.216,0,0,0,0,0,0,0,0,0,0,0,0,0,0,0,0,0
0,0,0,0,0,0,0,0,0,0,0,0,0,0,5.57,5.57,5.57,5.597,5.597,5.597,5.597,5.597,5.624,5.651,5.679,5.679,5.707,5.763,5.792,5.85,5.909,5.909,5.939,5.909,5.909,5.909,5.85,5.85,5.821,5.85,5.85,5.909,5.909,5.909,5.909,5.909,5.909,5.85,5.821,5.792,5.735,5.679,5.651,5.624,5.597,5.57,5.543,5.543,5.517,5.465,5.465,5.465,5.44,5.415,5.415,5.415,5.415,5.415,5.389,5.415,5.415,5.44,5.465,5.491,5.517,5.543,5.543,5.57,5.57,5.597,5.597,5.597,5.624,5.624,5.651,5.651,5.651,5.651,5.651,5.679,5.651,5.651,5.651,5.651,5.651,5.651,5.624,5.624,5.597,5.597,5.597,5.597,5.57,5.57,5.57,5.57,5.543,5.543,5.543,5.543,5.543,5.517,5.517,5.517,5.491,5.491,5.491,5.465,5.465,5.44,5.44,5.415,5.415,5.415,5.389,5.389,5.389,5.389,5.389,5.389,5.389,5.415,5.415,5.415,5.415,5.44,5.44,5.44,5.465,5.465,5.491,5.491,5.517,5.517,5.543,5.543,5.543,5.543,5.543,5.543,5.543,5.543,5.543,5.57,5.57,5.57,5.57,5.57,5.57,5.597,5.624,5.679,5.763,5.85,0,6.001,6.095,6.159,6.225,6.259,6.159,6.032,5.939,5.821,5.763,5.707,5.651,5.624,5.597,5.651,5.85,6.225,0,0,0,7.231,0,0,0,0,0,8.623,8.753,8.955,9.166,9.464,9.701,10.036,10.212,10.302,10.394,10.394,10.583,10.583,10.488,10.302,10.036,9.783,9.464,0,0,0,0,0,0,0,0,0,0,8.56,8.497,8.497,8.315,8.256,8.198,7.973,7.866,7.761,7.709,7.761,7.813,7.866,7.919,7.973,8.028,8.141,8.256,0,8.497,8.753,9.166,9.701,10.123,10.394,10.68,10.982,11.302,12.001,12.518,13.381,13.536,13.859,14.026,14.197,14.197,14.372,14.552,14.552,14.552,14.552,14.552,14.552,14.552,14.552,14.552,14.372,14.372,14.197,14.026,13.859,13.696,13.536,12.935,11.879,10.68,10.123,8.256,8.028,7.709,7.559,7.368,7.322,7.186,7.055,6.888,6.768,6.577,6.396,6.159,5.85,5.763,5.679,5.651,5.624,5.597,5.57,5.57,5.57,5.57,5.57,5.57,5.57,5.57,5.57,5.679,6.095,0,0,0,8.141,9.542,0,10.779,11.302,11.302,11.526,11.641,11.879,12.254,12.384,12.384,12.793,12.935,13.229,13.229,13.229,13.381,13.381,13.229,13.229,13.229,13.229,13.229,13.229,13.229,13.229,13.229,13.229,13.381,13.381,13.381,13.381,13.536,13.696,13.696,14.026,14.026,14.197,14.197,14.197,14.197,14.197,14.026,14.026,13.859,13.696,13.536,13.381,13.229,12.935,12.793,12.384,12.254,12.001,11.879,11.641,11.526,11.194,11.087,11.087,11.087,11.087,11.087,11.087,11.087,11.194,11.194,11.302,11.526,11.526,11.641,11.641,11.879,12.001,0,12.254,12.384,12.518,12.793,12.935,13.229,13.229,13.229,13.229,12.935,12.793,12.793,12.793,12.518,12.793,12.518,12.518,12.793,12.793,12.518,12.518,12.518,12.518,12.518,12.518,12.384,12.384,12.384,12.254,12.001,11.879,11.641,11.302,11.194,11.087,10.779,10.583,10.394,10.212,9.95,9.024,8.623,8.375,8.256,8.256,8.256,8.256,8.198,8.198,8.141,8.084,8.028,7.973,7.919,7.659,7.186,6.971,6.888,6.768,6.69,6.69,6.614,6.614,6.577,6.577,6.54,6.467,6.327,5.85,5.735,5.651,5.57,5.517,5.415,5.34,5.316,5.316,5.268,5.316,5.316,5.316,5.316,5.268,5.268,5.268,5.268,5.268,5.268,5.244,5.174,5.151,5.151,5.106,5.084,5.04,4.996,4.975,4.954,4.933,4.933,4.912,4.891,4.891,4.891,4.912,4.933,4.933,4.975,4.975,4.996,5.018,5.084,5.106,5.151,5.174,5.22,5.22,5.244,5.244,5.22,5.174,5.174,5.174,5.151,5.151,5.106,5.106,5.084,5.084,5.04,5.018,4.996,4.975,4.954,4.891,4.83,4.713,4.344,4.264,4.158,3.973,3.868,3.755,3.707,3.661,3.615,3.582,3.56,3.549,3.549,3.549,3.549,3.56,3.549,3.549,3.538,3.538,3.517,3.496,3.475,3.444,3.434,3.414,3.404,3.394,3.394,3.384,3.365,3.355,3.326,3.317,3.288,3.27,3.27,3.261,3.261,3.27,3.288,3.326,3.355,3.394,3.424,3.444,3.465,3.496,3.517,3.549,3.593,3.627,3.672,3.696,3.672,3.661,3.649,3.649,3.615,3.593,3.56,3.528,3.506,3.496,3.485,3.475,3.454,3.444,3.414,3.384,3.355,3.336,3.317,3.317,3.317,3.326,3.317,3.317,3.326,3.336,3.355,3.336,3.355,3.336,3.326,3.326,3.317,3.298,3.298,3.288,3.27,3.261,3.234,3.234,3.216,3.207,3.198,3.207,3.198,3.189,3.189,0,0,0,0,0,0,0,0,0,0,0,0,0,0,0,0,0
0,0,0,0,0,0,0,0,0,0,0,0,0,0,5.517,5.517,5.543,5.543,5.543,5.543,5.543,5.57,5.597,5.597,5.651,5.651,5.679,5.707,5.763,5.792,5.821,5.85,5.85,5.85,5.85,5.85,5.85,5.821,5.821,5.821,5.821,5.85,5.85,5.909,5.939,5.939,5.909,5.85,5.821,5.792,5.763,5.707,5.679,5.651,5.624,5.597,5.57,5.57,5.543,5.517,5.491,5.491,5.491,5.465,5.44,5.44,5.44,5.44,5.44,5.44,5.44,5.465,5.491,5.491,5.517,5.543,5.543,5.57,5.597,5.597,5.597,5.624,5.651,5.651,5.651,5.651,5.651,5.679,5.679,5.679,5.679,5.679,5.679,5.679,5.679,5.651,5.651,5.624,5.597,5.597,5.597,5.597,5.597,5.57,5.57,5.57,5.543,5.543,5.543,5.543,5.517,5.517,5.517,5.491,5.491,5.465,5.465,5.465,5.44,5.415,5.415,5.415,5.389,5.415,5.389,5.389,5.389,5.389,5.389,5.389,5.415,5.415,5.415,5.415,5.44,5.44,5.44,5.465,5.465,5.491,5.491,5.517,5.517,5.543,5.543,5.543,5.543,5.543,5.543,5.543,5.57,5.57,5.57,5.57,5.543,5.543,5.57,5.597,5.651,5.679,5.763,0,5.939,6.159,0,0,0,0,0,0,0,0,0,0,6.127,6.001,5.85,5.792,5.763,5.939,6.396,0,0,0,7.919,8.028,0,9.313,0,9.783,0,9.95,9.95,10.123,10.212,10.302,10.394,10.583,10.68,10.68,10.88,10.982,11.194,11.302,11.194,10.88,10.68,10.488,10.394,10.302,0,0,0,0,0,0,0,10.036,10.036,9.95,9.783,9.542,9.313,8.955,8.56,8.315,8.028,7.973,7.973,7.973,8.028,8.084,8.141,8.256,0,8.375,8.56,9.024,9.313,9.701,9.95,10.302,10.394,10.68,10.982,11.302,11.879,12.254,12.793,13.381,13.536,13.859,14.197,14.197,14.372,14.552,14.552,14.552,14.552,14.736,14.736,14.736,14.736,14.552,14.552,14.372,14.372,14.197,14.026,13.859,13.696,13.381,13.229,12.384,11.087,0,9.166,8.436,8.084,8.028,7.919,7.761,7.659,7.415,7.231,6.971,6.652,6.54,6.259,6.001,5.821,5.707,5.679,5.624,5.597,5.57,5.57,5.57,5.57,5.57,5.57,5.57,5.57,5.57,5.679,6.159,0,0,0,0,9.865,0,10.88,11.194,11.302,11.526,11.641,11.879,12.001,12.254,12.384,12.793,12.935,12.935,13.229,13.381,13.381,13.381,13.381,13.381,13.381,13.381,13.381,13.381,13.381,13.381,13.381,13.536,13.536,13.696,13.696,13.696,13.859,14.026,14.197,14.197,14.197,14.372,14.372,14.372,14.372,14.372,14.372,14.197,14.197,14.026,13.859,13.859,13.536,13.381,13.229,12.793,12.518,12.254,12.001,11.879,11.641,11.526,11.194,11.194,11.087,11.194,11.087,11.194,11.194,11.526,11.526,11.641,0,11.879,11.879,12.001,12.254,12.254,12.254,12.384,12.518,12.793,12.793,13.229,13.229,13.229,13.229,13.229,13.229,12.793,12.793,12.793,12.793,12.793,12.793,12.793,12.793,12.793,12.793,12.518,12.518,12.518,12.518,12.518,12.518,12.518,12.384,12.384,12.254,12.001,11.879,11.526,11.302,11.194,10.88,10.68,10.394,10.212,10.036,8.955,8.497,8.256,8.141,8.141,8.141,8.141,8.084,8.084,8.028,8.028,7.973,7.866,7.709,7.511,7.055,6.929,6.808,6.729,6.69,6.652,6.614,6.614,6.577,6.577,6.54,6.467,6.327,6.127,5.735,5.651,5.597,5.543,5.44,5.389,5.34,5.316,5.316,5.316,5.316,5.316,5.316,5.268,5.244,5.22,5.22,5.22,5.174,5.04,5.018,4.975,4.975,4.954,4.954,4.912,4.912,4.891,4.891,4.891,4.871,4.851,4.851,4.851,4.851,4.871,4.891,4.912,4.912,4.933,4.975,4.996,5.04,5.084,5.106,5.151,5.174,5.22,5.22,5.22,5.22,5.174,5.174,5.151,5.151,5.106,5.084,5.084,5.084,5.084,5.04,5.018,4.996,4.954,4.933,4.891,4.81,4.694,4.328,0,4.114,3.946,3.855,3.743,3.696,3.649,3.593,3.56,3.549,3.549,3.549,3.538,3.549,3.56,3.56,3.56,3.56,3.56,3.538,3.506,3.485,3.444,3.434,3.414,3.394,3.365,3.355,3.355,3.336,3.326,3.298,3.288,3.27,3.261,3.243,3.243,3.261,3.27,3.288,3.326,3.355,3.394,3.424,3.454,3.475,3.496,3.517,3.56,3.593,3.649,3.672,3.696,3.672,3.661,3.627,3.627,3.593,3.56,3.538,3.506,3.496,3.485,3.465,3.454,3.444,3.404,3.384,3.355,3.326,3.317,3.298,3.288,3.288,3.288,3.288,3.298,3.298,3.317,3.317,3.326,3.317,3.317,3.298,3.298,3.288,3.27,3.261,3.243,3.234,3.225,3.207,3.198,3.189,3.189,3.181,3.181,3.181,3.181,3.181,0,0,0,0,0,0,0,0,0,0,0,0,0,0,0,0,0
0,0,0,0,0,0,0,0,0,0,0,0,0,0,5.44,5.44,5.44,5.465,5.465,5.465,5.491,5.517,5.543,5.57,5.597,5.624,5.651,5.679,5.679,5.735,5.763,5.792,5.792,5.792,5.821,5.792,5.792,5.792,5.792,5.792,5.821,5.821,5.85,5.85,5.85,5.85,5.85,5.821,5.821,5.792,5.735,5.707,5.679,5.651,5.651,5.624,5.597,5.57,5.57,5.543,5.517,5.491,5.491,5.491,5.465,5.44,5.44,5.415,5.44,5.44,5.44,5.465,5.491,5.491,5.517,5.543,5.543,5.57,5.597,5.597,5.597,5.624,5.651,5.651,5.651,5.651,5.679,5.679,5.679,5.707,5.707,5.707,5.707,5.707,5.679,5.679,5.651,5.651,5.624,5.597,5.597,5.597,5.57,5.57,5.57,5.57,5.543,5.543,5.543,5.517,5.491,5.491,5.491,5.491,5.465,5.465,5.465,5.465,5.44,5.415,5.415,5.415,5.415,5.415,5.415,5.415,5.415,5.415,5.415,5.415,5.415,5.415,5.415,5.44,5.44,5.465,5.465,5.465,5.491,5.491,5.491,5.517,5.517,5.543,5.543,5.543,5.543,5.543,5.543,5.57,5.57,5.57,5.57,5.543,5.57,5.57,5.597,5.651,5.763,0,5.909,6.159,0,0,0,0,6.729,6.768,6.768,6.768,6.729,6.69,6.614,6.577,6.54,6.259,6.095,6.001,6.095,6.396,0,6.69,7.098,0,0,8.955,0,10.212,10.68,10.68,10.68,10.779,10.779,10.88,10.982,10.982,10.982,10.982,11.087,11.087,11.302,11.302,11.526,11.879,11.879,11.879,11.879,11.526,11.087,10.982,0,10.68,10.488,10.583,10.583,10.583,10.583,10.583,10.583,10.394,10.302,10.302,10.123,9.783,9.239,8.819,8.436,8.256,8.198,8.198,8.198,8.256,8.315,8.497,8.753,9.024,9.464,9.783,9.95,10.123,10.302,10.394,10.583,10.779,10.982,11.302,11.879,12.384,12.935,13.381,13.696,14.026,14.197,14.372,14.372,14.552,14.552,14.552,14.736,14.736,0,14.925,14.736,14.736,14.552,14.372,14.372,14.197,14.197,13.859,13.696,13.536,13.229,12.518,11.526,0,0,9.239,8.56,8.315,8.198,8.084,7.973,7.866,7.559,7.322,7.055,6.577,6.361,6.095,5.909,5.763,5.679,5.651,5.597,5.57,5.57,5.57,5.57,5.57,5.57,5.57,5.57,5.57,5.679,6.225,0,0,0,0,0,9.95,10.88,11.194,11.194,11.302,11.526,11.641,11.879,12.001,12.384,12.518,12.935,13.229,13.229,13.229,13.381,13.381,13.381,13.381,13.381,13.381,13.536,13.536,13.536,13.696,13.696,13.696,13.696,13.859,14.026,14.026,14.197,14.197,14.372,14.372,14.552,14.552,14.552,14.552,14.552,14.552,14.552,14.372,14.372,14.372,14.197,14.026,14.026,13.696,13.536,13.229,12.793,12.518,12.254,12.001,11.641,11.526,11.526,11.194,11.194,11.194,11.194,11.194,11.302,11.526,0,11.641,11.879,12.001,12.001,12.254,12.384,12.384,12.518,12.518,12.793,12.935,12.935,13.229,13.229,13.229,13.381,13.229,13.229,12.935,12.935,12.935,12.793,12.793,12.793,12.793,12.935,12.793,12.793,12.793,12.793,12.793,12.793,12.793,12.518,12.518,12.518,12.384,12.384,12.254,12.001,11.879,11.641,11.302,11.087,10.68,10.583,10.394,10.123,8.955,8.375,8.084,8.028,7.973,7.973,7.973,7.973,7.973,7.866,7.866,7.813,7.709,7.511,7.098,6.971,6.848,6.768,6.729,6.69,6.652,6.614,6.614,6.614,6.577,6.54,6.504,6.361,6.127,5.763,5.679,5.597,5.543,5.465,5.389,5.34,5.316,5.34,5.316,5.34,5.316,5.316,5.316,5.244,5.22,5.174,5.04,4.996,4.975,4.933,4.912,4.912,4.912,4.891,4.891,4.891,4.871,4.851,4.851,4.83,4.83,4.83,4.83,4.83,4.851,4.871,4.891,4.912,4.912,4.954,4.975,5.018,5.04,5.084,5.106,5.151,5.174,5.22,5.174,5.174,5.174,5.174,5.151,5.151,5.106,5.084,5.084,5.084,5.04,5.018,4.996,4.996,4.954,4.912,4.851,4.791,0,4.312,4.233,4.07,3.933,3.855,3.743,3.696,3.627,3.582,3.56,3.549,3.549,3.549,3.549,3.56,3.582,3.593,3.593,3.615,3.615,3.56,3.528,3.496,3.465,3.424,3.414,3.394,3.365,3.336,3.336,3.326,3.317,3.298,3.27,3.243,3.243,3.243,3.243,3.261,3.27,3.298,3.326,3.365,3.404,3.424,3.454,3.475,3.496,3.517,3.549,3.593,3.649,3.672,3.672,3.661,3.627,3.615,3.582,3.549,3.528,3.496,3.485,3.465,3.454,3.444,3.404,3.365,3.365,3.336,3.317,3.288,3.288,3.27,3.261,3.27,3.261,3.27,3.261,3.27,3.27,3.288,3.288,3.27,3.27,3.261,3.243,3.234,3.225,3.216,3.207,3.198,3.189,3.189,3.181,3.181,3.172,3.163,3.163,3.163,3.163,3.155,0,0,0,0,0,0,0,0,0,0,0,0,0,0,0,0,0
0,0,0,0,0,0,0,0,0,0,0,0,0,0,0,5.268,5.316,5.34,5.34,5.389,5.389,5.415,5.465,5.517,5.57,5.57,5.597,5.624,5.651,5.679,5.707,5.735,5.735,5.763,5.763,5.735,5.735,5.735,5.763,5.763,5.763,5.792,5.792,5.821,5.821,5.821,5.821,5.821,5.792,5.763,5.735,5.707,5.679,5.651,5.651,5.624,5.597,5.597,5.57,5.57,5.543,5.517,5.517,5.491,5.465,5.465,5.44,5.44,5.44,5.44,5.44,5.465,5.491,5.517,5.517,5.543,5.543,5.57,5.597,5.597,5.624,5.651,5.651,5.651,5.651,5.679,5.679,5.707,5.735,5.735,5.763,5.763,5.763,5.735,5.707,5.679,5.679,5.651,5.624,5.597,5.597,5.597,5.57,5.57,5.57,5.543,5.543,5.543,5.543,5.517,5.491,5.491,5.491,5.491,5.465,5.465,5.465,5.44,5.44,5.44,5.44,5.415,5.44,5.415,5.415,5.415,5.415,5.415,5.415,5.44,5.44,5.44,5.44,5.44,5.465,5.465,5.465,5.491,5.491,5.491,5.517,5.517,5.517,5.543,5.543,5.543,5.543,5.543,5.57,5.57,5.57,5.57,5.543,5.57,5.57,5.597,5.651,5.763,0,6.032,0,0,0,0,0,6.929,7.055,7.098,7.098,7.098,6.929,6.848,6.729,6.69,6.614,6.54,6.225,6.095,6.127,0,0,6.768,7.368,0,0,9.542,0,10.583,11.302,11.194,11.087,11.087,10.982,10.982,10.982,10.982,11.087,11.087,11.087,11.194,11.302,11.302,11.641,11.879,12.001,12.001,12.001,12.001,12.001,11.879,11.879,11.879,11.302,11.526,11.302,11.302,11.194,11.194,11.087,10.982,10.779,10.68,10.488,10.302,10.123,0,9.024,8.753,8.56,8.497,8.497,8.753,8.955,9.166,9.542,9.783,10.036,10.212,10.302,10.394,10.394,10.583,10.68,10.982,11.194,11.641,12.254,12.518,13.229,13.696,13.859,14.197,14.372,14.372,14.552,14.552,14.552,14.736,14.736,0,14.925,14.925,14.925,14.736,14.552,14.552,14.372,14.197,14.197,13.859,13.696,13.536,13.229,12.793,11.879,0,0,0,9.313,8.819,8.497,8.256,8.198,8.028,7.866,7.559,7.186,6.69,6.54,6.327,6.032,5.821,5.707,5.651,5.597,5.57,5.57,5.57,5.57,5.57,5.57,5.57,5.57,0,0,0,0,0,0,0,9.865,0,10.68,11.087,11.087,11.302,11.526,11.641,11.879,12.001,12.384,12.518,12.935,12.935,13.229,13.381,13.536,13.536,13.536,13.536,13.536,13.536,13.536,13.696,13.696,13.859,13.859,14.026,14.026,14.197,14.197,14.197,14.372,14.372,14.552,14.552,14.552,14.736,14.925,14.925,14.925,14.925,14.736,14.736,14.552,14.552,14.372,14.372,14.197,14.026,13.696,13.536,13.229,12.793,12.384,12.254,11.879,11.641,11.526,11.302,11.194,11.194,11.194,11.302,0,11.526,11.641,11.879,12.001,12.254,12.384,12.384,12.518,12.793,12.793,12.935,12.793,12.935,13.229,13.229,13.229,13.381,13.381,13.381,13.229,13.229,12.935,12.935,12.935,12.935,12.935,12.935,12.935,12.935,12.935,12.793,12.793,12.793,12.793,12.793,12.793,12.518,12.518,12.518,12.518,12.384,12.254,12.001,12.001,11.879,11.526,11.087,10.779,10.583,10.302,9.239,8.436,8.084,7.919,7.813,7.813,7.813,7.813,7.813,7.813,7.761,7.761,7.709,7.511,7.098,6.929,6.808,6.729,6.729,6.69,6.69,6.614,6.614,6.614,6.577,6.577,6.504,6.396,6.159,5.792,5.679,5.597,5.543,5.465,5.415,5.34,5.34,5.34,5.316,5.34,5.316,5.316,5.316,5.244,5.22,5.174,5.04,4.975,4.933,4.912,4.891,4.891,4.891,4.891,4.851,4.851,4.83,4.83,4.83,4.83,4.81,4.81,4.81,4.81,4.83,4.851,4.871,4.891,4.912,4.933,4.954,4.996,5.04,5.084,5.106,5.106,5.151,5.174,5.174,5.174,5.174,5.174,5.151,5.151,5.106,5.084,5.084,5.084,5.04,5.018,4.996,4.975,4.933,4.891,4.83,4.752,4.565,4.28,4.203,4.028,3.906,3.842,3.804,3.672,3.627,3.593,3.56,3.549,3.549,3.549,3.56,3.582,3.593,3.615,3.627,3.615,3.627,3.593,3.538,3.496,3.475,3.424,3.404,3.394,3.355,3.336,3.326,3.326,3.298,3.27,3.261,3.243,3.243,3.234,3.243,3.261,3.27,3.298,3.336,3.365,3.404,3.434,3.454,3.475,3.496,3.517,3.549,3.582,3.627,3.661,3.661,3.649,3.615,3.582,3.549,3.528,3.496,3.485,3.454,3.444,3.434,3.394,3.365,3.336,3.317,3.298,3.288,3.27,3.261,3.243,3.243,3.234,3.243,3.234,3.243,3.243,3.243,3.243,3.234,3.234,3.225,3.216,3.207,3.198,3.189,3.189,3.181,3.181,3.172,3.163,3.163,3.155,3.155,3.155,3.155,3.146,3.146,3.146,0,0,0,0,0,0,0,0,0,0,0,0,0,0,0,0,0
0,0,0,0,0,0,0,0,0,0,0,0,0,0,5.174,5.22,5.22,5.244,5.268,5.268,0,5.34,5.389,5.465,5.491,5.543,5.57,5.597,5.624,5.651,5.651,5.679,5.679,5.679,5.679,5.679,5.679,5.707,5.707,5.707,5.707,5.735,5.763,5.763,5.792,5.792,5.792,5.763,5.763,5.735,5.735,5.707,5.679,5.679,5.651,5.624,5.624,5.597,5.57,5.57,5.543,5.543,5.517,5.517,5.491,5.465,5.465,5.44,5.44,5.44,5.44,5.465,5.491,5.517,5.517,5.543,5.543,5.57,5.597,5.597,5.597,5.624,5.651,5.651,5.651,5.679,5.679,5.707,5.735,5.763,5.763,5.792,5.763,5.735,5.735,5.707,5.679,5.651,5.624,5.597,5.597,5.597,5.57,5.57,5.57,5.543,5.543,5.543,5.517,5.517,5.491,5.491,5.491,5.491,5.465,5.491,5.465,5.465,5.465,5.44,5.44,5.44,5.44,5.44,5.44,5.44,5.44,5.44,5.44,5.465,5.465,5.465,5.465,5.465,5.465,5.491,5.491,5.491,5.491,5.517,5.517,5.517,5.543,5.543,5.543,5.543,5.543,5.57,5.57,5.57,5.57,5.57,5.57,5.597,5.597,5.679,0,5.763,6.032,0,0,0,0,7.055,7.186,7.322,7.415,7.415,7.415,7.368,7.322,7.186,6.971,6.848,6.729,6.652,6.54,6.327,6.361,0,6.54,6.808,7.368,0,0,0,9.701,10.583,11.526,11.526,11.302,11.194,11.087,11.087,11.087,11.194,11.194,11.194,11.194,11.302,11.302,11.526,11.641,11.879,12.001,12.001,12.001,12.254,12.254,12.384,12.384,12.384,12.254,12.254,12.254,12.001,11.641,11.641,11.302,11.194,11.087,10.88,10.68,10.583,10.302,10.212,0,9.542,9.239,9.239,9.313,9.464,9.783,9.95,10.123,10.302,10.394,10.488,10.583,10.68,10.68,10.88,10.982,11.194,11.641,12.254,12.518,13.229,13.536,13.859,14.197,14.372,14.372,0,14.552,14.552,0,14.736,14.736,14.736,14.736,14.925,14.925,14.736,14.552,14.552,14.372,14.372,14.197,14.026,13.696,13.696,13.536,13.229,12.384,11.641,11.087,10.68,10.394,10.123,9.166,8.753,8.436,8.256,8.084,7.866,7.559,7.186,6.577,6.396,6.095,5.821,0,0,0,0,0,0,0,5.57,5.543,0,5.57,0,0,0,0,0,0,8.198,9.542,0,10.583,10.88,11.087,11.194,11.302,11.526,11.641,11.879,12.254,12.518,12.793,12.935,13.229,13.381,13.381,13.536,13.536,13.536,13.696,13.696,13.696,13.859,14.026,14.026,14.197,14.197,14.197,14.197,14.372,14.372,14.552,14.552,14.736,14.736,14.925,14.925,15.119,15.119,15.119,15.119,15.119,15.119,14.925,14.925,14.736,14.552,14.372,14.372,14.197,13.696,13.536,13.229,12.793,12.518,12.254,12.001,11.641,11.526,11.302,11.302,11.302,11.302,0,11.526,11.641,11.879,12.001,12.254,12.384,12.384,12.518,12.518,12.793,12.935,13.229,13.229,13.229,13.229,13.381,13.381,13.381,13.381,13.381,13.229,13.229,13.229,13.229,13.229,13.229,13.229,13.229,12.935,12.935,12.935,12.793,12.793,12.793,12.793,12.793,12.793,12.793,12.793,12.793,12.518,12.384,12.384,12.254,12.254,12.001,11.641,11.087,10.779,10.583,0,8.753,8.198,7.919,7.709,7.761,7.813,7.813,7.813,7.761,7.761,7.761,7.709,7.511,7.098,6.929,6.808,6.729,6.729,6.69,6.69,6.652,6.614,6.614,6.577,6.577,6.504,6.396,6.159,5.792,5.679,5.597,5.543,5.491,5.415,5.389,5.34,5.34,5.316,5.34,5.316,5.316,5.268,5.244,5.22,5.151,5.04,4.975,4.933,4.912,4.891,4.891,4.871,4.871,4.851,4.851,4.851,4.83,4.81,4.81,4.81,4.81,4.791,4.81,4.83,4.851,4.871,4.891,4.912,4.912,4.954,4.996,5.018,5.04,5.084,5.106,5.151,5.151,5.174,5.174,5.174,5.174,5.151,5.151,5.106,5.084,5.084,5.04,5.04,4.996,4.975,4.954,4.912,4.871,4.81,4.713,4.512,4.28,4.173,3.987,3.88,3.829,3.792,3.696,3.649,3.593,3.56,3.56,3.56,3.56,3.582,3.593,3.627,3.649,3.649,3.661,3.661,3.627,3.56,3.517,3.485,3.424,3.404,3.365,3.355,3.336,3.336,3.317,3.298,3.27,3.261,3.243,3.234,3.234,3.243,3.261,3.288,3.298,3.336,3.384,3.414,3.434,3.454,3.465,3.485,3.506,3.549,3.582,3.615,3.649,3.649,3.615,3.582,3.549,3.528,3.496,3.485,3.465,3.444,3.414,3.365,3.355,3.326,3.298,3.288,3.27,3.261,3.261,3.243,3.234,3.234,3.225,3.216,3.225,3.216,3.216,3.207,3.207,3.198,3.198,3.189,3.189,3.181,3.181,3.181,3.172,3.163,3.163,3.155,3.155,3.146,3.146,3.146,3.146,3.138,3.138,3.138,0,0,0,0,0,0,0,0,0,0,0,0,0,0,0,0,0,0
0,0,0,0,0,0,0,0,0,0,0,0,0,0,5.04,5.04,5.084,5.106,5.151,5.174,5.244,5.268,0,5.389,5.44,5.491,5.543,5.57,5.57,5.597,5.624,5.624,5.651,5.651,5.651,5.651,5.651,5.651,5.679,5.679,5.679,5.679,5.707,5.735,5.735,5.735,5.735,5.735,5.735,5.735,5.707,5.679,5.679,5.679,5.651,5.651,5.624,5.597,5.597,5.57,5.57,5.57,5.543,5.543,5.517,5.491,5.465,5.465,5.465,5.465,5.465,5.465,5.491,5.517,5.517,5.543,5.543,5.57,5.57,5.597,5.597,5.624,5.651,5.651,5.679,5.679,5.679,5.707,5.735,5.763,5.792,5.792,5.763,5.735,5.735,5.679,5.679,5.651,5.624,5.597,5.597,5.597,5.57,5.57,5.57,5.57,5.543,5.543,5.517,5.517,5.491,5.491,5.491,5.491,5.491,5.491,5.491,5.491,5.491,5.491,5.465,5.465,5.465,5.465,5.465,5.465,5.465,5.465,5.465,5.465,5.465,5.465,5.465,5.465,5.491,5.491,5.491,5.491,5.491,5.517,5.517,5.517,5.543,5.543,5.543,5.543,5.543,5.543,5.57,5.57,5.57,5.57,5.57,5.597,5.651,0,5.735,0,0,0,0,6.971,7.186,7.368,7.559,7.659,7.709,7.709,7.709,7.659,7.559,7.415,7.322,7.098,6.888,6.729,6.652,6.432,6.467,0,6.614,6.808,7.415,0,8.497,9.464,0,10.488,11.526,11.302,11.194,11.194,11.087,11.087,11.194,11.194,11.302,11.302,11.302,11.526,11.526,11.641,11.641,11.879,12.001,12.254,12.254,12.384,12.518,12.518,12.518,12.518,12.518,12.384,12.384,12.254,11.879,11.879,11.641,11.526,11.302,11.087,10.982,10.779,10.68,10.394,0,0,9.95,10.036,10.036,10.212,10.212,10.302,10.488,10.583,10.68,10.779,10.88,10.982,10.982,11.194,11.302,11.641,12.254,12.518,13.229,13.536,13.859,14.197,0,14.372,0,14.552,14.552,0,14.736,14.736,14.736,14.736,14.736,14.736,14.736,14.552,14.552,14.552,14.372,14.372,14.197,14.026,13.859,13.696,13.696,13.381,12.793,12.001,11.641,11.087,10.68,10.488,10.302,9.95,9.239,8.819,8.375,0,0,7.659,6.69,6.467,0,0,0,0,0,0,0,5.543,5.543,5.57,5.543,5.543,5.57,5.57,5.597,0,0,0,0,0,9.166,0,10.302,10.68,10.982,11.087,11.194,11.302,11.526,11.879,12.001,12.384,12.518,12.935,13.229,13.229,13.381,13.381,13.536,13.536,13.696,13.859,13.859,14.026,14.026,14.197,14.197,14.197,14.372,14.372,14.372,14.372,14.552,14.736,14.925,14.925,15.119,15.119,15.119,15.119,15.317,15.317,15.119,15.119,15.119,14.925,14.925,14.736,14.552,14.372,14.197,14.197,13.859,13.536,13.229,12.793,12.384,12.254,12.001,11.641,11.526,11.302,11.302,0,11.526,11.526,11.641,11.879,12.001,12.254,12.384,12.518,12.793,12.793,12.793,12.935,13.229,13.229,13.381,13.381,13.381,13.536,13.381,13.536,13.381,13.381,13.381,13.381,13.381,13.381,13.381,13.229,13.229,13.229,13.229,12.935,12.935,12.935,12.935,12.793,12.793,12.793,12.793,12.935,12.935,12.793,12.793,12.518,12.518,12.518,12.384,12.254,11.879,11.526,11.087,0,0,0,7.973,7.559,7.709,7.761,7.761,7.813,7.761,7.761,7.761,7.709,7.559,7.055,6.929,6.808,6.768,6.729,6.69,6.69,6.652,6.614,6.614,6.577,6.577,6.504,6.396,6.225,5.821,5.679,5.624,5.57,5.491,5.415,5.389,5.34,5.34,5.34,5.34,5.34,5.316,5.316,5.268,5.22,5.174,5.04,4.996,4.933,4.912,4.891,4.891,4.891,4.871,4.871,4.851,4.851,4.83,4.81,4.81,4.81,4.81,4.81,4.81,4.83,4.851,4.871,4.891,4.912,4.912,4.954,4.996,4.996,5.04,5.084,5.106,5.106,5.151,5.174,5.174,5.174,5.174,5.151,5.151,5.106,5.084,5.04,5.04,5.018,4.996,4.975,4.954,4.912,4.851,4.791,4.638,4.328,4.264,4.128,3.946,3.868,3.829,3.792,3.696,3.649,3.593,3.582,3.56,3.56,3.582,3.593,3.615,3.627,3.661,3.661,3.672,3.672,3.627,3.582,3.517,3.485,3.434,3.414,3.394,3.365,3.355,3.336,3.317,3.298,3.27,3.261,3.243,3.234,3.234,3.243,3.261,3.288,3.298,3.336,3.384,3.404,3.434,3.454,3.465,3.485,3.496,3.517,3.549,3.582,3.627,3.615,3.582,3.549,3.517,3.496,3.485,3.454,3.444,3.414,3.355,3.326,3.317,3.298,3.288,3.261,3.243,3.234,3.234,3.225,3.216,3.207,3.207,3.198,3.198,3.189,3.189,3.189,3.181,3.181,3.181,3.172,3.172,3.163,3.163,3.163,3.163,3.155,3.155,3.146,3.146,3.146,3.138,3.129,3.129,3.121,3.121,3.121,0,0,0,0,0,0,0,0,0,0,0,0,0,0,0,0,0,0
0,0,0,0,0,0,0,0,0,0,0,0,0,0,0,0,4.996,5.018,5.04,5.106,5.151,5.22,5.268,5.389,0,5.44,5.465,5.517,5.543,5.57,5.57,5.597,5.597,5.597,5.597,5.624,5.624,5.624,5.651,5.651,5.651,5.651,5.679,5.679,5.679,5.679,5.679,5.679,5.679,5.679,5.679,5.679,5.679,5.679,5.651,5.651,5.624,5.597,5.597,5.57,5.57,5.57,5.543,5.543,5.517,5.491,5.491,5.491,5.491,5.491,5.491,5.491,5.491,5.491,5.491,5.517,5.543,5.543,5.57,5.57,5.597,5.597,5.624,5.651,5.679,5.679,5.707,5.707,5.735,5.763,5.792,5.792,5.763,5.763,5.707,5.679,5.679,5.651,5.624,5.597,5.597,5.57,5.57,5.57,5.57,5.543,5.543,5.543,5.543,5.491,5.491,5.491,5.491,5.517,5.517,5.517,5.517,5.491,5.491,5.491,5.491,5.491,5.491,5.465,5.465,5.465,5.465,5.465,5.465,5.465,5.465,5.465,5.465,5.465,5.491,5.491,5.491,5.491,5.517,5.517,5.517,5.517,5.543,5.543,5.543,5.543,5.543,5.57,5.57,5.57,5.597,5.597,5.624,0,5.679,5.763,0,0,0,0,6.971,7.322,7.415,7.659,7.709,7.761,7.813,7.813,7.761,7.709,7.659,7.559,7.415,7.231,7.055,6.848,6.729,6.614,6.577,6.54,6.614,6.808,0,7.761,8.198,8.955,0,10.302,11.302,11.194,11.194,11.194,11.087,11.194,11.194,11.302,11.302,11.526,11.526,11.526,11.526,11.641,11.879,12.001,12.001,12.254,12.384,12.384,12.518,12.793,12.793,12.793,12.793,12.518,12.518,12.384,12.254,12.001,12.001,11.879,11.641,11.302,11.302,11.087,10.88,10.68,10.583,0,0,10.394,0,10.488,10.583,10.68,10.779,10.982,11.087,11.194,11.302,11.302,11.526,11.641,11.879,12.254,12.518,13.229,13.536,13.859,14.197,0,14.372,0,14.552,14.552,14.736,14.736,14.736,14.736,14.736,14.736,14.736,14.552,14.552,14.552,14.552,14.372,14.372,14.197,14.197,14.026,13.859,13.696,13.536,13.381,12.935,12.518,12.254,11.879,11.302,10.88,10.68,10.394,10.212,10.123,9.783,0,0,0,0,0,0,0,0,0,0,0,0,5.543,5.543,5.57,5.543,5.543,5.57,5.543,5.57,5.909,0,0,0,0,8.955,0,10.212,10.583,10.982,11.087,11.194,11.302,11.526,11.879,12.001,12.384,12.518,12.793,12.935,13.229,13.381,13.381,13.536,13.536,13.696,13.859,13.859,14.026,14.197,14.197,14.197,14.372,14.372,14.372,14.552,14.552,14.552,14.736,14.925,14.925,15.119,15.119,15.119,15.317,15.317,15.317,15.317,15.317,15.119,15.119,14.925,14.925,14.736,14.552,14.372,14.197,14.026,13.696,13.381,12.935,12.793,12.384,12.254,11.879,11.879,11.641,11.526,11.526,11.526,11.526,11.641,11.641,11.879,12.254,12.384,12.518,12.793,12.793,12.935,13.229,13.229,13.229,13.381,13.381,13.381,13.536,13.536,13.536,13.381,13.381,13.381,13.381,13.536,13.381,13.381,13.381,13.381,13.381,13.229,13.229,12.935,12.935,12.935,12.935,12.935,12.935,12.935,12.935,12.935,12.935,12.793,12.793,12.793,12.793,12.793,12.518,12.384,12.254,11.879,11.194,0,0,8.315,7.973,8.028,7.973,7.919,7.919,7.866,7.919,7.919,7.866,7.709,7.415,6.971,6.888,6.808,6.768,6.729,6.69,6.69,6.652,6.614,6.614,6.577,6.54,6.432,6.259,5.821,5.707,5.624,5.57,5.491,5.415,5.389,5.34,5.316,5.34,5.316,5.34,5.316,5.316,5.268,5.22,5.151,5.106,4.996,4.954,4.912,4.891,4.891,4.891,4.871,4.871,4.851,4.851,4.83,4.81,4.81,4.81,4.81,4.81,4.81,4.83,4.851,4.871,4.891,4.912,4.912,4.954,4.975,4.996,5.018,5.04,5.084,5.106,5.151,5.174,5.174,5.174,5.174,5.151,5.151,5.106,5.084,5.04,5.04,5.018,4.975,4.954,4.933,4.891,4.83,4.752,4.583,4.312,4.249,4.085,3.92,3.868,3.829,3.804,3.696,3.649,3.615,3.593,3.582,3.56,3.593,3.615,3.627,3.661,3.672,3.672,3.672,3.696,3.649,3.582,3.538,3.496,3.444,3.434,3.404,3.384,3.365,3.336,3.326,3.317,3.27,3.261,3.243,3.243,3.243,3.243,3.27,3.288,3.298,3.336,3.384,3.404,3.434,3.444,3.454,3.475,3.485,3.506,3.528,3.549,3.582,3.593,3.56,3.528,3.506,3.485,3.475,3.454,3.424,3.355,3.326,3.317,3.298,3.27,3.261,3.243,3.234,3.225,3.216,3.216,3.207,3.198,3.189,3.189,3.181,3.181,3.172,3.163,3.163,3.155,3.155,3.155,3.155,3.155,3.155,3.155,3.155,3.146,3.146,3.146,3.129,3.129,3.121,3.121,3.113,3.113,3.104,0,0,0,0,0,0,0,0,0,0,0,0,0,0,0,0,0,0,0
