0.0,0.0,0.0,0.0,0.0,0.0,0.0,3.072,3.055,3.047,3.047,3.039,3.016,3.024,3.024,3.024,3.047,3.08,3.113,3.138,3.146,3.163,3.181,3.181,3.189,3.198,3.189,3.189,3.189,3.181,3.181,3.172,3.172,3.172,3.181,3.181,3.189,3.198,3.225,3.243,3.288,3.317,3.336,3.365,3.384,3.394,3.404,3.404,3.414,3.424,3.434,3.444,3.444,3.454,3.465,3.475,3.485,3.496,3.506,3.538,3.582,3.672,3.7557500000000004,3.804,3.868,4.028,4.218,4.328,4.583,4.7005,4.81,4.912,5.084,5.22,5.34,5.415,5.465,5.517,5.543,5.543,5.543,5.543,5.543,5.517,5.491,5.491,5.491,5.491,5.465,5.465,5.465,5.491,5.491,5.465,5.465,5.491,5.491,5.491,5.491,5.491,5.517,5.517,5.491,5.491,5.491,5.491,5.491,5.491,5.491,5.491,5.491,5.491,5.491,5.491,5.491,5.491,5.491,5.491,5.491,5.491,5.491,5.491,5.491,5.491,5.491,5.491,5.491,5.465,5.465,5.465,5.44,5.44,5.415,5.415,5.389,5.389,5.34,5.34,5.389,5.389,5.389,5.415,5.415,5.44,5.44,5.465,5.491,5.491,5.517,5.517,5.543,5.543,5.543,5.624,5.679,5.821,6.032,6.259,6.354625,6.467,6.577,6.69,6.848,6.971,7.098,7.186,7.322,7.368,7.511,7.511,7.559,7.559,7.659,7.659,7.659,7.559,7.511,7.511,7.415,7.368,7.368,7.322,7.322,7.322,7.368,7.368,7.368,7.368,7.415,7.415,7.415,7.511,7.559,7.559,7.659,7.659,7.709,7.709,7.709,7.761,7.813,7.866,7.919,7.973,7.973,8.028,8.084,8.141,8.198,8.256,8.3155,8.375,8.56,8.819,9.166,9.464,9.783,10.123,10.302,10.488,10.68,10.68,10.982,11.087,11.194,11.194,11.194,11.087,10.88,10.68,10.68,10.68,10.583,10.488,10.488,10.394,10.394,10.394,10.394,10.302,10.212,10.212,10.123,9.865,9.783,9.701,9.542,9.313,9.239,9.166,9.239,9.239,9.36225,9.464,9.701,9.95,10.212,10.488,10.779,11.194,12.001,12.384,12.518,12.518,12.793,12.935,12.793,12.935,12.935,13.229,13.229,13.229,12.935,12.518,12.384,0.0,0.0,0.0,0.0,0.0,0.0,0.0,0.0,0.0,0.0,0.0,0.0,5.389,5.389,5.389,5.389,5.389,5.415,5.415,5.44,5.44,5.465,5.491,5.491,5.517,5.543,5.543,5.543,5.543,5.57,0.0,0.0,0.0,0.0,0.0,0.0,0.0,0.0,0.0,0.0,0.0,0.0,0.0,0.0,0.0,0.0,0.0,0.0,0.0,0.0,0.0,0.0,0.0,0.0,0.0,0.0,0.0,0.0,0.0,0.0,0.0,0.0,0.0,0.0,0.0,0.0,0.0,0.0,0.0,0.0,0.0,0.0,0.407,0.407,0.408,0.408,0.408,0.408,0.409,0.41,0.41,0.41,0.41,0.41,0.41,0.411,0.411,0.411,0.411,0.411,0.411,0.411,0.411,0.41174999999999995,0.412,0.412,0.412,0.413,0.413,0.414,0.414,0.415,0.415,0.415,0.416,0.416,0.416,0.416,0.416,0.416,0.416,0.416,0.0,0.0,0.416,0.417,0.417,0.416,0.417,0.417,0.0,0.0,0.417,0.417,0.417,0.0,0.0,0.0,0.0,0.0,0.0,0.0,0.0,0.0,0.426,0.426,0.427,0.427,0.0,0.0,0.0,0.0,0.0,0.0,0.0,0.0,0.0,0.0,0.0,0.0,0.0,0.0,0.0,0.0,0.0,0.0,0.0,0.0,0.0,0.0,0.0,0.0,0.0,0.0,0.0,0.0,0.0,0.0,0.0,0.0,0.0,0.0,0.0,0.0,0.0,0.0,0.0,0.0,0.0,0.0,0.0,0.0,0.0,0.0,0.0,0.0,0.0,0.0,0.0,0.0,0.0,0.0,0.0,0.0,0.0,0.0,0.0,0.0,0.0,0.0,0.0,0.0,0.0,0.0,0.0,0.0,0.0,0.0,0.0,0.0,0.0,0.0,0.0,0.0,0.0,0.503,0.503,0.502,0.502,0.502,0.502,0.501,0.501,0.501,0.501,0.501,0.502,0.502,0.502,0.502,0.502,0.502,1.769,1.769,1.772,1.772,1.772,1.775,1.775,1.775,1.777,1.777,1.777,1.777,0.0,0.0,0.0,0.0,0.0,0.0,0.0,0.0,0.0,0.0,0.0,0.0,0.0,0.0,0.0,0.0,0.887,0.885,0.883,0.881,0.879,0.877,0.875,0.872,0.869,0.863,0.86,0.848,0.838,0.8265,0.818,0.815,0.811,0.809,0.808,0.807,0.806,0.805,0.804,0.803,0.802,0.801,0.8,0.8
0.0,0.0,0.0,0.0,0.0,0.0,3.08,3.072,3.055,3.047,3.039,3.024,3.024,3.024,3.039,3.047,3.072,3.096,3.129,3.146,3.155,3.172,3.181,3.189,3.198,3.198,3.189,3.189,3.189,3.189,3.181,3.172,3.172,3.172,3.172,3.181,3.189,3.198,3.216,3.243,3.27,3.317,3.336,3.355,3.365,3.394,3.404,3.404,3.414,3.424,3.434,3.444,3.444,3.454,3.465,3.465,3.485,3.496,3.506,3.528,3.582,3.661,3.767,3.798,3.829,3.92,4.114,4.264,4.376,4.657,4.74775,4.83,4.912,5.04,5.244,5.34,5.389,5.465,5.491,5.543,5.543,5.543,5.517,5.491,5.491,5.491,5.491,5.491,5.491,5.465,5.465,5.491,5.491,5.465,5.465,5.491,5.491,5.491,5.491,5.491,5.491,5.491,5.491,5.491,5.491,5.491,5.491,5.491,5.491,5.491,5.491,5.491,5.491,5.491,5.465,5.465,5.465,5.465,5.465,5.465,5.465,5.491,5.465,5.465,5.465,5.465,5.465,5.465,5.44,5.44,5.44,5.415,5.389,5.389,5.389,5.34,5.34,5.34,5.34,5.34,5.389,5.389,5.415,5.415,5.44,5.465,5.491,5.491,5.491,5.517,5.543,5.543,5.543,5.597,5.651,5.735,5.85,6.095,6.259,6.396,6.467,6.577,6.69,6.768,6.808,7.055,7.098,7.231,7.322,7.415,7.415,7.511,7.511,7.559,7.559,7.511,7.415,7.415,7.415,7.368,7.368,7.368,7.322,7.368,7.368,7.368,7.415,7.415,7.511,7.511,7.511,7.559,7.559,7.659,7.709,7.709,7.761,7.761,7.761,7.761,7.813,7.866,7.866,7.973,7.973,8.028,8.084,8.084,8.141,8.198,8.271125,8.315,8.436,8.56,8.819,9.239,9.542,9.95,10.212,10.394,10.488,10.583,10.68,10.68,10.68,10.779,10.583,10.488,10.302,10.212,10.123,9.95,9.783,9.783,9.701,9.701,9.542,9.701,9.542,9.464,9.166,9.166,8.819,8.819,8.623,8.623,8.56,8.497,8.497,8.436,8.436,8.497,8.623,8.753,9.166,0.0,0.0,0.0,0.0,10.68,11.194,11.879,11.879,12.001,12.254,12.0645,0.0,0.0,0.0,0.0,0.0,12.254,0.0,0.0,0.0,0.0,0.0,0.0,0.0,0.0,0.0,0.0,0.0,0.0,0.0,0.0,0.0,0.0,0.0,0.0,0.0,0.0,5.389,5.415,5.415,5.44,5.465,5.491,5.517,5.517,0.0,0.0,0.0,0.0,0.0,0.0,0.0,0.0,0.0,0.0,0.0,0.0,0.0,0.0,0.0,0.0,0.0,0.0,0.0,0.0,0.0,0.0,0.0,0.0,0.0,0.0,0.0,0.0,0.0,0.0,0.0,0.0,0.0,0.0,0.0,0.0,0.0,0.0,0.0,0.0,0.0,0.0,0.0,0.405,0.405,0.406,0.406,0.407,0.407,0.407,0.407,0.408,0.408,0.409,0.409,0.409,0.409,0.41,0.41,0.41,0.41,0.41,0.41,0.411,0.411,0.411,0.411,0.411,0.411,0.411,0.411,0.411,0.412,0.412,0.412,0.41275,0.413,0.414,0.414,0.415,0.415,0.415,0.415,0.415,0.415,0.416,0.416,0.416,0.416,0.416,0.416,0.416,0.416,0.416,0.416,0.416,0.416,0.417,0.417,0.417,0.417,0.418,0.419,0.42,0.421,0.4215,0.422,0.4235,0.425,0.425,0.426,0.426,0.426,0.426,0.0,0.0,0.0,0.0,0.0,0.0,0.0,0.0,0.0,0.0,0.0,0.0,0.0,0.0,0.0,0.0,0.0,0.0,0.0,0.0,0.0,0.0,0.0,0.0,0.0,0.0,0.0,0.0,0.0,0.0,0.0,0.0,0.0,0.0,0.0,0.0,0.0,0.0,0.0,0.0,0.0,0.0,0.0,0.0,0.0,0.0,0.0,0.0,0.0,0.0,0.0,0.0,0.0,0.0,0.0,0.0,0.0,0.0,0.0,0.0,0.0,0.0,0.0,0.0,0.0,0.0,0.0,0.0,0.0,0.0,0.0,0.0,0.0,0.0,0.0,0.0,0.5025,0.503,0.502,0.502,0.502,0.501,0.501,0.5,0.5,0.5,0.5,0.5,0.5,0.5,0.501,0.501,0.501,1.769,1.769,1.772,1.772,1.772,1.775,1.775,1.775,1.775,1.775,1.775,1.777,0.0,0.0,0.0,0.0,0.0,0.0,0.0,0.0,0.0,0.0,0.0,0.0,0.0,0.0,0.0,0.0,0.881,0.88,0.879,0.879,0.877,0.875,0.873,0.87,0.866,0.861,0.858,0.853,0.836,0.819,0.815,0.811,0.808,0.806,0.806,0.805,0.804,0.803,0.803,0.802,0.801,0.801,0.8,0.799
0.0,0.0,0.0,0.0,0.0,3.08,3.072,3.055,3.055,3.047,3.039,3.039,3.039,3.039,3.047,3.055,3.096,3.113,3.138,3.155,3.163,3.181,3.189,3.189,3.198,3.198,3.189,3.189,3.189,3.189,3.181,3.172,3.163,3.163,3.172,3.181,3.181,3.189,3.207,3.234,3.261,3.298,3.326,3.355,3.365,3.384,3.394,3.404,3.414,3.424,3.434,3.444,3.444,3.454,3.465,3.465,3.475,3.485,3.496,3.517,3.549,3.615,3.707,3.7630000000000003,3.804,3.855,3.946,4.158,4.28,4.426,4.694,4.7620000000000005,4.83,4.912,5.04,5.174,5.268,5.389,5.415,5.44,5.465,5.465,5.491,5.465,5.465,5.491,5.465,5.465,5.465,5.465,5.465,5.465,5.465,5.465,5.465,5.465,5.465,5.465,5.465,5.465,5.465,5.465,5.491,5.491,5.491,5.491,5.491,5.491,5.491,5.491,5.491,5.491,5.465,5.465,5.465,5.465,5.465,5.465,5.465,5.465,5.465,5.465,5.465,5.465,5.465,5.465,5.465,5.44,5.44,5.44,5.415,5.415,5.389,5.34,5.34,5.34,5.316,5.316,5.316,5.34,5.34,5.389,5.415,5.415,5.44,5.465,5.465,5.491,5.491,5.517,5.543,5.543,5.543,5.57,5.651,5.707,5.821,6.001,6.159,6.361,6.4505,6.54,6.614,6.69,6.729,6.808,6.848,6.929,6.971,7.098,7.186,7.231,7.322,7.322,7.511,7.415,7.415,7.415,7.415,7.415,7.368,7.368,7.368,7.415,7.415,7.415,7.511,7.511,7.511,7.559,7.659,7.659,7.659,7.709,7.709,7.761,7.761,7.813,7.761,7.813,7.813,7.813,7.866,7.919,7.973,7.973,8.028,8.084,8.084,8.198,8.256,8.315,8.40575,8.497,8.753,8.955,9.313,9.701,10.036,10.212,10.302,10.394,10.394,10.488,10.394,10.394,10.212,10.036,9.701,9.313,9.033000000000001,8.753,8.623,8.56,8.497,8.56,8.56,8.56,8.497,8.56,8.436,8.436,8.375,8.315,8.315,8.256,8.198,8.198,8.198,8.198,8.198,8.198,8.198,8.256,8.436,0.0,0.0,0.0,0.0,10.394,10.779,11.087,11.194,11.194,11.194,11.194,0.0,0.0,0.0,0.0,0.0,0.0,0.0,0.0,0.0,0.0,0.0,0.0,0.0,0.0,0.0,0.0,0.0,0.0,0.0,0.0,0.0,0.0,0.0,0.0,0.0,0.0,0.0,0.0,0.0,0.0,0.0,0.0,0.0,0.0,0.0,0.0,0.0,0.0,0.0,0.0,0.0,0.0,0.0,0.0,0.0,0.0,0.0,0.0,0.0,0.0,0.0,0.0,0.0,0.0,0.0,0.0,0.0,0.0,0.0,0.0,0.0,0.0,0.0,0.0,0.0,0.0,0.0,0.0,0.0,0.0,0.0,0.0,0.0,0.0,0.403,0.4035,0.404,0.404,0.405,0.405,0.406,0.406,0.407,0.407,0.407,0.407,0.408,0.408,0.408,0.409,0.408,0.409,0.409,0.409,0.409,0.409,0.41,0.41,0.41,0.41,0.41,0.41,0.411,0.411,0.411,0.411,0.411,0.411,0.411,0.412,0.412,0.4125,0.413,0.413,0.414,0.414,0.414,0.415,0.415,0.415,0.415,0.415,0.415,0.415,0.415,0.415,0.416,0.416,0.416,0.416,0.416,0.416,0.416,0.416,0.417,0.417,0.418,0.419,0.42,0.421,0.422,0.423,0.424,0.425,0.425,0.426,0.426,0.426,0.426,0.426,0.426,0.0,0.0,0.0,0.0,0.0,0.0,0.0,0.0,0.0,0.0,0.0,0.0,0.0,0.0,0.0,0.0,0.0,0.0,0.0,0.0,0.0,0.0,0.0,0.0,0.0,0.0,0.0,0.0,0.0,0.0,0.0,0.0,0.0,0.0,0.0,0.0,0.0,0.0,0.0,0.0,0.0,0.0,0.0,0.0,0.0,0.0,0.0,0.0,0.0,0.0,0.0,0.0,0.0,0.0,0.0,0.0,0.0,0.0,0.0,0.0,0.0,0.0,0.0,0.0,0.0,0.0,0.0,0.0,0.0,0.0,0.0,0.0,0.502,0.502,0.502,0.502,0.501,0.501,0.499,0.499,0.499,0.498,0.498,0.497,0.498,0.497,0.497,0.498,0.498,1.769,0.499,1.772,1.772,1.772,1.775,1.775,1.775,1.775,1.775,1.775,1.775,1.775,0.0,0.0,0.0,0.0,0.0,0.0,0.0,0.0,0.0,0.0,0.0,0.0,0.0,0.0,0.0,0.0,0.0,0.0,0.877,0.875,0.875,0.872,0.868,0.86525,0.862,0.858,0.849,0.838,0.8294999999999999,0.816,0.812,0.809,0.806,0.806,0.804,0.803,0.803,0.803,0.802,0.801,0.801,0.8,0.8,0.799
0.0,0.0,0.0,0.0,0.0,3.08,3.055,3.047,3.047,3.039,3.039,3.024,3.024,3.039,3.055,3.072,3.104,3.129,3.146,3.155,3.163,3.181,3.189,3.189,3.198,3.189,3.189,3.189,3.189,3.181,3.181,3.172,3.163,3.163,3.163,3.172,3.181,3.189,3.198,3.225,3.243,3.288,3.317,3.336,3.365,3.384,3.394,3.404,3.414,3.424,3.434,3.444,3.444,3.454,3.454,3.465,3.475,3.485,3.496,3.506,3.538,3.582,3.661,3.743,3.77975,3.817,3.868,3.987,4.188,4.312,4.46,4.694,4.7765,4.83,4.912,5.04,5.174,5.244,5.316,5.389,5.415,5.415,5.44,5.415,5.44,5.44,5.44,5.44,5.44,5.44,5.465,5.44,5.44,5.465,5.44,5.44,5.465,5.465,5.465,5.465,5.465,5.465,5.465,5.491,5.491,5.491,5.491,5.491,5.491,5.491,5.491,5.465,5.465,5.465,5.465,5.465,5.465,5.44,5.44,5.44,5.465,5.465,5.465,5.465,5.44,5.44,5.44,5.44,5.44,5.415,5.415,5.389,5.34,5.34,5.34,5.316,5.268,5.316,5.316,5.316,5.34,5.34,5.389,5.415,5.44,5.465,5.465,5.491,5.491,5.517,5.543,5.543,5.543,5.57,5.624,5.679,5.792,5.939,6.127,6.327,6.419124999999999,6.467,6.577,6.652,6.69,6.729,6.768,6.848,6.848,6.929,6.971,7.098,7.231,7.231,7.322,7.322,7.322,7.368,7.368,7.415,7.511,7.511,7.415,7.511,7.511,7.559,7.559,7.559,7.659,7.709,7.709,7.709,7.761,7.761,7.813,7.813,7.813,7.813,7.761,7.761,7.813,7.813,7.813,7.866,7.919,7.973,7.973,8.028,8.084,8.141,8.198,8.256,8.375,8.467500000000001,8.56,8.753,9.024,9.313,9.783,9.95,10.123,10.212,10.302,10.302,10.212,10.212,9.865,9.542,9.166,8.56,8.4975,8.256,8.256,8.198,8.256,8.256,8.256,8.256,8.198,8.198,8.198,8.198,8.141,8.141,8.084,8.028,8.028,8.028,7.973,8.028,7.973,8.028,8.028,8.084,8.198,8.436,0.0,0.0,0.0,0.0,0.0,0.0,10.982,11.087,11.087,11.087,10.982,0.0,0.0,0.0,0.0,0.0,0.0,0.0,0.0,0.0,0.0,0.0,0.0,0.0,0.0,0.0,0.0,0.0,0.0,0.0,0.0,0.0,0.0,0.0,0.0,0.0,0.0,0.0,0.0,0.0,0.0,0.0,0.0,0.0,0.0,0.0,0.0,0.0,0.0,0.0,0.0,0.0,0.0,0.0,0.0,0.0,0.0,0.0,0.0,0.0,0.0,0.0,0.0,0.0,0.0,0.0,0.0,0.0,0.0,0.0,0.0,0.0,0.0,0.0,0.0,0.0,0.0,0.0,0.0,0.0,0.0,0.0,0.402,0.403,0.403,0.403,0.4035,0.404,0.405,0.405,0.406,0.406,0.406,0.406,0.407,0.407,0.407,0.407,0.408,0.408,0.408,0.408,0.408,0.408,0.408,0.408,0.409,0.409,0.409,0.409,0.409,0.409,0.41,0.41,0.41,0.41,0.41,0.411,0.411,0.411,0.411,0.411,0.412,0.412,0.412,0.41275,0.413,0.413,0.414,0.414,0.414,0.415,0.415,0.415,0.415,0.415,0.415,0.415,0.415,0.415,0.416,0.416,0.416,0.416,0.416,0.416,0.417,0.418,0.41925,0.421,0.421,0.422,0.423,0.424,0.425,0.425,0.425,0.425,0.425,0.425,0.425,0.0,0.0,0.0,0.0,0.0,0.0,0.0,0.0,0.0,0.0,0.0,0.0,0.0,0.0,0.0,0.0,0.0,0.0,0.0,0.0,0.0,0.0,0.0,0.0,0.0,0.0,0.0,0.0,0.0,0.0,0.0,0.0,0.0,0.0,0.0,0.0,0.0,0.0,0.0,0.0,0.0,0.0,0.0,0.0,0.0,0.0,0.0,0.0,0.0,0.0,0.0,0.0,0.0,0.0,0.0,0.0,0.0,0.0,0.0,0.0,0.0,0.0,0.0,0.0,0.0,0.0,0.0,0.0,0.0,0.0,0.0,0.0,0.501,0.501,0.502,0.501,0.0,0.0,0.497,0.497,0.496,0.496,0.496,0.496,0.496,0.496,0.496,0.496,0.496,0.496,1.772,1.772,1.772,1.772,1.775,1.775,1.775,1.775,1.775,1.775,1.775,0.0,0.0,0.0,0.0,0.0,0.0,0.0,0.0,0.0,0.0,0.0,0.0,0.0,0.0,0.0,0.0,0.0,0.0,0.0,0.874,0.873,0.871,0.867,0.864,0.861,0.859,0.856,0.843,0.8354999999999999,0.828,0.815,0.81,0.806,0.804,0.804,0.803,0.803,0.803,0.803,0.802,0.801,0.8,0.8,0.799,0.798
0.0,0.0,0.0,0.0,0.0,3.072,3.047,3.047,3.039,3.039,3.039,3.024,3.024,3.039,3.055,3.08,3.104,3.129,3.146,3.155,3.172,3.181,3.189,3.189,3.189,3.189,3.189,3.189,3.181,3.181,3.172,3.172,3.163,3.163,3.163,3.163,3.172,3.181,3.189,3.207,3.234,3.261,3.298,3.326,3.355,3.365,3.394,3.394,3.414,3.414,3.434,3.444,3.444,3.454,3.454,3.465,3.465,3.485,3.485,3.496,3.517,3.549,3.615,3.661,3.755,3.817,3.8485,3.88,4.056,4.249,4.328,4.53,4.752,4.8015,4.851,4.954,5.084,5.151,5.22,5.268,5.34,5.34,5.389,5.415,5.415,5.415,5.415,5.44,5.44,5.44,5.465,5.44,5.44,5.44,5.44,5.44,5.465,5.465,5.465,5.465,5.465,5.465,5.465,5.491,5.491,5.491,5.491,5.491,5.491,5.465,5.465,5.44,5.44,5.44,5.44,5.44,5.44,5.44,5.44,5.44,5.44,5.44,5.44,5.44,5.44,5.44,5.44,5.44,5.415,5.415,5.389,5.389,5.34,5.34,5.34,5.316,5.268,5.316,5.316,5.316,5.34,5.34,5.389,5.415,5.44,5.465,5.465,5.491,5.491,5.517,5.543,5.543,5.543,5.57,5.597,5.679,5.763,5.85,6.032,6.225,6.432,6.4765,6.54,6.614,6.652,6.69,6.69,6.729,6.768,6.848,6.888,6.971,7.055,7.098,7.186,7.231,7.231,7.322,7.368,7.368,7.415,7.415,7.511,7.511,7.559,7.559,7.659,7.659,7.709,7.709,7.761,7.761,7.761,7.813,7.866,7.813,7.813,7.813,7.813,7.813,7.761,7.761,7.761,7.813,7.866,7.919,7.973,8.028,8.028,8.084,8.141,8.198,8.315,8.383375,8.436,8.56,8.819,9.166,9.313,9.701,9.783,9.95,9.95,9.95,9.95,9.783,9.313,8.9285,8.637125000000001,8.256,8.141,8.141,8.084,8.084,8.084,8.084,8.084,8.084,8.084,8.028,8.028,8.028,8.028,7.973,7.973,7.919,7.866,7.919,7.866,7.866,7.866,7.866,7.919,7.973,8.028,8.198,0.0,0.0,0.0,0.0,0.0,0.0,10.88,10.982,0.0,0.0,0.0,0.0,0.0,0.0,0.0,0.0,0.0,0.0,0.0,0.0,0.0,0.0,0.0,0.0,0.0,0.0,0.0,0.0,0.0,0.0,0.0,0.0,0.0,0.0,0.0,0.0,0.0,0.0,0.0,0.0,0.0,0.0,0.0,0.0,0.0,0.0,0.0,0.0,0.0,0.0,0.0,0.0,0.0,0.0,0.0,0.0,0.0,0.0,0.0,0.0,0.0,0.0,0.0,0.0,0.0,0.0,0.0,0.0,0.0,0.0,0.0,0.0,0.0,0.0,0.0,0.0,0.0,0.0,0.401,0.401,0.402,0.402,0.402,0.402,0.403,0.403,0.40337500000000004,0.404,0.404,0.404,0.405,0.405,0.406,0.406,0.406,0.406,0.407,0.407,0.407,0.407,0.407,0.407,0.407,0.407,0.407,0.407,0.407,0.408,0.407,0.408,0.408,0.408,0.408,0.409,0.409,0.409,0.409,0.409,0.41,0.41,0.411,0.411,0.411,0.411,0.411,0.412,0.412,0.4125,0.413,0.413,0.414,0.414,0.414,0.4145,0.415,0.415,0.415,0.415,0.415,0.415,0.415,0.415,0.415,0.415,0.416,0.416,0.416,0.417,0.418,0.42,0.421,0.421,0.422,0.42275,0.423,0.425,0.425,0.425,0.425,0.425,0.425,0.0,0.0,0.0,0.425,0.425,0.0,0.0,0.0,0.0,0.0,0.0,0.0,0.0,0.0,0.0,0.0,0.0,0.0,0.0,0.0,0.0,0.0,0.0,0.446,0.4465,0.447,0.447,0.447,0.0,0.0,0.0,0.448,0.448,0.448,0.448,0.0,0.0,0.0,0.0,0.0,0.0,0.0,0.0,0.0,0.0,0.0,0.0,0.0,0.0,0.0,0.0,0.0,0.0,0.0,0.0,0.0,0.0,0.0,0.0,0.0,0.0,0.0,0.0,0.0,0.0,0.0,0.0,0.0,0.0,0.0,0.0,0.0,0.0,0.499,0.0,0.0,0.0,0.0,0.0,0.496,0.495,0.495,0.495,0.495,0.495,0.495,0.495,0.495,0.495,1.772,1.772,1.772,1.772,1.772,1.775,1.775,1.775,1.775,1.775,1.775,0.0,0.0,0.0,0.0,0.0,0.0,0.0,0.0,0.0,0.0,0.0,0.0,0.0,0.0,0.0,0.0,0.0,0.869,0.87,0.869,0.869,0.868,0.865,0.861,0.859,0.857,0.856,0.847,0.0,0.0,0.822,0.813,0.807,0.805,0.803,0.803,0.802,0.802,0.802,0.802,0.801,0.801,0.799,0.799,0.798,0.796
0.0,0.0,0.0,0.0,0.0,3.055,3.039,3.039,3.024,3.024,3.016,3.016,3.016,3.024,3.047,3.072,3.104,3.121,3.146,3.155,3.163,3.172,3.181,3.189,3.189,3.181,3.181,3.181,3.181,3.172,3.172,3.163,3.163,3.163,3.155,3.163,3.163,3.181,3.189,3.198,3.216,3.243,3.288,3.317,3.336,3.365,3.384,3.394,3.404,3.414,3.424,3.444,3.444,3.444,3.454,3.465,3.465,3.475,3.485,3.496,3.496,3.528,3.56,3.615,3.696,3.767,3.818625,3.842,3.946,4.158,4.28,4.41,4.657,4.774625,4.83,4.912,5.018,5.106,5.151,5.22,5.244,5.316,5.34,5.389,5.389,5.415,5.44,5.44,5.44,5.44,5.465,5.44,5.44,5.44,5.44,5.44,5.44,5.465,5.44,5.44,5.465,5.465,5.465,5.465,5.465,5.465,5.465,5.465,5.465,5.44,5.44,5.44,5.44,5.44,5.415,5.415,5.415,5.415,5.415,5.415,5.415,5.415,5.415,5.415,5.415,5.415,5.415,5.415,5.415,5.415,5.389,5.389,5.34,5.34,5.34,5.316,5.316,5.316,5.316,5.316,5.34,5.389,5.415,5.415,5.44,5.465,5.465,5.491,5.491,5.517,5.543,5.543,5.543,5.57,5.597,5.651,5.735,5.821,6.001,6.127,6.327,6.467,6.54,6.577,6.614,6.652,6.69,6.729,6.729,6.78825,6.808,6.888,6.929,7.055,7.098,7.098,7.186,7.231,7.322,7.322,7.368,7.368,7.415,7.415,7.511,7.511,7.559,7.559,7.559,7.559,7.659,7.659,7.659,7.709,7.761,7.761,7.761,7.761,7.761,7.709,7.709,7.709,7.709,7.761,7.813,7.866,7.919,7.973,8.028,8.028,8.084,8.198,8.198,8.315,8.436,8.482750000000001,8.56,8.753,8.955,9.166,9.313,9.464,9.542,9.464,9.313,9.166,8.56,8.315,8.198,8.084,8.028,7.973,7.973,7.973,7.973,7.973,7.973,7.973,7.919,7.919,7.919,7.919,7.866,7.866,7.813,7.761,7.709,7.709,7.659,7.659,7.709,7.709,7.709,7.709,7.813,7.973,8.174,8.375,0.0,0.0,0.0,0.0,0.0,0.0,0.0,0.0,0.0,0.0,0.0,0.0,0.0,0.0,0.0,0.0,0.0,0.0,0.0,0.0,0.0,0.0,0.0,0.0,0.0,0.0,0.0,0.0,0.0,0.0,0.0,0.0,0.0,0.0,0.0,0.0,0.0,0.0,0.0,0.0,0.0,0.0,0.0,0.0,0.0,0.0,0.0,0.0,0.0,0.0,0.0,0.0,0.0,0.0,0.0,0.0,0.0,0.0,0.0,0.0,0.0,0.0,0.0,0.0,0.0,0.0,0.0,0.0,0.0,0.0,0.0,0.0,0.0,0.0,0.0,0.4,0.4,0.401,0.401,0.401,0.402,0.402,0.402,0.402,0.403,0.403,0.40349999999999997,0.404,0.404,0.405,0.405,0.405,0.406,0.406,0.406,0.406,0.406,0.406,0.406,0.406,0.407,0.407,0.407,0.407,0.407,0.407,0.407,0.407,0.407,0.407,0.407,0.407,0.407,0.408,0.408,0.408,0.409,0.409,0.409,0.41,0.41,0.411,0.411,0.411,0.411,0.412,0.412,0.412,0.412,0.4125,0.413,0.412875,0.413,0.413,0.413,0.4135,0.414,0.414,0.414,0.415,0.415,0.415,0.415,0.415,0.416,0.416,0.417,0.418,0.42,0.42,0.421,0.422,0.4225,0.423,0.424,0.425,0.425,0.424,0.425,0.425,0.0,0.0,0.425,0.425,0.0,0.0,0.0,0.0,0.0,0.0,0.0,0.0,0.0,0.0,0.0,0.0,0.0,0.0,0.0,0.0,0.0,0.0,0.0,0.446,0.446,0.447,0.447,0.447,0.447,0.447,0.447,0.447,0.448,0.4475,0.0,0.0,0.0,0.0,0.0,0.0,0.0,0.0,0.0,0.0,0.0,0.0,0.0,0.0,0.0,0.0,0.0,0.0,0.0,0.0,0.0,0.0,0.0,0.0,0.0,0.0,0.0,0.0,0.0,0.0,0.0,0.0,0.0,0.0,0.0,0.0,0.0,0.0,0.4945,0.0,0.0,0.0,0.0,0.0,0.495,0.495,0.495,0.495,0.494,0.494,0.494,0.494,0.494,0.494,1.772,1.772,1.772,1.772,1.772,1.775,1.772,1.775,1.775,1.775,0.0,0.0,0.0,0.0,0.0,0.0,0.0,0.0,0.0,0.0,0.0,0.0,0.0,0.0,0.0,0.0,0.861,0.863,0.863,0.865,0.865,0.863,0.861,0.859,0.858,0.857,0.855,0.847,0.84,0.0,0.0,0.816,0.81,0.805,0.803,0.803,0.802,0.802,0.801,0.801,0.801,0.801,0.8,0.798,0.798,0.797,0.795
0.0,0.0,0.0,0.0,0.0,3.039,3.039,3.024,3.016,3.016,3.0,3.0,3.0,3.016,3.039,3.055,3.096,3.113,3.129,3.146,3.155,3.163,3.172,3.172,3.181,3.181,3.172,3.172,3.172,3.163,3.163,3.163,3.155,3.155,3.155,3.155,3.163,3.163,3.181,3.189,3.207,3.225,3.261,3.288,3.326,3.336,3.365,3.384,3.394,3.414,3.424,3.434,3.444,3.444,3.454,3.454,3.465,3.475,3.485,3.485,3.496,3.506,3.538,3.56,3.627,3.707,3.817,3.855,3.893,4.07,4.249,4.344,4.638,4.81,4.861,4.912,5.018,5.084,5.106,5.174,5.22,5.244,5.268,5.316,5.34,5.389,5.415,5.44,5.44,5.415,5.44,5.44,5.44,5.44,5.44,5.465,5.465,5.465,5.465,5.465,5.465,5.465,5.465,5.465,5.465,5.465,5.465,5.465,5.44,5.44,5.44,5.415,5.415,5.415,5.389,5.389,5.389,5.389,5.389,5.389,5.415,5.415,5.415,5.415,5.415,5.415,5.415,5.415,5.415,5.389,5.389,5.389,5.34,5.34,5.34,5.34,5.34,5.316,5.34,5.34,5.389,5.389,5.415,5.415,5.44,5.465,5.465,5.491,5.517,5.517,5.543,5.543,5.543,5.57,5.597,5.651,5.679,5.792,5.909,6.032,6.225,6.396,6.504,6.54,6.577,6.614,6.652,6.69,6.729,6.768,6.808,6.848,6.8985,6.929,6.971,7.055,7.098,7.098,7.186,7.231,7.231,7.322,7.322,7.368,7.368,7.368,7.415,7.415,7.415,7.415,7.511,7.415,7.511,7.511,7.511,7.559,7.559,7.559,7.559,7.559,7.659,7.659,7.659,7.659,7.709,7.761,7.813,7.866,7.973,7.973,8.028,8.084,8.198,8.198,8.256,8.375,8.497,8.54625,8.56,8.819,8.955,8.955,9.024,9.024,8.623,8.497,8.256,8.198,8.084,7.973,7.919,7.866,7.813,7.761,7.813,7.761,7.813,7.761,7.761,7.761,7.709,7.709,7.709,7.659,7.559,7.559,7.511,7.511,7.415,7.415,7.368,7.415,7.415,7.511,0.0,0.0,7.866,0.0,0.0,0.0,0.0,0.0,0.0,0.0,0.0,0.0,0.0,0.0,0.0,0.0,0.0,0.0,0.0,0.0,0.0,0.0,0.0,0.0,0.0,0.0,0.0,0.0,0.0,0.0,0.0,0.0,0.0,0.0,0.0,0.0,0.0,0.0,0.0,0.0,0.0,0.0,0.0,0.0,0.0,0.0,0.0,0.0,0.0,0.0,0.0,0.0,0.0,0.0,0.0,0.0,0.0,0.0,0.0,0.0,0.0,0.0,0.0,0.0,0.0,0.0,0.0,0.0,0.0,0.0,0.0,0.0,0.0,0.0,0.0,0.0,0.0,0.398,0.398,0.399,0.399,0.4,0.401,0.401,0.402,0.402,0.402,0.402,0.402,0.403,0.403,0.40349999999999997,0.404,0.404,0.404,0.405,0.405,0.405,0.406,0.406,0.406,0.406,0.406,0.406,0.406,0.406,0.406,0.406,0.406,0.406,0.406,0.406,0.406,0.406,0.407,0.407,0.407,0.407,0.407,0.407,0.407,0.408,0.408,0.408,0.409,0.409,0.41,0.41,0.411,0.411,0.411,0.411,0.411,0.411,0.411,0.411,0.412,0.412,0.412,0.412,0.412,0.4125,0.413,0.413,0.4135,0.414,0.414,0.414,0.415,0.415,0.416,0.416,0.417,0.419,0.42,0.421,0.422,0.422,0.42274999999999996,0.424,0.424,0.424,0.424,0.424,0.424,0.424,0.424,0.425,0.425,0.425,0.426,0.426,0.427,0.428,0.0,0.0,0.0,0.0,0.0,0.0,0.0,0.0,0.438,0.4395,0.441,0.442,0.4425,0.443,0.445,0.446,0.446,0.446,0.446,0.447,0.447,0.447,0.447,0.447,0.448,0.448,0.0,0.0,0.0,0.0,0.0,0.0,0.0,0.0,0.0,0.0,0.0,0.0,0.0,0.0,0.0,0.0,0.0,0.0,0.0,0.465,0.0,0.0,0.0,0.0,0.0,0.0,0.0,0.0,0.0,0.0,0.0,0.0,0.0,0.0,0.0,0.0,0.49,0.492,0.4925,0.493,0.493,0.493,0.493,0.493,0.493,0.493,0.493,0.493,0.493,0.493,0.493,0.493,0.0,0.0,0.0,0.0,0.0,0.0,0.0,0.0,0.0,0.0,0.0,0.0,0.0,0.0,0.0,0.0,0.0,0.0,0.0,0.0,0.0,0.0,0.0,0.0,0.0,0.857,0.858,0.858,0.858,0.858,0.858,0.857,0.856,0.855,0.855,0.853,0.851,0.84,0.836,0.832,0.819,0.815,0.809,0.805,0.803,0.802,0.801,0.801,0.801,0.801,0.8,0.8,0.798,0.797,0.797,0.795,0.792
0.0,0.0,0.0,0.0,0.0,3.024,3.016,3.0,3.0,2.993,2.993,2.993,2.993,3.0,3.024,3.047,3.072,3.096,3.121,3.138,3.146,3.155,3.155,3.163,3.163,3.163,3.163,3.163,3.163,3.163,3.155,3.155,3.155,3.155,3.155,3.155,3.155,3.163,3.172,3.181,3.189,3.216,3.234,3.27,3.298,3.326,3.336,3.365,3.394,3.404,3.414,3.434,3.444,3.444,3.454,3.454,3.465,3.465,3.475,3.485,3.485,3.496,3.506,3.538,3.582,3.661,3.792,3.8425,3.868,4.014,4.218,4.328,4.583,4.81,4.858499999999999,4.933,5.04,5.084,5.106,5.151,5.174,5.174,5.244,5.268,5.316,5.34,5.415,5.415,5.415,5.415,5.44,5.44,5.44,5.44,5.44,5.465,5.465,5.491,5.465,5.465,5.465,5.465,5.465,5.465,5.465,5.465,5.465,5.465,5.44,5.44,5.44,5.415,5.389,5.389,5.34,5.34,5.34,5.34,5.34,5.34,5.34,5.34,5.34,5.34,5.34,5.34,5.34,5.34,5.34,5.34,5.34,5.34,5.34,5.34,5.34,5.34,5.34,5.34,5.389,5.389,5.389,5.389,5.415,5.415,5.44,5.465,5.465,5.491,5.517,5.517,5.543,5.543,5.543,5.57,5.597,5.651,5.707,5.763,5.85,6.032,6.159,6.361,6.467,6.54,6.577,6.577,6.614,6.69,6.69,6.729,6.768,6.808,6.888,6.929,6.971,6.971,7.055,7.098,7.098,7.186,7.186,7.186,7.231,7.231,7.231,7.231,7.322,7.231,7.231,7.231,7.322,7.322,7.322,7.322,7.322,7.322,7.368,7.368,7.368,7.368,7.322,7.322,7.368,7.415,7.415,7.659,7.709,7.813,7.866,7.919,7.973,8.028,8.084,8.141,8.198,8.256,8.315,8.375,8.497,8.56,8.56,8.56,8.56,8.436,8.375,8.256,8.198,8.084,7.973,7.919,7.813,7.761,7.659,7.709,7.659,7.659,7.559,7.559,7.511,7.511,7.511,7.511,7.511,7.415,7.415,7.368,7.368,7.368,7.368,7.368,7.368,7.368,7.368,0.0,0.0,0.0,0.0,0.0,0.0,0.0,0.0,0.0,0.0,0.0,0.0,0.0,0.0,0.0,0.0,1.153,1.153,1.154,0.0,0.0,1.155,1.155,1.155,1.155,1.155,1.155,1.155,1.153,1.151,1.148,0.0,0.0,0.0,0.0,0.0,0.0,0.0,0.0,0.0,0.0,0.0,0.0,0.0,0.0,0.0,0.0,0.0,0.0,0.0,0.0,0.0,0.0,0.0,0.0,0.0,0.0,0.0,0.0,0.0,0.0,0.0,0.0,0.0,0.0,0.0,0.0,0.0,0.0,0.0,0.0,0.0,0.0,0.0,0.0,0.0,0.0,0.398,0.398,0.398,0.398,0.399,0.399,0.4,0.401,0.401,0.401,0.402,0.402,0.402,0.402,0.402,0.403,0.403,0.403,0.40349999999999997,0.404,0.404,0.404,0.405,0.405,0.405,0.405,0.405,0.405,0.405,0.405,0.405,0.405,0.405,0.405,0.406,0.406,0.406,0.406,0.406,0.406,0.406,0.406,0.406,0.407,0.407,0.407,0.407,0.407,0.407,0.408,0.408,0.409,0.409,0.41,0.41,0.41,0.41,0.411,0.411,0.411,0.411,0.411,0.411,0.411,0.411,0.411,0.412,0.412,0.412,0.412,0.413,0.413,0.414,0.414,0.41425,0.415,0.416,0.416,0.418,0.419,0.42,0.421,0.421,0.422,0.422,0.423,0.423,0.423,0.423,0.4235,0.424,0.424,0.425,0.425,0.425,0.426,0.426,0.428,0.429,0.43,0.43,0.431,0.0,0.0,0.0,0.0,0.436,0.438,0.44,0.441,0.442,0.442,0.443,0.44425000000000003,0.445,0.445,0.446,0.446,0.446,0.447,0.447,0.447,0.447,0.447,0.447,0.448,0.0,0.0,0.0,0.0,0.0,0.0,0.458,0.459,0.46,0.459,0.46,0.46,0.0,0.0,0.463,0.4635,0.464,0.464,0.465,0.465,0.466,0.467,0.0,0.0,0.0,0.0,0.0,0.472,0.474,0.0,0.0,0.0,0.0,0.0,0.484,0.487,0.48824999999999996,0.48906249999999996,0.489,0.49,0.491,0.491,0.492,0.492,0.492,0.492,0.492,0.493,0.493,0.493,0.0,0.0,0.0,0.0,0.0,0.0,0.0,0.0,0.0,0.0,0.0,0.0,0.0,0.0,0.0,0.0,0.0,0.0,0.0,0.0,0.0,0.0,0.0,0.0,0.0,0.856,0.856,0.855,0.856,0.856,0.855,0.855,0.853,0.852,0.85,0.845,0.841,0.837,0.834,0.827,0.817,0.813,0.806,0.803,0.802,0.801,0.801,0.801,0.8,0.8,0.8,0.798,0.797,0.796,0.795,0.792,0.79
0.0,0.0,0.0,0.0,0.0,0.0,2.993,2.993,2.977,2.977,2.97,2.962,2.97,2.977,3.0,3.024,3.047,3.08,3.104,3.121,3.129,3.146,3.146,3.155,3.155,3.155,3.155,3.155,3.155,3.155,3.155,3.146,3.146,3.146,3.146,3.146,3.155,3.155,3.163,3.181,3.189,3.198,3.225,3.243,3.27,3.298,3.326,3.355,3.384,3.404,3.414,3.434,3.434,3.444,3.454,3.454,3.465,3.465,3.465,3.475,3.485,3.485,3.496,3.517,3.549,3.593,3.755,3.855,3.9139999999999997,3.973,4.203,4.328,4.565,4.6975,4.83,4.954,5.04,5.04,5.106,5.151,5.151,5.174,5.22,5.268,5.316,5.34,5.389,5.389,5.415,5.415,5.415,5.415,5.44,5.44,5.44,5.465,5.465,5.465,5.465,5.465,5.465,5.465,5.465,5.465,5.491,5.465,5.465,5.465,5.44,5.44,5.415,5.389,5.389,5.34,5.34,5.316,5.316,5.316,5.316,5.316,5.316,5.316,5.316,5.316,5.316,5.316,5.316,5.316,5.34,5.34,5.34,5.34,5.34,5.34,5.34,5.34,5.34,5.389,5.389,5.389,5.389,5.415,5.415,5.44,5.44,5.465,5.491,5.491,5.517,5.517,5.543,5.543,5.543,5.57,5.597,5.624,5.679,5.735,5.821,6.001,6.127,6.259,6.432,6.54,6.54,6.577,6.614,6.652,6.69,6.729,6.729,6.808,6.848,6.888,6.888,6.929,6.929,6.929,6.971,6.971,6.971,7.055,7.055,7.055,7.055,7.055,7.098,7.055,7.098,7.098,7.098,7.098,7.186,7.098,7.186,7.186,7.186,7.186,7.231,7.231,7.186,7.186,7.186,7.231,7.322,7.368,7.415,7.511,7.659,7.813,7.919,7.973,8.028,8.084,8.141,8.198,8.198,8.256,8.256,8.256,8.315,8.256,8.256,8.198,8.198,8.084,8.028,7.973,7.866,7.813,7.709,7.659,7.559,7.511,7.511,7.511,7.511,7.511,7.368,7.415,7.415,7.415,7.368,7.368,7.368,0.0,0.0,0.0,0.0,0.0,0.0,0.0,0.0,0.0,0.0,0.0,0.0,0.0,0.0,0.0,0.0,0.0,0.0,0.0,0.0,0.0,1.154,1.153,1.153,1.153,1.1532499999999999,1.154,1.154,1.154,1.155,1.155,1.155,1.155,1.1555,1.155,1.15475,1.154,1.153,1.15,1.147,0.0,0.0,0.0,0.0,0.0,0.0,0.0,0.0,0.0,0.0,0.0,0.0,0.0,0.0,0.0,0.0,0.0,0.0,0.0,0.0,0.0,0.0,0.0,0.0,0.0,0.0,0.0,0.0,0.0,0.0,0.0,0.0,0.0,0.0,0.0,0.0,0.0,0.0,0.0,0.0,0.0,0.0,0.0,0.0,0.397,0.397,0.397,0.398,0.398,0.398,0.398,0.399,0.4,0.4,0.401,0.401,0.402,0.402,0.402,0.402,0.402,0.402,0.403,0.403,0.403,0.403,0.40325,0.404,0.404,0.403,0.40349999999999997,0.404,0.404,0.404,0.404,0.404,0.404,0.404,0.404,0.4045,0.405,0.405,0.405,0.405,0.405,0.406,0.406,0.406,0.406,0.406,0.406,0.406,0.407,0.407,0.407,0.407,0.408,0.408,0.408,0.408,0.409,0.409,0.41,0.41,0.41,0.41,0.41,0.41,0.41,0.411,0.411,0.411,0.411,0.411,0.411,0.411,0.412,0.412,0.412,0.412,0.413,0.414,0.415,0.4155,0.416,0.417,0.419,0.42,0.421,0.421,0.421,0.422,0.422,0.422,0.423,0.423,0.4235,0.424,0.425,0.425,0.426,0.426,0.427,0.428,0.429,0.43,0.431,0.432,0.433,0.434,0.435,0.43575,0.437,0.439,0.44,0.441,0.441,0.442,0.443,0.4435,0.444,0.445,0.446,0.446,0.446,0.446,0.447,0.447,0.447,0.447,0.448,0.448,0.45,0.0,0.0,0.453,0.455,0.456,0.457,0.457,0.458,0.458,0.458,0.46,0.46,0.46125,0.462,0.463,0.463,0.464,0.465,0.465,0.466,0.0,0.0,0.0,0.0,0.47,0.47,0.471,0.0,0.0,0.0,0.478,0.481,0.4815,0.482,0.484,0.486,0.487,0.488,0.489,0.489,0.49,0.49,0.49,0.491,0.491,0.491,0.492,0.492,0.493,0.0,0.0,0.0,0.0,0.0,0.0,0.0,0.0,0.0,0.0,0.0,0.0,0.0,0.0,0.0,0.0,0.0,0.0,0.0,0.0,0.0,0.0,0.0,0.0,0.0,0.855,0.854,0.854,0.855,0.853,0.852,0.849,0.844,0.842,0.839,0.838,0.835,0.83,0.818,0.815,0.809,0.804,0.802,0.801,0.801,0.8,0.8,0.799,0.799,0.798,0.797,0.796,0.794,0.794,0.79,0.787
0.0,0.0,0.0,0.0,0.0,0.0,0.0,2.962,2.962,2.962,2.962,2.962,2.962,2.97,2.993,3.016,3.024,3.055,3.08,3.096,3.113,3.121,3.129,3.138,3.146,3.146,3.146,3.146,3.146,3.146,3.146,3.146,3.146,3.138,3.146,3.146,3.146,3.155,3.163,3.172,3.181,3.189,3.207,3.234,3.261,3.288,3.317,3.336,3.365,3.394,3.414,3.424,3.434,3.444,3.444,3.454,3.454,3.465,3.465,3.465,3.475,3.485,3.485,3.496,3.528,3.56,3.731,3.842,3.9074999999999998,3.973,4.188,4.328,4.565,4.6975,4.83,4.954,5.04,5.084,5.084,5.084,5.151,5.151,5.22,5.22,5.268,5.316,5.389,5.389,5.389,5.415,5.415,5.415,5.415,5.415,5.44,5.44,5.44,5.465,5.465,5.44,5.465,5.465,5.465,5.465,5.491,5.491,5.465,5.465,5.465,5.44,5.415,5.389,5.389,5.34,5.316,5.316,5.268,5.268,5.268,5.268,5.268,5.268,5.268,5.268,5.268,5.268,5.268,5.268,5.268,5.316,5.316,5.34,5.34,5.34,5.34,5.389,5.389,5.389,5.389,5.389,5.389,5.415,5.415,5.44,5.465,5.465,5.491,5.517,5.517,5.517,5.543,5.543,5.543,5.57,5.57,5.624,5.679,5.735,5.821,5.939,6.095,6.259,6.432,6.54,6.577,6.577,6.614,6.652,6.69,6.729,6.729,6.768,6.808,6.848,6.848,6.848,6.888,6.888,6.888,6.888,6.888,6.929,6.929,6.929,6.929,6.971,7.055,6.888,6.848,6.808,6.808,6.808,6.808,6.808,6.808,6.808,6.888,6.971,7.098,7.098,7.055,7.055,6.929,6.888,6.929,7.055,7.098,7.231,7.368,7.511,7.761,7.813,7.973,7.973,8.084,8.084,8.084,8.141,8.141,8.141,8.198,8.141,8.084,8.028,8.028,7.973,7.973,7.919,7.813,7.813,7.709,7.659,7.559,7.511,0.0,0.0,0.0,0.0,0.0,0.0,4.3455,0.0,4.322,4.3215,4.321,0.0,0.0,0.0,0.0,0.0,0.0,0.0,0.0,0.0,0.0,0.0,0.0,0.0,0.0,0.0,0.0,0.0,0.0,0.0,0.0,0.0,1.153,1.153,1.153,1.153,1.153,1.154,1.154,1.154,1.155,1.155,1.155,1.155,1.156,1.155,1.155,1.154,1.153,1.15,1.148,0.0,0.0,0.0,0.0,0.0,0.0,0.0,0.0,0.0,0.0,0.0,0.0,0.0,0.0,0.0,0.0,0.0,0.0,0.0,0.0,0.0,0.0,0.0,0.0,0.0,0.0,0.0,0.0,0.0,0.0,0.0,0.0,0.0,0.0,0.0,0.0,0.397,0.0,0.0,0.0,0.0,0.0,0.397,0.397,0.397,0.397,0.397,0.397,0.397,0.398,0.398,0.398,0.399,0.399,0.399,0.4,0.401,0.401,0.401,0.402,0.402,0.402,0.402,0.402,0.402,0.402,0.402,0.402,0.402,0.402,0.402,0.403,0.402,0.403,0.403,0.403,0.403,0.403,0.403,0.403,0.404,0.404,0.404,0.404,0.404,0.40475,0.405,0.405,0.405,0.406,0.406,0.406,0.406,0.406,0.406,0.407,0.407,0.407,0.407,0.407,0.407,0.408,0.408,0.408,0.409,0.408,0.409,0.409,0.409,0.409,0.41,0.41,0.41,0.41,0.41,0.411,0.411,0.411,0.411,0.411,0.411,0.412,0.414,0.4145,0.415,0.416,0.416,0.418,0.419,0.42,0.421,0.421,0.421,0.421,0.422,0.423,0.0,0.4235,0.424,0.425,0.425,0.426,0.426,0.428,0.429,0.43,0.431,0.431,0.432,0.43324999999999997,0.434,0.435,0.436,0.437,0.43825,0.44,0.44025000000000003,0.441,0.442,0.442,0.443,0.444,0.444,0.445,0.446,0.446,0.446,0.446,0.447,0.447,0.447,0.448,0.449,0.451,0.452,0.452,0.454,0.45525,0.456,0.4565,0.457,0.458,0.458,0.458,0.459,0.46,0.461,0.462,0.463,0.463,0.464,0.465,0.466,0.468,0.4685,0.469,0.469,0.47,0.47,0.471,0.473,0.474,0.0,0.477,0.479,0.47975,0.4811875,0.482,0.483,0.485,0.486,0.488,0.488,0.489,0.489,0.489,0.489,0.49,0.491,0.491,0.491,0.492,0.0,0.0,0.0,0.0,0.0,0.0,0.0,0.0,0.0,0.0,0.0,0.0,0.0,0.0,0.0,0.0,0.0,0.0,0.0,0.0,0.0,0.0,0.0,0.0,0.0,0.0,0.0,0.0,0.852,0.85,0.847,0.844,0.839,0.838,0.838,0.836,0.832,0.8239999999999998,0.817,0.813,0.806,0.803,0.801,0.801,0.8,0.799,0.798,0.798,0.797,0.796,0.795,0.794,0.792,0.79,0.788,0.785
0.0,0.0,0.0,0.0,0.0,0.0,0.0,2.962,2.955,2.955,2.955,2.955,2.955,2.955,2.97,2.993,3.016,3.024,3.047,3.072,3.096,3.104,3.113,3.121,3.129,3.129,3.129,3.138,3.138,3.138,3.138,3.138,3.138,3.138,3.138,3.138,3.146,3.146,3.155,3.163,3.172,3.181,3.198,3.216,3.243,3.27,3.298,3.326,3.355,3.384,3.404,3.414,3.424,3.444,3.444,3.454,3.454,3.454,3.465,3.465,3.465,3.475,3.485,3.496,3.517,3.538,3.731,3.829,3.894375,3.973,4.203,4.328,4.601,4.7155000000000005,4.83,4.975,5.084,5.084,5.084,5.084,5.106,5.151,5.174,5.22,5.244,5.316,5.34,5.34,5.389,5.389,5.389,5.389,5.389,5.389,5.389,5.415,5.415,5.44,5.44,5.44,5.44,5.465,5.465,5.465,5.465,5.465,5.465,5.465,5.465,5.44,5.415,5.389,5.389,5.34,5.316,5.268,5.268,5.268,5.244,5.244,5.244,5.244,5.244,5.244,5.244,5.244,5.244,5.268,5.268,5.268,5.316,5.34,5.34,5.389,5.389,5.389,5.389,5.415,5.415,5.415,5.415,5.44,5.44,5.44,5.465,5.465,5.491,5.517,5.517,5.517,5.543,5.543,5.543,5.57,5.57,5.624,5.679,5.707,5.821,5.939,6.095,6.259,6.396,6.504,6.54,6.577,6.614,6.652,6.69,6.69,6.729,6.768,6.768,6.808,6.808,6.808,6.808,6.808,6.848,6.848,6.808,6.848,6.848,6.808,6.848,6.848,6.808,6.729,6.652,6.577,6.54,6.54,6.504,6.504,6.504,6.54,6.577,6.652,6.729,6.729,6.729,6.808,6.69,6.614,6.577,6.614,6.69,6.69,6.888,7.098,7.231,7.511,7.659,7.761,7.761,7.761,7.919,7.973,8.028,8.084,8.084,8.028,8.028,8.028,7.973,7.973,7.973,7.919,7.866,0.0,0.0,0.0,0.0,0.0,0.0,0.0,0.0,0.0,0.0,0.0,1.276,1.276,1.276,1.275,1.274,1.274,1.274,0.0,0.0,0.0,0.0,0.0,0.0,0.0,0.0,0.0,0.0,0.0,0.0,0.0,0.0,0.0,0.0,0.0,1.158,1.155,1.154,1.153,1.153,1.153,1.153,1.154,1.154,1.155,1.155,1.155,1.155,1.155,1.155,1.155,1.155,1.154,1.153,1.151,1.148,0.0,0.0,0.0,0.0,0.0,0.0,0.0,0.0,0.0,0.0,0.0,0.0,0.0,0.0,0.0,0.0,0.0,0.0,0.0,0.0,0.0,0.0,0.0,0.0,0.4,0.4,0.399,0.399,0.399,0.399,0.398,0.0,0.0,0.398,0.398,0.397,0.397,0.0,0.0,0.0,0.396,0.396,0.396,0.396,0.3965,0.397,0.397,0.397,0.397,0.397,0.397,0.398,0.398,0.398,0.398,0.399,0.399,0.4,0.4,0.401,0.401,0.401,0.401,0.401,0.402,0.402,0.402,0.402,0.402,0.402,0.402,0.402,0.402,0.402,0.402,0.402,0.402,0.402,0.402,0.402,0.402,0.403,0.403,0.403,0.403,0.404,0.404,0.404,0.404,0.40475,0.405,0.405,0.406,0.406,0.406,0.406,0.406,0.406,0.406,0.407,0.407,0.407,0.407,0.407,0.407,0.407,0.407,0.408,0.408,0.408,0.408,0.408,0.409,0.409,0.409,0.41,0.409,0.41,0.41,0.41,0.411,0.411,0.411,0.41262499999999996,0.414,0.4145,0.415,0.416,0.417,0.418,0.42,0.42,0.42,0.421,0.421,0.422,0.4225,0.423,0.42324999999999996,0.424,0.425,0.425,0.426,0.427,0.428,0.429,0.43,0.431,0.432,0.433,0.4335,0.434,0.435,0.436,0.436,0.438,0.439,0.44,0.441,0.441,0.442,0.442,0.443,0.444,0.445,0.445,0.446,0.446,0.446,0.446,0.447,0.447,0.448,0.45,0.451,0.452,0.4535,0.455,0.4555,0.456,0.457,0.457,0.457,0.458,0.458,0.459,0.46,0.461,0.462,0.463,0.464,0.464,0.465,0.467,0.468,0.4685,0.469,0.4695,0.47,0.47,0.472,0.474,0.475,0.476,0.477,0.478,0.481,0.481,0.482,0.483,0.483,0.485,0.487,0.487,0.488,0.488,0.489,0.489,0.49,0.491,0.491,0.492,0.493,0.0,0.0,0.0,0.0,0.0,0.0,0.0,0.0,0.0,0.0,0.0,0.0,0.0,0.0,0.0,0.0,0.0,0.0,0.0,0.0,0.0,0.0,0.0,0.0,0.0,0.0,0.0,0.85,0.847,0.841,0.839,0.838,0.838,0.836,0.833,0.824,0.817,0.814,0.808,0.803,0.801,0.8,0.799,0.798,0.797,0.797,0.796,0.796,0.794,0.792,0.792,0.79,0.789,0.787,0.784
0.0,0.0,0.0,0.0,0.0,0.0,0.0,0.0,2.94,2.947,2.947,2.947,2.947,2.955,2.962,2.977,2.993,3.016,3.024,3.047,3.055,3.08,3.096,3.096,3.104,3.113,3.113,3.121,3.121,3.121,3.121,3.121,3.129,3.129,3.129,3.138,3.146,3.146,3.155,3.163,3.163,3.181,3.189,3.198,3.225,3.243,3.288,3.317,3.336,3.365,3.394,3.404,3.424,3.444,3.444,3.444,3.454,3.454,3.465,3.465,3.465,3.475,3.485,3.485,3.506,3.549,3.743,3.8055,3.868,4.056,4.249,4.393,4.694,4.7725,4.851,4.996,5.106,5.084,5.106,5.084,5.106,5.151,5.174,5.174,5.244,5.268,5.316,5.316,5.316,5.316,5.316,5.316,5.316,5.316,5.34,5.34,5.389,5.415,5.415,5.415,5.415,5.44,5.44,5.44,5.44,5.465,5.465,5.465,5.465,5.44,5.415,5.415,5.389,5.316,5.316,5.268,5.268,5.244,5.244,5.244,5.244,5.22,5.22,5.22,5.22,5.22,5.244,5.244,5.268,5.268,5.316,5.316,5.34,5.389,5.389,5.389,5.415,5.415,5.44,5.44,5.44,5.44,5.465,5.465,5.465,5.491,5.491,5.517,5.517,5.517,5.543,5.543,5.543,5.57,5.57,5.597,5.651,5.707,5.792,5.909,6.095,6.225,6.396,6.504,6.54,6.577,6.614,6.652,6.69,6.69,6.729,6.729,6.768,6.768,6.768,6.768,6.768,6.729,6.729,6.729,6.729,6.729,6.69,6.652,6.614,6.577,6.54,6.361,6.127,5.939,5.821,5.821,5.792,5.792,5.792,5.821,5.85,5.939,6.032,6.032,6.032,6.159,5.939,5.85,5.99275,6.001,6.127,6.225,6.396,6.577,6.69,6.768,6.808,7.055,7.186,7.098,7.322,7.511,7.761,7.813,7.919,8.028,8.028,7.973,7.973,7.973,7.973,7.973,0.0,0.0,0.0,0.0,0.0,0.0,0.0,0.0,0.0,0.0,0.0,1.279,1.278,1.276,1.276,1.275,1.275,1.274,1.275,0.0,0.0,0.0,1.274,1.268,0.0,0.0,0.0,0.0,0.0,0.0,0.0,0.0,0.0,0.0,0.0,1.179,1.157,1.155,0.0,1.1535,1.153,1.153,1.153,1.153,1.154,1.155,1.155,1.155,1.155,1.155,1.155,1.155,1.155,1.154,1.153,1.151,1.149,0.0,0.0,0.0,0.0,0.0,0.0,0.0,0.0,0.0,0.0,0.0,0.0,0.0,0.0,0.0,0.0,0.0,0.0,0.0,0.0,0.0,0.0,0.0,0.4,0.4,0.4,0.4,0.399,0.399,0.399,0.398,0.398,0.398,0.398,0.398,0.397,0.397,0.397,0.397,0.397,0.396,0.396,0.396,0.396,0.396,0.396,0.396,0.3965,0.397,0.397,0.397,0.397,0.397,0.398,0.398,0.398,0.398,0.399,0.399,0.4,0.4,0.4,0.4,0.4,0.4,0.4,0.401,0.401,0.401,0.401,0.401,0.401,0.401,0.401,0.401,0.401,0.402,0.402,0.402,0.402,0.402,0.402,0.402,0.402,0.402,0.403,0.403,0.403,0.404,0.404,0.404,0.404,0.40475,0.405,0.405,0.40525,0.406,0.406,0.406,0.406,0.406,0.406,0.406,0.407,0.407,0.407,0.407,0.407,0.407,0.407,0.407,0.407,0.407,0.407,0.408,0.408,0.408,0.408,0.408,0.408,0.409,0.41,0.411,0.411,0.412,0.413,0.414,0.415,0.416,0.416,0.417,0.418,0.419,0.419,0.42,0.421,0.421,0.421,0.422,0.424,0.4245,0.425,0.426,0.426,0.428,0.429,0.43,0.431,0.431,0.432,0.433,0.43324999999999997,0.434,0.435,0.436,0.436,0.437,0.438,0.439,0.44,0.441,0.441,0.442,0.443,0.443,0.444,0.4445,0.445,0.446,0.446,0.446,0.447,0.44775000000000004,0.449,0.451,0.452,0.452625,0.453,0.455,0.456,0.456,0.45625000000000004,0.457,0.457,0.458,0.458,0.459,0.46,0.462,0.463,0.463,0.464,0.465,0.466,0.468,0.468375,0.469,0.46937499999999993,0.47,0.47,0.471,0.472,0.474,0.475,0.475,0.476,0.477,0.479,0.48,0.482,0.482,0.48324999999999996,0.484,0.485,0.486,0.487,0.488,0.489,0.489,0.49,0.49,0.491,0.491,0.493,0.0,0.0,0.0,0.0,0.0,0.0,0.0,0.0,0.0,0.0,0.0,0.0,0.0,0.0,0.0,0.0,0.0,0.0,0.0,0.0,0.0,0.0,0.0,0.0,0.0,0.0,0.847,0.841,0.839,0.836,0.8354999999999999,0.836,0.832,0.826,0.814,0.806,0.802,0.8,0.799,0.798,0.797,0.796,0.796,0.795,0.795,0.794,0.794,0.792,0.792,0.79,0.79,0.788,0.786,0.783
0.0,0.0,0.0,0.0,0.0,0.0,0.0,0.0,2.94,2.94,2.94,2.94,2.94,2.947,2.955,2.97,2.977,2.993,3.016,3.024,3.039,3.055,3.072,3.08,3.08,3.096,3.096,3.104,3.113,3.113,3.113,3.113,3.121,3.121,3.129,3.129,3.138,3.146,3.155,3.155,3.163,3.181,3.181,3.189,3.207,3.234,3.261,3.288,3.326,3.355,3.384,3.404,3.424,3.434,3.444,3.444,3.454,3.454,3.465,3.465,3.465,3.475,3.485,3.496,3.517,3.582,3.804,3.845875,3.906,4.158,4.335,4.512,4.771,4.8161249999999995,4.891,5.04,5.084,5.084,5.106,5.106,5.151,5.151,5.151,5.174,5.22,5.244,5.244,5.268,5.268,5.268,5.268,5.268,5.268,5.268,5.268,5.316,5.34,5.389,5.389,5.389,5.389,5.389,5.415,5.415,5.44,5.44,5.44,5.44,5.44,5.44,5.415,5.389,5.34,5.316,5.316,5.268,5.244,5.244,5.22,5.22,5.22,5.22,5.22,5.22,5.22,5.22,5.22,5.244,5.268,5.268,5.316,5.34,5.389,5.389,5.389,5.415,5.44,5.44,5.44,5.44,5.44,5.465,5.465,5.465,5.491,5.491,5.491,5.517,5.517,5.517,5.543,5.543,5.543,5.57,5.57,5.597,5.651,5.679,5.763,5.85,6.032,6.159,6.327,6.467,6.54,6.577,6.614,6.652,6.69,6.69,6.69,6.729,6.729,6.729,6.729,6.729,6.729,6.69,6.69,6.69,6.652,6.614,6.54,6.361,6.159,6.032,5.792,5.57,5.543,5.491,5.465,5.465,5.491,5.465,5.491,5.491,5.543,5.543,5.543,5.543,0.0,0.0,0.0,5.491,5.543,5.597,5.651,5.763,5.945,6.127,6.327,6.467,6.54,6.54,6.504,6.577,6.69,6.768,6.888,7.098,7.368,7.709,8.028,7.973,7.973,7.973,7.973,0.0,0.0,0.0,0.0,0.0,0.0,0.0,0.0,0.0,0.0,0.0,1.281,1.279,1.278,1.276,1.27575,1.275,1.275,1.275,1.27525,1.275,1.275,1.274,1.2725,1.271,1.263,1.253,0.0,0.0,0.0,0.0,0.0,0.0,0.0,0.0,0.0,0.0,1.158,1.155,1.1545,1.154,1.154,1.153,1.154,1.154,1.154,1.155,1.155,1.155,1.155,1.156,1.156,1.156,1.156,1.155,1.154,1.153,1.15,0.0,0.0,0.0,0.0,0.0,0.0,0.0,0.0,0.0,0.0,0.0,0.0,0.0,0.0,0.0,0.0,0.0,0.0,0.0,0.0,0.0,0.0,0.0,0.4005,0.4,0.4,0.4,0.399,0.399,0.399,0.398,0.398,0.398,0.398,0.398,0.397,0.397,0.397,0.397,0.397,0.396,0.396,0.396,0.395,0.396,0.395,0.396,0.396,0.396,0.396,0.3965,0.397,0.397,0.397,0.397,0.398,0.398,0.398,0.398,0.398,0.398,0.399,0.399,0.399,0.399,0.399,0.399,0.399,0.399,0.399,0.399,0.4,0.4,0.4,0.4,0.4,0.4,0.401,0.401,0.401,0.401,0.402,0.402,0.402,0.402,0.402,0.402,0.403,0.403,0.403,0.403,0.404,0.404,0.404,0.404,0.404,0.405,0.405,0.405,0.40525,0.406,0.406,0.406,0.406,0.406,0.406,0.406,0.406,0.406,0.406,0.406,0.4065,0.407,0.407,0.407,0.407,0.407,0.407,0.407,0.407,0.408,0.408,0.409,0.41,0.411,0.411,0.412,0.414,0.415,0.415,0.4155,0.416,0.416,0.417,0.418,0.419,0.42,0.421,0.421,0.423,0.424,0.4245,0.425,0.426,0.427,0.428,0.429,0.43,0.43,0.43,0.431,0.432,0.433,0.434,0.4345,0.435,0.436,0.436,0.437,0.438,0.439,0.44,0.441,0.441,0.442,0.442,0.443,0.444,0.4445,0.445,0.446,0.447,0.447,0.448,0.449,0.451,0.452,0.452,0.453,0.453,0.455,0.455,0.456,0.4565,0.457,0.4575,0.458,0.458,0.46,0.461,0.463,0.463,0.464,0.46525000000000005,0.467,0.468,0.469,0.469,0.4695,0.47,0.47,0.471,0.473,0.474,0.475,0.475,0.476,0.4775,0.47875,0.48,0.481,0.482,0.483,0.4835,0.484,0.485,0.487,0.488,0.488,0.489,0.49,0.49,0.491,0.492,0.0,0.0,0.0,0.0,0.0,0.0,0.0,0.0,0.0,0.0,0.0,0.0,0.0,0.0,0.0,0.0,0.0,0.0,0.0,0.0,0.0,0.0,0.0,0.0,0.0,0.0,0.839,0.838,0.8354999999999999,0.833,0.832,0.833,0.826,0.813,0.0,0.789,0.795,0.794,0.787,0.789,0.788,0.789,0.79,0.79,0.79,0.79,0.79,0.79,0.789,0.788,0.787,0.787,0.784,0.782
0.0,0.0,0.0,0.0,0.0,0.0,0.0,0.0,2.94,2.94,2.94,2.94,2.94,2.94,2.947,2.962,2.97,2.977,2.993,3.016,3.024,3.039,3.047,3.055,3.055,3.072,3.08,3.096,3.096,3.104,3.104,3.104,3.113,3.113,3.121,3.129,3.138,3.146,3.146,3.155,3.163,3.172,3.181,3.189,3.198,3.216,3.243,3.27,3.298,3.336,3.365,3.394,3.414,3.434,3.444,3.444,3.454,3.454,3.465,3.485,3.485,3.496,3.528,3.56,3.649,3.755,3.8205,3.868,4.085,4.264,4.4510000000000005,4.638,4.734,4.83,4.912,5.084,5.106,5.106,5.106,5.106,5.151,5.151,5.151,5.151,5.174,5.174,5.22,5.22,5.22,5.22,5.174,5.22,5.22,5.22,5.22,5.244,5.268,5.268,5.316,5.34,5.34,5.34,5.389,5.389,5.389,5.415,5.415,5.415,5.415,5.415,5.389,5.34,5.316,5.316,5.268,5.244,5.244,5.22,5.22,5.22,5.22,5.22,5.22,5.22,5.22,5.22,5.244,5.268,5.268,5.316,5.316,5.34,5.389,5.415,5.415,5.44,5.44,5.44,5.465,5.465,5.465,5.465,5.465,5.465,5.491,5.491,5.491,5.517,5.517,5.517,5.543,5.543,5.543,5.57,5.57,5.597,5.651,5.679,5.735,5.821,6.001,6.127,6.327,6.432,6.54,6.577,6.614,6.614,6.652,6.652,6.69,6.69,6.69,6.69,6.69,6.69,6.69,6.652,6.614,6.577,6.504,6.361,6.032,5.792,5.543,5.389,0.0,0.0,0.0,5.141,4.975,4.975,4.996,5.128,5.131,5.131,0.0,0.0,0.0,0.0,0.0,0.0,0.0,5.1114999999999995,5.118375,5.106,5.268,0.0,0.0,5.651,5.707,5.707,5.763,5.821,5.939,0.0,0.0,0.0,0.0,0.0,0.0,0.0,0.0,0.0,0.0,0.0,0.0,0.0,0.0,0.0,0.0,0.0,0.0,0.0,0.0,0.0,1.286,1.282,1.281,1.279,1.279,1.27725,1.276,1.276,1.275,1.275,1.276,1.276,1.275,1.275,1.2742499999999999,1.271125,1.268,1.257,1.2465,1.236,0.0,0.0,0.0,0.0,1.22,1.211,0.0,0.0,0.0,1.1545,1.153,1.153,1.153,1.153,1.153,1.154,1.154,1.154,1.155,1.155,1.155,1.155,1.156,1.156,1.156,1.155,1.155,0.0,0.0,0.0,0.0,0.0,0.0,0.0,0.0,0.0,0.0,0.0,0.0,0.0,0.0,0.0,0.0,0.0,0.0,0.0,0.0,0.0,0.0,0.0,0.401,0.401,0.401,0.4,0.4,0.4,0.399,0.399,0.399,0.398,0.398,0.398,0.398,0.398,0.397,0.397,0.397,0.397,0.396,0.396,0.395,0.395,0.395,0.395,0.395,0.395,0.395,0.395,0.396,0.396,0.3965,0.397,0.397,0.397,0.397,0.397,0.398,0.398,0.398,0.398,0.398,0.398,0.398,0.398,0.398,0.398,0.398,0.398,0.398,0.398,0.399,0.399,0.399,0.399,0.399,0.399,0.399,0.4,0.4,0.401,0.401,0.401,0.402,0.402,0.402,0.402,0.402,0.402,0.402,0.403,0.403,0.403,0.403,0.403,0.403,0.404,0.404,0.404,0.404,0.405,0.405,0.405,0.405,0.405,0.405,0.405,0.40525,0.406,0.406,0.406,0.406,0.406,0.406,0.406,0.406,0.406,0.4065,0.407,0.407,0.407,0.407,0.408,0.408,0.409,0.41,0.411,0.411,0.412,0.414,0.414,0.415,0.4155,0.416,0.416,0.417,0.418,0.419,0.42,0.421,0.423,0.424,0.4245,0.425,0.426,0.427,0.428,0.429,0.43,0.43,0.431,0.431,0.431,0.432,0.433,0.434,0.4345,0.435,0.435,0.436,0.437,0.437,0.439,0.44,0.441,0.441,0.442,0.442,0.443,0.445,0.44525,0.446,0.446,0.447,0.447,0.448,0.45,0.451,0.452,0.452,0.453,0.453,0.455,0.456,0.457,0.457,0.4575,0.458,0.458,0.46,0.461,0.463,0.463,0.464,0.4655,0.467,0.468,0.469,0.469,0.4695,0.47,0.47075,0.472,0.473,0.473,0.474,0.475,0.476,0.4771875,0.478,0.48,0.481,0.481,0.482,0.482,0.484,0.485,0.485,0.487,0.488,0.489,0.489,0.49,0.491,0.491,0.492,0.0,0.0,0.0,0.0,0.0,0.0,0.0,0.0,0.0,0.0,0.0,0.0,0.0,0.0,0.0,0.0,0.0,0.0,0.0,0.0,0.0,0.0,0.0,0.0,0.0,0.0,0.0,0.0,0.0,0.7915,0.7905,0.0,0.0,0.772,0.776,0.78,0.782,0.784,0.785,0.786,0.788,0.789,0.789,0.789,0.788,0.787,0.787,0.787,0.787,0.786,0.783,0.0
0.0,0.0,0.0,0.0,0.0,0.0,0.0,2.94,2.94,2.94,2.932,2.94,2.932,2.94,2.947,2.955,2.962,2.97,2.977,2.993,3.016,3.024,3.039,3.047,3.047,3.055,3.055,3.072,3.08,3.08,3.096,3.104,3.104,3.113,3.121,3.129,3.138,3.146,3.146,3.155,3.163,3.172,3.181,3.189,3.189,3.207,3.234,3.261,3.298,3.326,3.355,3.394,3.414,3.424,3.444,3.444,3.454,3.465,3.485,3.506,3.538,3.593,3.661,3.731,3.804,3.8205,3.855,4.07,4.249,4.328,4.547,4.752,4.78675,4.851,4.933,5.084,5.106,5.084,5.106,5.106,5.106,5.151,5.151,5.151,5.151,5.174,5.174,5.174,5.174,5.151,5.106,5.106,5.106,5.151,5.151,5.174,5.22,5.244,5.244,5.268,5.316,5.316,5.34,5.34,5.389,5.389,5.389,5.389,5.389,5.389,5.34,5.34,5.316,5.268,5.268,5.244,5.244,5.22,5.22,5.22,5.22,5.22,5.22,5.22,5.22,5.244,5.268,5.268,5.316,5.316,5.389,5.389,5.415,5.44,5.44,5.44,5.465,5.465,5.465,5.491,5.491,5.491,5.465,5.465,5.491,5.491,5.491,5.491,5.517,5.517,5.543,5.543,5.543,5.57,5.57,5.597,5.624,5.679,5.735,5.821,5.939,6.127,6.259,6.432,6.54,6.54,6.577,6.614,6.614,6.614,6.652,6.652,6.652,6.652,6.652,6.652,6.652,6.614,6.54,6.396,6.159,5.85,5.517,5.316,5.04,5.0605,0.0,0.0,0.0,4.791,4.771,4.771,4.791,4.791,4.771,4.771,0.0,0.0,0.0,0.0,0.0,0.0,4.713,4.732,4.713,4.583,4.583,0.0,0.0,0.0,5.084,5.34,5.465,5.4305,5.5115,0.0,0.0,0.0,0.0,0.0,0.0,0.0,0.0,0.0,0.0,0.0,0.0,0.0,0.0,0.0,0.0,0.0,0.0,0.0,0.0,0.0,1.286,1.283,1.282,1.281,1.279,1.278,1.276,1.276,1.276,1.276,1.276,1.276,1.276,1.276,1.276,0.0,0.0,0.0,1.244,1.236,0.0,0.0,0.0,0.0,0.0,0.0,0.0,0.0,0.0,1.154,1.153,1.153,1.153,1.153,1.153,1.154,1.154,1.154,1.154,1.155,1.155,1.155,1.155,1.155,1.155,1.155,1.155,0.0,0.0,0.0,0.0,0.0,0.0,0.0,0.0,0.0,0.0,0.0,0.0,0.0,0.0,0.0,0.0,0.0,0.0,0.0,0.0,0.0,0.0,0.0,0.401,0.401,0.401,0.4,0.4,0.4,0.399,0.399,0.399,0.398,0.398,0.398,0.398,0.398,0.397,0.397,0.397,0.397,0.396,0.396,0.395,0.395,0.395,0.394,0.394,0.394,0.394,0.395,0.395,0.395,0.396,0.396,0.3965,0.397,0.397,0.397,0.397,0.397,0.397,0.397,0.397,0.398,0.398,0.398,0.398,0.398,0.398,0.398,0.398,0.398,0.398,0.398,0.398,0.398,0.398,0.399,0.399,0.399,0.399,0.4,0.4,0.4,0.401,0.401,0.401,0.402,0.402,0.402,0.402,0.402,0.402,0.402,0.402,0.402,0.403,0.403,0.403,0.403,0.403,0.404,0.404,0.404,0.404,0.404,0.404,0.404,0.404,0.404,0.405,0.405,0.405,0.405,0.405,0.406,0.406,0.406,0.406,0.406,0.406,0.4065,0.407,0.407,0.4075,0.408,0.409,0.41,0.411,0.411,0.411,0.412,0.413,0.413875,0.415,0.41524999999999995,0.416,0.416,0.417,0.419,0.42,0.421,0.422,0.424,0.4245,0.425,0.426,0.427,0.428,0.429,0.429,0.43,0.431,0.431,0.431,0.432,0.432,0.433,0.434,0.4345,0.435,0.436,0.436,0.437,0.438,0.439,0.441,0.441,0.441,0.442,0.443,0.444,0.445,0.4455,0.446,0.447,0.447,0.448,0.449,0.451,0.452,0.452,0.452,0.453,0.454,0.455,0.456,0.457,0.4575,0.458,0.458,0.46,0.461,0.463,0.464,0.464,0.465,0.467,0.468,0.469,0.469,0.47,0.47,0.471,0.471,0.472,0.473,0.474,0.475,0.476,0.476,0.477,0.478,0.48,0.481,0.482,0.482,0.484,0.48474999999999996,0.486,0.487,0.488,0.489,0.489,0.49,0.49,0.491,0.492,0.0,0.0,0.0,0.0,0.0,0.0,0.0,0.0,0.0,0.0,0.0,0.0,0.0,0.0,0.0,0.0,0.0,0.0,0.0,0.0,0.0,0.0,0.0,0.0,0.0,0.0,0.0,0.0,0.75,0.755,0.7595000000000001,0.764,0.766,0.768,0.773,0.779,0.782,0.783,0.784,0.786,0.787,0.787,0.787,0.787,0.787,0.0,0.0,0.0,0.0,0.0,0.0
0.0,0.0,0.0,0.0,0.0,0.0,0.0,2.947,2.94,2.94,2.94,2.94,2.932,2.94,2.947,2.947,2.962,2.97,2.977,2.993,3.0,3.016,3.024,3.024,3.039,3.047,3.047,3.072,3.072,3.08,3.08,3.096,3.104,3.113,3.113,3.129,3.138,3.146,3.146,3.155,3.163,3.163,3.181,3.181,3.189,3.207,3.225,3.243,3.27,3.298,3.336,3.365,3.394,3.424,3.444,3.444,3.465,3.475,3.506,3.549,3.627,3.707,3.78,3.79575,3.817,3.868,4.028,4.233,4.328,4.4785,4.657,4.733499999999999,4.81,4.891,4.954,5.084,5.084,5.084,5.084,5.084,5.106,5.106,5.106,5.106,5.106,5.106,5.106,5.084,5.084,5.04,5.04,5.04,5.084,5.084,5.084,5.106,5.151,5.174,5.22,5.22,5.244,5.268,5.268,5.316,5.316,5.316,5.34,5.34,5.34,5.34,5.316,5.268,5.268,5.244,5.244,5.244,5.244,5.22,5.22,5.22,5.244,5.244,5.244,5.244,5.244,5.268,5.268,5.31625,5.34,5.389,5.415,5.44,5.44,5.465,5.465,5.491,5.491,5.491,5.491,5.491,5.517,5.517,5.517,5.491,5.491,5.517,5.517,5.517,5.517,5.517,5.543,5.543,5.543,5.57,5.57,5.597,5.624,5.679,5.707,5.792,5.939,6.127,6.259,6.396,6.504,6.54,6.577,6.577,6.614,6.614,6.614,6.614,6.614,6.614,6.614,6.614,6.614,6.54,6.361,6.127,5.792,5.624,0.0,5.034,4.808,4.732,4.638,4.512,4.477,4.46,4.426,4.426,4.426,4.41,4.41,4.393,4.36,4.344,4.344,4.36,4.36,4.36,4.393,4.426,4.376,4.512,4.426,4.589,4.752,4.8215,4.891,4.912,4.975,5.04,5.084,5.151,0.0,0.0,0.0,0.0,0.0,0.0,0.0,0.0,0.0,0.0,0.0,0.0,0.0,0.0,0.0,0.0,1.35,1.333,1.322,1.311,1.288,1.283,1.283,1.281,1.279,1.279,1.276,1.276,1.276,1.276,1.276,1.276,1.276,1.276,1.276,0.0,0.0,0.0,0.0,1.232,0.0,0.0,0.0,0.0,0.0,0.0,0.0,0.0,0.0,1.153,1.153,1.151,1.153,1.151,1.153,1.1535,1.154,1.154,1.154,1.154,1.154,1.155,1.155,1.155,0.0,0.0,0.0,0.0,0.0,0.0,0.0,0.0,0.0,0.0,0.0,0.0,0.0,0.0,0.0,0.0,0.0,0.0,0.0,0.0,0.0,0.0,0.0,0.0,0.401,0.401,0.401,0.401,0.401,0.401,0.4,0.4,0.4,0.399,0.399,0.398,0.398,0.398,0.398,0.397,0.397,0.397,0.397,0.396,0.396,0.395,0.395,0.394,0.394,0.394,0.394,0.394,0.394,0.394,0.394,0.394,0.395,0.395,0.396,0.396,0.3965,0.397,0.397,0.397,0.397,0.397,0.397,0.397,0.397,0.397,0.397,0.397,0.397,0.397,0.397,0.397,0.398,0.398,0.398,0.398,0.398,0.398,0.398,0.398,0.398,0.399,0.399,0.399,0.4,0.4,0.401,0.401,0.401,0.401,0.402,0.402,0.402,0.402,0.402,0.402,0.402,0.402,0.402,0.402,0.403,0.403,0.403,0.403,0.403,0.403,0.403,0.403,0.403,0.404,0.404,0.404,0.404,0.404,0.404,0.405,0.405,0.405,0.405,0.406,0.406,0.406,0.406,0.407,0.407,0.407,0.40774999999999995,0.408,0.409,0.41,0.41,0.411,0.411,0.412,0.413,0.414,0.415,0.41524999999999995,0.416,0.0,0.0,0.0,0.0,0.0,0.0,0.425,0.425,0.426,0.427,0.428,0.428,0.429,0.43,0.431,0.431,0.431,0.431,0.432,0.433,0.434,0.43425,0.435,0.4355,0.436,0.436,0.437,0.439,0.44,0.44,0.441,0.442,0.442,0.444,0.445,0.4455,0.446,0.447,0.447,0.448,0.45,0.451,0.452,0.452,0.452,0.453,0.454,0.455,0.455,0.457,0.457,0.458,0.45875000000000005,0.459,0.461,0.463,0.463,0.464,0.465,0.467,0.468,0.469,0.469,0.47,0.47050000000000003,0.471,0.471,0.473,0.474,0.475,0.475,0.476,0.476,0.477,0.478,0.48,0.481,0.482,0.483,0.484,0.485,0.486,0.487,0.488,0.489,0.489,0.49,0.49,0.491,0.491,0.0,0.0,0.0,0.0,0.0,0.0,0.0,0.0,0.0,0.0,0.0,0.0,0.0,0.0,0.0,0.0,0.0,0.0,0.0,0.0,0.0,0.0,0.0,0.0,0.0,0.0,0.0,0.748,0.75,0.754,0.7585,0.763,0.765,0.767,0.774,0.78,0.782,0.783,0.784,0.784,0.785,0.785,0.785,0.0,0.0,0.0,0.0,0.0,0.0,0.0
0.0,0.0,0.0,0.0,0.0,0.0,0.0,2.955,2.955,2.947,2.94,2.932,2.932,2.94,2.947,2.947,2.955,2.97,2.97,2.977,2.993,3.0,3.016,3.024,3.024,3.039,3.047,3.055,3.072,3.072,3.08,3.096,3.104,3.113,3.113,3.129,3.138,3.146,3.146,3.155,3.163,3.163,3.172,3.181,3.189,3.189,3.216,3.234,3.261,3.288,3.317,3.355,3.394,3.424,3.444,3.454,3.475,3.506,3.582,3.672,3.755,3.777,3.817,3.855,3.92,4.028,4.154,4.3045,4.440875,4.601,4.752,4.771625,4.83,4.891,4.933,5.018,5.018,5.018,5.018,5.018,5.04,5.04,5.018,5.018,5.04,5.018,5.04,5.018,5.018,4.996,4.975,4.996,4.996,4.996,5.018,5.084,5.106,5.151,5.174,5.174,5.22,5.244,5.244,5.244,5.268,5.268,5.268,5.268,5.268,5.268,5.244,5.244,5.22,5.22,5.22,5.22,5.22,5.22,5.22,5.244,5.268,5.268,5.268,5.268,5.316,5.316,5.34,5.389,5.415,5.415,5.44,5.465,5.491,5.517,5.543,5.543,5.543,5.543,5.543,5.543,5.543,5.543,5.543,5.543,5.517,5.517,5.517,5.517,5.543,5.517,5.543,5.543,5.543,5.543,5.57,5.57,5.624,5.651,5.707,5.792,5.909,6.032,6.225,6.361,6.467,6.54,6.54,6.577,6.577,6.577,6.577,6.577,6.577,6.54,6.54,6.54,6.467,6.259,6.001,5.707,5.57,5.217,4.9845,4.752,4.426,4.36,4.328,4.312,4.28,4.264,4.264,4.264,4.249,4.249,4.249,4.233,4.218,4.203,4.203,4.233,4.233,4.249,4.249,4.249,4.264,4.296,4.328,4.36,4.53,4.638,4.713,4.771,4.81,4.81,4.83,4.83,4.83,0.0,0.0,0.0,0.0,0.0,0.0,0.0,0.0,0.0,0.0,0.0,0.0,0.0,0.0,0.0,1.346,1.329,1.321,1.311,1.289,1.286,1.285,1.282,1.281,1.281,1.279,1.279,1.278,1.278,1.279,1.279,1.278,1.278,1.279,0.0,0.0,0.0,0.0,1.231,0.0,0.0,0.0,1.22,0.0,0.0,0.0,0.0,0.0,1.15,1.15,1.15,1.151,1.151,1.1517499999999998,1.153,1.153,1.154,1.154,1.154,1.154,1.154,1.154,1.154,0.0,0.0,0.0,0.0,0.0,0.0,0.0,0.0,0.0,0.0,0.0,0.0,0.0,0.0,0.0,0.0,0.0,0.0,0.0,0.0,0.0,0.0,0.0,0.0,0.401,0.401,0.401,0.401,0.401,0.4,0.4,0.4,0.4,0.399,0.399,0.399,0.398,0.398,0.398,0.398,0.397,0.397,0.397,0.396,0.395,0.394,0.394,0.394,0.394,0.394,0.394,0.394,0.394,0.394,0.394,0.394,0.394,0.395,0.395,0.395,0.396,0.396,0.396,0.396,0.39625000000000005,0.397,0.397,0.397,0.397,0.397,0.397,0.397,0.397,0.397,0.397,0.397,0.397,0.397,0.397,0.397,0.397,0.3975000000000001,0.398,0.398,0.398,0.398,0.398,0.398,0.399,0.399,0.4,0.4,0.4,0.401,0.401,0.401,0.401,0.401,0.402,0.402,0.402,0.402,0.402,0.402,0.402,0.402,0.402,0.402,0.402,0.402,0.402,0.402,0.402,0.403,0.403,0.403,0.403,0.403,0.403,0.404,0.404,0.404,0.404,0.405,0.405,0.406,0.406,0.406,0.406,0.407,0.407,0.407,0.40774999999999995,0.408,0.409,0.409,0.41,0.411,0.411,0.412,0.413,0.414,0.415,0.0,0.0,0.0,0.0,0.0,0.0,0.424,0.4245,0.425,0.426,0.427,0.428,0.429,0.429,0.43,0.43,0.431,0.431,0.431,0.432,0.432,0.433,0.434,0.435,0.4355,0.436,0.436,0.437,0.438,0.44,0.441,0.441,0.442,0.443,0.444,0.445,0.446,0.44625000000000004,0.447,0.447,0.447,0.448,0.45,0.451,0.452,0.452,0.453,0.453,0.454,0.456,0.457,0.458,0.458,0.459,0.46,0.462,0.463,0.464,0.465,0.466,0.467,0.468,0.469,0.47,0.47,0.4705,0.471,0.472,0.473,0.475,0.475,0.476,0.476,0.477,0.478,0.479,0.48,0.481,0.482,0.483,0.48424999999999996,0.485,0.487,0.488,0.488,0.489,0.489,0.49,0.49,0.491,0.0,0.0,0.0,0.0,0.0,0.0,0.0,0.0,0.0,0.0,0.0,0.0,0.0,0.0,0.0,0.0,0.0,0.0,0.0,0.0,0.0,0.0,0.0,0.0,0.0,0.0,0.0,0.0,0.746,0.75,0.753,0.76,0.0,0.0,0.768,0.774,0.78,0.782,0.783,0.784,0.784,0.784,0.0,0.0,0.0,0.0,0.0,0.0,0.0,0.0
0.0,0.0,0.0,0.0,0.0,0.0,2.97,2.962,2.962,2.962,2.947,2.94,2.932,2.94,2.947,2.947,2.955,2.962,2.97,2.977,2.993,2.993,3.016,3.016,3.024,3.039,3.039,3.055,3.055,3.072,3.08,3.096,3.104,3.113,3.121,3.129,3.138,3.146,3.155,3.155,3.163,3.163,3.172,3.181,3.181,3.189,3.198,3.225,3.234,3.27,3.317,3.336,3.394,3.434,3.444,3.475,3.506,3.582,3.672,3.7319999999999998,3.78,3.829,3.868,3.946,4.07,4.188,4.28,4.376,4.53,4.694,4.74225,4.771,4.83,4.871,4.912,4.933,4.954,4.933,4.954,4.954,4.954,4.975,4.975,4.975,4.975,4.975,4.975,4.975,4.954,4.954,4.933,4.954,4.954,4.975,4.996,5.04,5.084,5.106,5.174,5.174,5.22,5.244,5.244,5.244,5.244,5.22,5.22,5.22,5.22,5.174,5.174,5.174,5.174,5.22,5.22,5.22,5.22,5.244,5.244,5.268,5.268,5.316,5.316,5.316,5.34,5.389,5.389,5.415,5.465,5.491,5.491,5.543,5.543,5.543,5.57,5.57,5.57,5.57,5.57,5.57,5.57,5.57,5.57,5.543,5.543,5.543,5.543,5.543,5.543,5.543,5.543,5.543,5.543,5.543,5.57,5.57,5.597,5.651,5.679,5.763,5.909,6.032,6.159,6.327,6.432,6.504,6.54,6.54,6.54,6.54,6.54,6.54,6.54,6.504,6.504,6.396,6.225,5.939,5.679,0.0,5.161,4.81,4.601,4.344,4.296,4.264,4.249,4.233,4.203,4.173,4.158,4.158,4.128,4.114,4.114,4.085,4.085,4.085,4.085,4.114,4.128,4.128,4.158,4.173,4.203,4.249,4.28,4.296,4.328,4.36,4.393,4.426,4.477,4.477,4.53,4.53,4.53,4.53,4.53,4.53,4.565,0.0,0.0,0.0,0.0,0.0,0.0,0.0,0.0,0.0,0.0,0.0,1.344,1.329,1.321,1.3115,1.302,1.292,1.286,1.283,1.282,1.281,1.281,1.281,1.281,1.281,1.281,1.281,1.281,1.281,1.282,1.281,0.0,0.0,0.0,1.2275,0.0,0.0,0.0,1.216,0.0,0.0,0.0,0.0,1.148,1.147,1.147,1.147,1.148,1.149,1.15,1.151,1.151,1.151,1.153,1.153,1.153,1.153,1.153,1.153,1.153,1.153,0.0,0.0,0.0,0.0,0.0,0.0,0.0,0.0,0.0,0.0,0.0,0.0,0.0,0.0,0.0,0.0,0.0,0.0,0.0,0.0,0.0,0.0,0.0,0.401,0.401,0.401,0.401,0.401,0.4,0.4,0.4,0.399,0.399,0.399,0.398,0.398,0.398,0.397,0.397,0.396,0.396,0.395,0.394,0.394,0.394,0.394,0.394,0.393,0.393,0.393,0.393,0.393,0.394,0.394,0.394,0.394,0.394,0.394,0.394,0.395,0.395,0.395,0.395,0.396,0.396,0.396,0.396,0.396,0.396,0.396,0.396,0.396,0.396,0.396,0.3965,0.397,0.397,0.397,0.397,0.397,0.397,0.397,0.3975000000000001,0.398,0.398,0.398,0.398,0.398,0.399,0.399,0.399,0.4,0.4,0.4,0.4,0.401,0.401,0.401,0.401,0.402,0.402,0.402,0.402,0.402,0.402,0.402,0.402,0.402,0.402,0.402,0.402,0.402,0.402,0.402,0.402,0.402,0.403,0.403,0.403,0.404,0.404,0.404,0.404,0.405,0.405,0.405,0.406,0.406,0.406,0.407,0.407,0.407,0.407,0.40774999999999995,0.408,0.409,0.41,0.411,0.411,0.411,0.413,0.415,0.416,0.4165,0.417,0.42,0.421,0.422,0.424,0.4245,0.425,0.426,0.427,0.428,0.429,0.429,0.43,0.43,0.431,0.431,0.431,0.432,0.432,0.433,0.435,0.435,0.43524999999999997,0.436,0.436,0.437,0.438,0.44,0.44,0.441,0.441,0.442,0.443,0.444,0.445,0.446,0.4465,0.447,0.448,0.449,0.45,0.451,0.452,0.452,0.453,0.454,0.455,0.457,0.457,0.458,0.459,0.46,0.461,0.463,0.463,0.464,0.465,0.467,0.468,0.469,0.469,0.47,0.470375,0.471,0.472,0.473,0.474,0.475,0.476,0.476,0.477,0.477,0.478,0.48,0.481,0.482,0.482,0.484,0.485,0.486,0.487,0.488,0.489,0.489,0.489,0.489,0.49,0.0,0.0,0.0,0.0,0.0,0.0,0.0,0.0,0.0,0.0,0.0,0.0,0.0,0.0,0.0,0.0,0.0,0.0,0.0,0.0,0.0,0.0,0.0,0.0,0.0,0.0,0.0,0.0,0.0,0.0,0.0,0.757,0.0,0.0,0.767,0.0,0.0,0.0,0.0,0.7205,0.7205,0.7210000000000001,0.0,0.0,0.0,0.665,0.666,0.667,0.668,0.0
0.0,0.0,0.0,0.0,0.0,3.0,2.977,2.97,2.97,2.962,2.955,2.947,2.94,2.94,2.947,2.955,2.955,2.962,2.97,2.977,2.993,2.993,3.0,3.016,3.024,3.039,3.039,3.047,3.055,3.072,3.08,3.096,3.104,3.113,3.121,3.129,3.138,3.146,3.155,3.155,3.163,3.163,3.172,3.181,3.181,3.181,3.198,3.207,3.225,3.261,3.288,3.326,3.394,3.444,3.465,3.506,3.582,3.696,3.744,3.804,3.855,3.906,4.028,4.128,4.233,4.28,4.36,4.512,4.657,4.70875,4.752,4.81,4.83,4.851,4.871,4.891,4.912,4.891,4.891,4.912,4.912,4.912,4.912,4.912,4.912,4.912,4.912,4.912,4.912,4.912,4.912,4.933,4.954,4.975,4.996,5.04,5.084,5.151,5.151,5.22,5.244,5.244,5.244,5.244,5.244,5.22,5.22,5.22,5.174,5.174,5.174,5.151,5.151,5.174,5.174,5.22,5.22,5.244,5.244,5.268,5.316,5.316,5.34,5.389,5.389,5.415,5.44,5.465,5.517,5.543,5.543,5.57,5.57,5.57,5.597,5.597,5.597,5.597,5.597,5.597,5.597,5.597,5.57,5.57,5.57,5.543,5.543,5.543,5.543,5.543,5.543,5.543,5.543,5.57,5.57,5.57,5.597,5.651,5.679,5.763,5.85,6.001,6.127,6.259,6.396,6.432,6.504,6.504,6.504,6.504,6.504,6.504,6.467,6.396,6.327,6.095,5.821,5.624,0.0,0.0,4.752,4.376,4.312,4.28,4.249,4.249,4.218,4.203,4.173,4.173,4.158,4.128,4.114,4.114,4.085,4.085,4.085,4.085,4.085,4.114,4.128,4.128,4.158,4.173,4.203,4.233,4.249,4.264,4.28,4.296,4.312,4.328,4.36,4.393,4.426,4.477,4.512,4.53,4.583,4.601,4.638,4.657,4.657,4.638,0.0,0.0,0.0,0.0,0.0,0.0,0.0,0.0,0.0,0.0,0.0,1.312,1.302,1.293,1.292,1.289,1.288,1.283,1.283,1.282,1.282,1.282,1.283,1.283,1.283,1.283,1.285,0.0,0.0,0.0,0.0,1.224,0.0,0.0,0.0,0.0,0.0,1.165,1.1555,1.146,1.145,1.144,1.144,1.146,1.14625,1.147,1.148,1.148,1.15,1.15,1.15,1.151,1.151,1.151,1.15,1.15,1.15,1.15,0.0,0.0,0.0,0.0,0.0,0.0,0.0,0.0,0.0,0.0,0.0,0.0,0.0,0.0,0.0,0.0,0.0,0.0,0.0,0.0,0.0,0.0,0.0,0.401,0.401,0.401,0.401,0.401,0.401,0.4,0.4,0.4,0.399,0.399,0.398,0.398,0.398,0.397,0.397,0.396,0.395,0.394,0.394,0.394,0.393,0.393,0.393,0.393,0.393,0.393,0.393,0.393,0.393,0.393,0.393,0.394,0.394,0.394,0.394,0.394,0.394,0.394,0.394,0.394,0.395,0.395,0.395,0.395,0.395,0.395,0.395,0.395,0.395,0.395,0.396,0.396,0.396,0.396,0.396,0.397,0.397,0.397,0.397,0.397,0.397,0.3975000000000001,0.398,0.398,0.398,0.398,0.398,0.399,0.399,0.399,0.399,0.4,0.4,0.4,0.401,0.401,0.401,0.401,0.401,0.402,0.402,0.402,0.402,0.402,0.402,0.402,0.402,0.402,0.402,0.402,0.402,0.402,0.402,0.402,0.403,0.403,0.403,0.403,0.404,0.404,0.404,0.405,0.405,0.405,0.406,0.406,0.406,0.407,0.407,0.407,0.4075,0.408,0.409,0.41,0.41,0.411,0.411,0.412,0.414,0.416,0.4165,0.417,0.419,0.421,0.422,0.424,0.425,0.4255,0.426,0.427,0.428,0.428,0.429,0.43,0.43,0.43,0.431,0.431,0.431,0.432,0.432,0.432,0.434,0.435,0.435,0.436,0.436,0.438,0.438,0.439,0.44,0.441,0.442,0.443,0.444,0.445,0.446,0.4465,0.447,0.448,0.449,0.451,0.451,0.452,0.452,0.453,0.454,0.456,0.457,0.458,0.4585,0.459,0.46,0.462,0.463,0.464,0.465,0.466,0.467,0.468,0.469,0.47,0.47,0.471,0.472,0.473,0.474,0.475,0.475,0.476,0.476,0.477,0.478,0.479,0.481,0.481,0.482,0.483,0.485,0.4855,0.486,0.487,0.488,0.488,0.489,0.489,0.489,0.0,0.0,0.0,0.0,0.0,0.0,0.0,0.0,0.0,0.0,0.0,0.0,0.0,0.0,0.0,0.0,0.0,0.0,0.0,0.0,0.0,0.0,0.0,0.0,0.0,0.0,0.0,0.0,0.0,0.0,0.0,0.0,0.0,0.0,0.0,0.0,0.0,0.0,0.0,0.657,0.657,0.658,0.659,0.66,0.661,0.663,0.664,0.665,0.667,0.668
0.0,0.0,0.0,0.0,0.0,3.016,2.993,2.977,2.977,2.97,2.962,2.955,2.947,2.94,2.947,2.955,2.955,2.962,2.97,2.97,2.993,2.993,3.0,3.016,3.016,3.024,3.039,3.047,3.055,3.072,3.08,3.096,3.104,3.113,3.121,3.129,3.138,3.146,3.155,3.155,3.163,3.163,3.163,3.172,3.181,3.181,3.189,3.207,3.225,3.261,3.298,3.355,3.424,3.465,3.496,3.582,3.64175,3.707,3.804,3.868,3.973,4.07,4.188,4.264,4.312,4.376,4.477,4.638,4.6850000000000005,4.732,4.791,4.81,4.83,4.83,4.851,4.851,4.851,4.851,4.851,4.851,4.851,4.851,4.871,4.871,4.871,4.871,4.891,4.891,4.891,4.891,4.912,4.912,4.933,4.975,4.996,5.04,5.106,5.151,5.174,5.244,5.244,5.268,5.268,5.268,5.244,5.244,5.22,5.22,5.174,5.174,5.151,5.151,5.151,5.174,5.174,5.22,5.244,5.244,5.268,5.268,5.316,5.34,5.34,5.389,5.415,5.44,5.465,5.491,5.543,5.543,5.57,5.57,5.597,5.597,5.597,5.597,5.624,5.624,5.624,5.597,5.597,5.597,5.597,5.597,5.57,5.57,5.57,5.543,5.543,5.543,5.543,5.543,5.543,5.57,5.57,5.597,5.597,5.651,5.679,5.763,5.85,5.939,6.095,6.225,6.327,6.396,6.432,6.432,6.432,6.432,6.432,6.396,6.396,6.225,6.032,5.763,5.389,0.0,0.0,0.0,4.312,4.28,4.264,4.233,4.203,4.203,4.188,4.188,4.173,4.158,4.128,4.128,4.114,4.085,4.085,4.085,4.07,4.085,4.085,4.114,4.114,4.128,4.173,4.173,4.218,4.249,4.264,4.28,4.28,4.312,4.328,4.344,4.393,4.426,4.477,4.53,4.583,4.601,4.657,4.694,4.713,4.732,4.732,4.732,4.713,0.0,0.0,0.0,0.0,0.0,0.0,0.0,0.0,0.0,0.0,1.311,1.307,1.302,1.296,1.293,1.289,1.289,1.288,1.286,1.283,1.285,1.285,1.285,1.285,1.285,1.286,0.0,0.0,0.0,0.0,0.0,0.0,0.0,0.0,0.0,1.193,1.1735,1.154,1.146,0.0,0.0,1.144,1.144,1.144,1.146,1.146,1.147,1.147,1.148,1.148,1.148,1.148,1.149,1.1484999999999999,0.0,0.0,0.0,0.0,0.0,0.0,0.0,0.0,0.0,0.0,0.0,0.0,0.0,0.0,0.0,0.0,0.0,0.0,0.0,0.0,0.0,0.0,0.0,0.0,0.0,0.0,0.401,0.401,0.401,0.401,0.4,0.401,0.4,0.4,0.4,0.399,0.399,0.398,0.398,0.397,0.397,0.396,0.394,0.394,0.394,0.394,0.393,0.393,0.393,0.393,0.393,0.393,0.393,0.393,0.393,0.393,0.393,0.393,0.393,0.393,0.393,0.393,0.393,0.394,0.394,0.394,0.394,0.394,0.394,0.394,0.394,0.394,0.394,0.394,0.394,0.394,0.395,0.395,0.395,0.395,0.395,0.396,0.396,0.396,0.396,0.396,0.397,0.397,0.397,0.397,0.397,0.3975000000000001,0.398,0.398,0.398,0.398,0.398,0.398,0.399,0.399,0.399,0.4,0.4,0.4,0.4,0.401,0.401,0.401,0.401,0.401,0.401,0.401,0.401,0.401,0.402,0.402,0.402,0.402,0.402,0.402,0.402,0.402,0.402,0.403,0.403,0.403,0.403,0.403,0.404,0.404,0.404,0.405,0.406,0.406,0.406,0.406,0.407,0.407,0.408,0.408,0.40875,0.409,0.41,0.41,0.411,0.412,0.414,0.416,0.4165,0.417,0.419,0.42,0.421,0.423,0.425,0.42474999999999996,0.426,0.426,0.427,0.428,0.427,0.428,0.429,0.43,0.43,0.43,0.431,0.431,0.431,0.432,0.433,0.434,0.435,0.436,0.436,0.437,0.438,0.439,0.44,0.441,0.442,0.443,0.444,0.446,0.446,0.447,0.4475,0.448,0.449,0.451,0.452,0.452,0.453,0.454,0.455,0.457,0.458,0.458,0.459,0.46,0.461,0.463,0.463,0.464,0.465,0.466,0.468,0.469,0.469,0.47,0.471,0.4715,0.472,0.474,0.475,0.475,0.476,0.476,0.477,0.478,0.479,0.48,0.481,0.482,0.483,0.484,0.485,0.486,0.487,0.488,0.488,0.489,0.489,0.489,0.0,0.0,0.0,0.0,0.0,0.0,0.0,0.0,0.0,0.0,0.0,0.0,0.0,0.0,0.0,0.0,0.0,0.0,0.0,0.0,0.0,0.0,0.0,0.0,0.0,0.0,0.0,0.0,0.0,0.0,0.0,0.0,0.0,0.659,0.0,0.0,0.657,0.656,0.656,0.656,0.656,0.657,0.657,0.658,0.65925,0.66,0.661,0.663,0.665,0.667
0.0,0.0,0.0,0.0,0.0,3.0275,3.0,2.993,2.993,2.977,2.97,2.955,2.947,2.947,2.947,2.955,2.962,2.962,2.97,2.97,2.977,2.993,3.0,3.016,3.016,3.024,3.039,3.047,3.055,3.072,3.08,3.096,3.104,3.113,3.121,3.129,3.138,3.146,3.155,3.155,3.163,3.163,3.163,3.163,3.172,3.181,3.189,3.198,3.225,3.243,3.298,3.384,3.444,3.485,3.582,3.6390000000000002,3.696,3.804,3.88,3.987,4.158,4.218,4.28,4.312,4.36,4.46,4.565,4.638,4.678,4.732,4.752,4.771,4.81,4.81,4.81,4.81,4.81,4.81,4.81,4.81,4.83,4.83,4.83,4.83,4.83,4.83,4.83,4.851,4.851,4.871,4.891,4.912,4.933,4.975,5.018,5.084,5.106,5.174,5.22,5.268,5.316,5.34,5.34,5.34,5.316,5.268,5.268,5.244,5.22,5.22,5.174,5.174,5.174,5.174,5.22,5.244,5.244,5.268,5.268,5.316,5.316,5.34,5.389,5.389,5.415,5.44,5.465,5.517,5.543,5.57,5.57,5.597,5.597,5.624,5.624,5.651,5.651,5.651,5.651,5.651,5.651,5.624,5.597,5.597,5.597,5.57,5.57,5.57,5.543,5.543,5.543,5.543,5.57,5.57,5.57,5.597,5.597,5.651,5.679,5.735,5.821,5.909,6.032,6.127,6.259,6.327,6.361,6.361,6.361,6.361,6.327,6.225,6.159,5.939,5.735,5.34,4.954,4.665,4.376,4.312,4.28,4.264,4.249,4.218,4.203,4.203,4.188,4.173,4.158,4.158,4.128,4.114,4.114,4.085,4.085,4.085,4.07,4.07,4.07,4.085,4.114,4.128,4.158,4.188,4.203,4.233,4.264,4.28,4.296,4.312,4.328,4.376,4.426,4.477,4.565,4.601,4.638,4.694,4.713,4.752,4.771,4.791,4.791,4.771,4.771,0.0,0.0,0.0,0.0,0.0,0.0,0.0,0.0,0.0,0.0,1.311,1.307,1.302,1.301,1.301,1.293,1.292,1.289,1.288,1.288,1.288,1.288,1.286,1.286,1.286,1.288,0.0,0.0,0.0,0.0,0.0,0.0,0.0,0.0,0.0,0.0,0.0,1.1555,1.1484999999999999,0.0,0.0,1.1429999999999998,1.1429999999999998,1.144,1.144,1.144,1.1435,1.1435,1.143875,1.144,1.146,1.147,1.147,1.147,0.0,0.0,0.0,0.0,0.0,0.0,0.0,0.0,0.0,0.0,0.0,0.0,0.0,0.0,0.0,0.0,0.0,0.0,0.0,0.0,0.0,0.0,0.0,0.0,0.399,0.4,0.4,0.4,0.4,0.4,0.4,0.4,0.4,0.4,0.399,0.399,0.398,0.398,0.397,0.396,0.396,0.394,0.394,0.394,0.393,0.393,0.393,0.393,0.393,0.392,0.392,0.392,0.392,0.392,0.392,0.393,0.393,0.393,0.393,0.393,0.393,0.393,0.393,0.393,0.393,0.393,0.394,0.394,0.394,0.394,0.394,0.394,0.394,0.394,0.394,0.394,0.394,0.394,0.394,0.394,0.394,0.395,0.395,0.395,0.395,0.395,0.396,0.396,0.396,0.397,0.397,0.397,0.397,0.397,0.397,0.3975000000000001,0.398,0.398,0.398,0.398,0.398,0.399,0.399,0.399,0.399,0.4,0.4,0.4,0.4,0.4,0.4,0.4,0.401,0.401,0.401,0.401,0.401,0.402,0.402,0.402,0.402,0.402,0.402,0.402,0.402,0.402,0.402,0.403,0.403,0.403,0.403,0.404,0.405,0.405,0.406,0.406,0.406,0.407,0.407,0.407,0.408,0.4085,0.409,0.41,0.411,0.411,0.412,0.414,0.416,0.41625,0.417,0.418,0.42,0.421,0.421,0.422,0.424,0.425,0.425,0.426,0.426,0.427,0.428,0.429,0.429,0.43,0.43,0.43,0.431,0.431,0.432,0.433,0.435,0.435,0.436,0.436,0.437,0.438,0.439,0.44,0.441,0.442,0.443,0.445,0.446,0.447,0.447,0.4475,0.448,0.45,0.451,0.452,0.452,0.453,0.455,0.457,0.457,0.458,0.4585,0.459,0.461,0.462,0.463,0.464,0.465,0.466,0.467,0.468,0.469,0.47,0.471,0.4715,0.472,0.474,0.475,0.475,0.476,0.476,0.477,0.478,0.479,0.48,0.481,0.482,0.483,0.484,0.485,0.486,0.487,0.488,0.488,0.488,0.489,0.489,0.489,0.0,0.0,0.0,0.0,0.0,0.0,0.0,0.0,0.0,0.0,0.0,0.0,0.0,0.0,0.0,0.0,0.0,0.0,0.0,0.695,0.695,0.6905,0.686,0.679,0.679,0.678,0.673,0.0,0.0,0.0,0.0,0.0,0.658,0.657,0.657,0.655,0.656,0.655,0.655,0.655,0.656,0.656,0.657,0.658,0.659,0.66,0.661,0.663,0.665
0.0,0.0,0.0,0.0,0.0,3.039,3.016,3.0,3.0,2.993,2.977,2.962,2.955,2.947,2.955,2.962,2.962,2.962,2.97,2.977,2.977,2.993,2.993,3.0,3.016,3.024,3.039,3.039,3.055,3.055,3.08,3.096,3.104,3.113,3.121,3.138,3.146,3.146,3.155,3.155,3.155,3.163,3.163,3.163,3.172,3.172,3.181,3.198,3.216,3.261,3.326,3.414,3.465,3.538,3.672,3.7237500000000003,3.804,3.88,4.028,4.173,4.264,4.296,4.328,4.393,4.426,4.512,4.583,4.638,4.657,4.694,4.713,4.713,4.732,4.732,4.752,4.752,4.752,4.752,4.752,4.752,4.752,4.771,4.771,4.771,4.791,4.791,4.81,4.81,4.83,4.851,4.851,4.891,4.912,4.975,5.018,5.084,5.151,5.22,5.268,5.34,5.34,5.389,5.389,5.389,5.389,5.34,5.316,5.268,5.244,5.22,5.22,5.22,5.244,5.244,5.244,5.244,5.268,5.268,5.316,5.316,5.34,5.34,5.389,5.415,5.415,5.44,5.465,5.517,5.543,5.57,5.57,5.597,5.597,5.651,5.651,5.651,5.651,5.651,5.651,5.651,5.651,5.651,5.651,5.597,5.597,5.597,5.57,5.57,5.57,5.57,5.57,5.57,5.57,5.57,5.597,5.597,5.597,5.651,5.679,5.735,5.821,5.909,6.001,6.095,6.159,6.225,6.259,6.259,6.259,6.225,6.159,6.095,5.939,5.735,5.597,5.415,4.8725000000000005,4.5988750000000005,4.328,4.28,4.264,4.249,4.233,4.218,4.218,4.203,4.188,4.173,4.158,4.128,4.114,4.114,4.085,4.085,4.085,4.085,4.07,4.07,4.07,4.085,4.114,4.128,4.173,4.188,4.218,4.249,4.264,4.28,4.312,4.328,4.36,4.41,4.512,4.583,4.657,4.713,4.732,4.771,4.771,4.791,4.81,4.81,4.81,4.81,4.805249999999999,4.81,0.0,0.0,0.0,0.0,0.0,0.0,0.0,0.0,0.0,0.0,1.307,1.304,1.302,1.301,1.301,1.296,1.293,1.293,1.292,1.292,1.292,1.292,1.292,1.288,1.288,1.289,0.0,0.0,0.0,0.0,0.0,0.0,0.0,0.0,0.0,0.0,1.157,1.151,1.148,1.146,1.142,1.142,1.144,1.142,1.142,1.14,1.14,1.14,1.142,1.142,1.144,1.144,1.144,0.0,0.0,0.0,0.0,0.0,0.0,0.0,0.0,0.0,0.0,0.0,0.0,0.0,0.0,0.0,0.0,0.0,0.0,0.0,0.0,0.0,0.0,0.0,0.0,0.0,0.399,0.399,0.399,0.4,0.4,0.4,0.4,0.399,0.399,0.399,0.398,0.398,0.397,0.396,0.395,0.394,0.394,0.394,0.393,0.393,0.393,0.393,0.392,0.392,0.392,0.392,0.392,0.392,0.392,0.392,0.392,0.392,0.392,0.392,0.392,0.393,0.393,0.393,0.393,0.393,0.393,0.393,0.393,0.393,0.394,0.393,0.393,0.393,0.394,0.394,0.394,0.394,0.394,0.394,0.394,0.394,0.394,0.394,0.394,0.394,0.394,0.394,0.395,0.395,0.396,0.396,0.396,0.397,0.397,0.397,0.397,0.397,0.3975000000000001,0.398,0.398,0.398,0.398,0.3985,0.399,0.399,0.399,0.399,0.399,0.4,0.4,0.4,0.4,0.4,0.4,0.4,0.401,0.401,0.401,0.401,0.401,0.402,0.402,0.402,0.402,0.402,0.402,0.402,0.402,0.402,0.402,0.403,0.403,0.404,0.404,0.405,0.405,0.406,0.406,0.407,0.407,0.407,0.408,0.40825,0.409,0.41,0.411,0.411,0.413,0.413,0.415,0.416,0.417,0.418,0.418,0.42,0.421,0.422,0.424,0.425,0.425,0.426,0.4265,0.427,0.427,0.428,0.429,0.43,0.43,0.43,0.431,0.431,0.432,0.434,0.435,0.436,0.436,0.4365,0.437,0.439,0.44,0.441,0.441,0.442,0.444,0.446,0.446,0.447,0.447375,0.448,0.449,0.451,0.452,0.452,0.453,0.454,0.456,0.457,0.458,0.4585,0.459,0.46,0.462,0.463,0.464,0.464,0.465,0.467,0.468,0.469,0.47,0.471,0.4715,0.472,0.474,0.475,0.475,0.476,0.476,0.477,0.478,0.479,0.481,0.481,0.482,0.482,0.483,0.485,0.4855,0.486,0.487,0.488,0.488,0.488,0.489,0.489,0.489,0.489,0.0,0.0,0.0,0.0,0.0,0.0,0.0,0.0,0.0,0.0,0.0,0.0,0.0,0.0,0.0,0.0,0.0,0.68,0.681,0.681625,0.678,0.676,0.674,0.673,0.669,0.0,0.0,0.663,0.66,0.658,0.657,0.656,0.656,0.655,0.655,0.655,0.655,0.655,0.655,0.655,0.656,0.657,0.658,0.659,0.66,0.6607500000000001,0.662
0.0,0.0,0.0,0.0,0.0,0.0,3.024,3.016,3.016,2.993,2.993,2.97,2.962,2.955,2.955,2.962,2.962,2.97,2.97,2.977,2.977,2.993,2.993,3.0,3.016,3.016,3.039,3.039,3.055,3.055,3.072,3.096,3.104,3.113,3.129,3.138,3.146,3.146,3.155,3.155,3.155,3.155,3.163,3.163,3.163,3.172,3.181,3.189,3.225,3.27,3.365,3.444,3.496,3.627,3.6965,3.78,3.855,3.987,4.158,4.249,4.28,4.312,4.328,4.376,4.41,4.426,4.477,4.512,4.565,4.583,4.583,4.601,4.638,4.638,4.638,4.657,4.657,4.657,4.657,4.657,4.657,4.694,4.694,4.713,4.713,4.732,4.752,4.791,4.81,4.83,4.851,4.891,4.912,4.975,5.018,5.106,5.22,5.244,5.316,5.415,5.44,5.44,5.44,5.44,5.44,5.415,5.389,5.389,5.316,5.316,5.268,5.268,5.268,5.268,5.268,5.316,5.316,5.34,5.316,5.34,5.389,5.389,5.389,5.415,5.415,5.44,5.465,5.491,5.517,5.543,5.57,5.57,5.597,5.624,5.651,5.651,5.651,5.651,5.679,5.679,5.651,5.651,5.651,5.624,5.597,5.597,5.597,5.57,5.57,5.57,5.57,5.57,5.57,5.57,5.597,5.597,5.624,5.651,5.679,5.707,5.792,5.85,5.909,6.001,6.095,6.127,6.127,6.159,6.127,6.127,6.032,5.939,5.792,5.651,0.0,0.0,4.791,4.53,4.312,4.28,4.264,4.249,4.249,4.233,4.218,4.203,4.188,4.173,4.158,4.128,4.114,4.114,4.085,4.085,4.07,4.07,4.07,4.07,4.085,4.114,4.128,4.158,4.188,4.203,4.233,4.264,4.28,4.312,4.344,4.393,4.46,4.53,4.638,4.713,4.752,4.791,4.81,4.81,4.83,4.83,4.83,4.83,4.83,4.83,4.83,4.83,4.83,0.0,0.0,0.0,0.0,0.0,0.0,0.0,0.0,0.0,1.308,1.307,1.307,1.304,1.302,1.302,1.298,1.296,1.293,1.296,1.293,1.292,1.293,1.293,1.292,1.293,0.0,0.0,0.0,0.0,0.0,0.0,1.206,1.1995,1.193,1.179,1.165,1.157,1.15275,1.15,1.147,1.144,1.144,1.142,1.14,1.139,1.138,1.138,1.138,1.138,1.139,1.14,1.14,0.0,0.0,0.0,0.0,0.0,0.0,0.0,0.0,0.0,0.0,0.0,0.0,0.0,0.0,0.0,0.0,0.0,0.0,0.0,0.0,0.0,0.0,0.0,0.0,0.0,0.398,0.398,0.399,0.399,0.399,0.399,0.399,0.399,0.399,0.398,0.398,0.397,0.396,0.395,0.394,0.394,0.393,0.393,0.393,0.392,0.392,0.392,0.391,0.391,0.391,0.391,0.391,0.391,0.391,0.391,0.392,0.392,0.392,0.392,0.392,0.392,0.392,0.392,0.392,0.393,0.393,0.393,0.393,0.393,0.393,0.393,0.393,0.393,0.393,0.393,0.393,0.393,0.393,0.393,0.393,0.393,0.393,0.394,0.394,0.394,0.394,0.394,0.394,0.394,0.395,0.395,0.396,0.396,0.396,0.396,0.397,0.397,0.397,0.397,0.3975000000000001,0.398,0.398,0.398,0.398,0.398,0.3985,0.399,0.399,0.399,0.399,0.399,0.399,0.399,0.399,0.4,0.4,0.4,0.4,0.401,0.401,0.401,0.402,0.402,0.402,0.402,0.402,0.402,0.402,0.402,0.402,0.402,0.402,0.403,0.403,0.404,0.405,0.405,0.406,0.406,0.407,0.407,0.407,0.407,0.408,0.409,0.409,0.41,0.411,0.411,0.413,0.414,0.416,0.417,0.41724999999999995,0.418,0.42,0.421,0.422,0.423,0.425,0.425,0.426,0.426,0.4265,0.427,0.428,0.429,0.43,0.43,0.43,0.431,0.431,0.432,0.434,0.435,0.436,0.436,0.437,0.438,0.439,0.441,0.441,0.442,0.443,0.445,0.446,0.446,0.447,0.4475,0.448,0.45,0.451,0.452,0.453,0.454,0.456,0.457,0.458,0.45837500000000003,0.459,0.46,0.462,0.463,0.463,0.464,0.465,0.467,0.468,0.469,0.47,0.471,0.4715,0.472,0.474,0.475,0.475,0.476,0.477,0.477,0.479,0.48,0.481,0.481,0.482,0.483,0.483,0.485,0.4855,0.486,0.487,0.487,0.488,0.488,0.488,0.489,0.489,0.489,0.0,0.0,0.0,0.0,0.0,0.0,0.0,0.0,0.0,0.0,0.0,0.0,0.0,0.0,0.0,0.0,0.0,0.675,0.678,0.677,0.675,0.674,0.672,0.669,0.668,0.666,0.664,0.661,0.658,0.657,0.656,0.655,0.655,0.655,0.654,0.655,0.654,0.654,0.655,0.655,0.655,0.655,0.656,0.657,0.657,0.658,0.658
0.0,0.0,0.0,0.0,0.0,0.0,3.039,3.024,3.016,3.0,3.0,2.977,2.962,2.955,2.962,2.962,2.962,2.97,2.97,2.977,2.993,2.993,2.993,3.0,3.016,3.016,3.039,3.039,3.055,3.072,3.08,3.096,3.104,3.121,3.129,3.138,3.146,3.146,3.155,3.155,3.155,3.155,3.163,3.163,3.163,3.172,3.181,3.189,3.216,3.298,3.394,3.465,3.549,3.628,3.707,3.829,3.92,4.114,4.249,4.28,4.296,4.312,4.328,4.328,4.344,4.36,4.393,4.393,4.426,4.46,4.477,4.512,4.512,4.53,4.565,4.565,4.565,4.565,4.565,4.565,4.583,4.601,4.601,4.638,4.657,4.694,4.713,4.752,4.791,4.81,4.83,4.851,4.912,4.954,5.018,5.106,5.22,5.268,5.34,5.44,5.465,5.465,5.465,5.465,5.465,5.465,5.44,5.415,5.415,5.389,5.34,5.34,5.34,5.34,5.34,5.34,5.389,5.389,5.389,5.389,5.415,5.389,5.415,5.415,5.44,5.44,5.44,5.465,5.491,5.517,5.543,5.57,5.57,5.597,5.624,5.651,5.651,5.651,5.651,5.651,5.651,5.651,5.651,5.624,5.597,5.597,5.597,5.57,5.57,5.57,5.57,5.57,5.57,5.57,5.597,5.597,5.624,5.651,5.651,5.679,5.735,5.792,5.85,5.909,6.001,6.001,6.032,6.001,6.001,5.939,5.909,5.792,5.679,5.597,0.0,0.0,4.771,4.53,4.328,4.296,4.28,4.264,4.249,4.249,4.218,4.203,4.188,4.173,4.158,4.128,4.114,4.085,4.085,4.07,4.07,4.07,4.07,4.085,4.085,4.114,4.158,4.173,4.203,4.233,4.264,4.28,4.312,4.344,4.393,4.46,4.565,4.657,4.752,4.791,4.83,4.83,4.851,4.851,4.871,4.871,4.851,4.851,4.851,4.851,4.851,4.851,4.851,0.0,0.0,0.0,0.0,0.0,0.0,0.0,0.0,0.0,1.312,1.308,1.308,1.308,1.308,1.307,1.304,1.302,1.298,1.298,1.298,1.296,1.293,1.293,1.293,1.293,0.0,0.0,0.0,0.0,0.0,1.206,1.206,1.20175,1.197875,1.194,1.1785,1.1672500000000001,1.156,1.154,1.149,1.144,1.144,1.14,1.139,1.138,1.136,1.135,1.132,1.132,1.135,1.135,0.0,0.0,0.0,0.0,0.0,0.0,0.0,0.0,0.0,0.0,0.0,0.0,0.0,0.0,0.0,0.0,0.0,0.0,0.0,0.0,0.0,0.0,0.0,0.0,0.398,0.398,0.398,0.398,0.398,0.399,0.398,0.398,0.398,0.398,0.398,0.398,0.397,0.397,0.395,0.394,0.393,0.393,0.393,0.392,0.392,0.391,0.391,0.39,0.39,0.39,0.39,0.39,0.39,0.39,0.39,0.39,0.39,0.391,0.391,0.391,0.391,0.391,0.391,0.392,0.392,0.392,0.392,0.393,0.393,0.393,0.393,0.393,0.393,0.393,0.393,0.393,0.393,0.393,0.393,0.393,0.393,0.393,0.393,0.393,0.393,0.393,0.394,0.393,0.394,0.394,0.394,0.394,0.394,0.395,0.395,0.396,0.396,0.397,0.397,0.397,0.397,0.397,0.397,0.398,0.398,0.398,0.398,0.398,0.398,0.398,0.398,0.398,0.3985,0.399,0.399,0.399,0.399,0.399,0.4,0.4,0.4,0.401,0.401,0.401,0.401,0.401,0.401,0.402,0.402,0.402,0.402,0.402,0.402,0.402,0.403,0.403,0.404,0.404,0.405,0.405,0.406,0.406,0.406,0.407,0.407,0.408,0.4085,0.409,0.41,0.411,0.411,0.413,0.414,0.416,0.416,0.417,0.418,0.42,0.421,0.421,0.423,0.424,0.425,0.426,0.426,0.4265,0.427,0.428,0.429,0.43,0.43,0.431,0.431,0.432,0.433,0.434,0.435,0.436,0.437,0.4375,0.438,0.44,0.441,0.441,0.442,0.444,0.445,0.446,0.447,0.447375,0.448,0.449,0.451,0.452,0.452,0.454,0.456,0.457,0.458,0.458,0.459,0.46,0.461,0.463,0.463,0.464,0.465,0.467,0.468,0.469,0.47,0.471,0.47187499999999993,0.473,0.474,0.475,0.476,0.476,0.477,0.478,0.479,0.48,0.481,0.482,0.482,0.483,0.484,0.485,0.4855,0.486,0.487,0.487,0.488,0.488,0.489,0.489,0.489,0.489,0.489,0.0,0.0,0.0,0.0,0.0,0.0,0.0,0.0,0.0,0.0,0.0,0.0,0.0,0.0,0.0,0.0,0.0,0.674,0.674,0.674,0.674,0.671,0.669,0.667,0.666,0.662,0.659,0.657,0.656,0.655,0.655,0.655,0.654,0.654,0.654,0.653,0.653,0.653,0.653,0.653,0.652,0.653,0.651,0.651,0.65,0.649
0.0,0.0,0.0,0.0,0.0,0.0,3.047,3.024,3.024,3.016,3.0,2.993,2.97,2.962,2.97,2.97,2.97,2.977,2.977,2.977,2.993,2.993,2.993,3.0,3.016,3.016,3.039,3.039,3.055,3.072,3.08,3.096,3.113,3.121,3.129,3.138,3.146,3.146,3.155,3.155,3.155,3.155,3.155,3.163,3.163,3.163,3.181,3.189,3.225,3.317,3.424,3.485,3.615,3.6679999999999997,3.78,3.855,4.014,4.188,4.264,4.28,4.296,4.312,4.312,4.312,4.312,4.312,4.328,4.328,4.344,4.36,4.393,4.393,4.41,4.426,4.426,4.46,4.46,4.46,4.477,4.477,4.512,4.512,4.53,4.565,4.583,4.601,4.657,4.694,4.732,4.771,4.81,4.83,4.891,4.933,4.996,5.106,5.22,5.268,5.389,5.44,5.491,5.491,5.491,5.517,5.517,5.491,5.491,5.465,5.44,5.44,5.415,5.415,5.415,5.415,5.389,5.415,5.415,5.415,5.415,5.415,5.415,5.415,5.415,5.415,5.415,5.415,5.44,5.44,5.44,5.491,5.517,5.543,5.543,5.57,5.597,5.597,5.624,5.624,5.651,5.651,5.651,5.651,5.651,5.597,5.597,5.597,5.597,5.597,5.57,5.57,5.57,5.57,5.57,5.57,5.597,5.597,5.597,5.624,5.651,5.679,5.707,5.763,5.792,5.821,5.85,5.909,5.85,5.909,5.821,5.792,5.763,5.679,5.624,5.517,5.04,4.891,4.771,4.565,4.344,4.328,4.296,4.28,4.264,4.249,4.233,4.218,4.203,4.188,4.158,4.128,4.114,4.114,4.085,4.07,4.07,4.07,4.07,4.085,4.114,4.128,4.173,4.188,4.233,4.249,4.28,4.312,4.344,4.41,4.477,4.565,4.657,4.752,4.81,4.825749999999999,4.851,4.871,4.891,4.891,4.912,4.912,4.891,4.891,4.891,4.871,4.871,4.871,4.871,0.0,0.0,0.0,0.0,0.0,0.0,0.0,0.0,0.0,1.314,1.312,1.312,1.311,1.311,1.308,1.307,1.304,1.302,1.298,1.298,1.296,1.292,1.292,1.289,1.288,0.0,0.0,0.0,1.231,1.22,1.2145000000000001,1.210875,1.204,1.2019375,1.197234375,1.192,0.0,0.0,1.156,1.153,1.148,1.144,1.14,1.139,1.136,1.135,1.131,1.129,1.128,0.0,0.0,0.0,0.0,0.0,0.0,0.0,0.0,0.0,0.0,0.0,0.0,0.0,0.0,0.0,0.0,0.0,0.0,0.0,0.0,0.0,0.0,0.0,0.0,0.0,0.397,0.397,0.397,0.397,0.398,0.398,0.398,0.398,0.398,0.398,0.398,0.397,0.396,0.395,0.394,0.393,0.393,0.392,0.392,0.391,0.391,0.39,0.389,0.389,0.389,0.389,0.389,0.389,0.389,0.389,0.389,0.389,0.389,0.389,0.38975000000000004,0.39,0.39,0.39,0.39,0.391,0.391,0.391,0.392,0.392,0.392,0.392,0.392,0.392,0.393,0.392,0.392,0.392,0.393,0.393,0.393,0.393,0.393,0.393,0.393,0.393,0.393,0.393,0.393,0.393,0.393,0.393,0.394,0.394,0.394,0.394,0.394,0.394,0.395,0.395,0.396,0.396,0.396,0.397,0.397,0.397,0.397,0.397,0.397,0.398,0.398,0.398,0.398,0.398,0.398,0.398,0.398,0.3985,0.399,0.399,0.399,0.399,0.39949999999999997,0.4,0.4,0.4,0.401,0.401,0.401,0.401,0.401,0.401,0.401,0.401,0.402,0.402,0.402,0.402,0.402,0.403,0.403,0.404,0.405,0.405,0.406,0.406,0.406,0.407,0.407,0.408,0.409,0.4095,0.41,0.411,0.411,0.412,0.414,0.416,0.416,0.417,0.418,0.42,0.42,0.421,0.423,0.424,0.425,0.425,0.426,0.4265,0.427,0.428,0.429,0.43,0.43,0.431,0.431,0.432,0.433,0.435,0.435,0.436,0.437,0.438,0.439,0.44,0.441,0.441,0.443,0.444,0.446,0.446,0.447,0.448,0.449,0.451,0.452,0.452,0.454,0.456,0.457,0.458,0.458,0.459,0.46,0.461,0.462,0.463,0.464,0.465,0.467,0.469,0.47,0.47,0.471,0.472,0.473,0.475,0.475,0.476,0.476,0.477,0.479,0.48,0.481,0.482,0.482,0.482,0.483,0.484,0.485,0.4855,0.486,0.487,0.487,0.488,0.488,0.489,0.489,0.489,0.489,0.489,0.49,0.0,0.0,0.0,0.0,0.0,0.0,0.0,0.0,0.0,0.0,0.0,0.0,0.0,0.0,0.0,0.0,0.674,0.674,0.673,0.673,0.671,0.668,0.667,0.665,0.662,0.658,0.657,0.655,0.655,0.654,0.654,0.653,0.653,0.652,0.651,0.649,0.648,0.647,0.645,0.645,0.644,0.643,0.64,0.638,0.635
0.0,0.0,0.0,0.0,0.0,0.0,3.055,3.039,3.039,3.024,3.016,3.0,2.977,2.97,2.977,2.97,2.97,2.977,2.977,2.977,2.993,2.993,2.993,3.0,3.016,3.016,3.039,3.039,3.055,3.072,3.08,3.104,3.113,3.121,3.129,3.138,3.146,3.146,3.155,3.155,3.155,3.155,3.163,3.163,3.163,3.163,3.181,3.189,3.225,3.326,3.434,3.496,3.59675,3.649,3.792,3.868,4.028,4.203,4.264,4.264,4.264,4.28,4.28,4.296,4.296,4.296,4.312,4.312,4.328,4.328,4.36,4.36,4.376,4.393,4.41,4.41,4.426,4.426,4.426,4.46,4.46,4.477,4.512,4.53,4.565,4.583,4.601,4.657,4.713,4.752,4.791,4.83,4.871,4.912,4.996,5.084,5.174,5.268,5.34,5.44,5.491,5.517,5.517,5.543,5.543,5.543,5.543,5.517,5.491,5.491,5.491,5.465,5.465,5.465,5.44,5.465,5.465,5.465,5.44,5.44,5.44,5.44,5.44,5.415,5.415,5.415,5.389,5.389,5.389,5.44,5.44,5.465,5.491,5.517,5.543,5.57,5.597,5.597,5.597,5.597,5.597,5.597,5.597,5.597,5.597,5.57,5.57,5.57,5.57,5.57,5.57,5.57,5.57,5.57,5.597,5.597,5.597,5.624,5.651,5.651,5.679,5.707,5.735,5.735,5.763,5.763,5.763,5.763,5.735,5.707,5.679,5.651,5.57,5.22,4.975,4.871,4.771,4.583,4.477,4.344,4.328,4.312,4.28,4.264,4.249,4.233,4.203,4.188,4.173,4.158,4.128,4.114,4.085,4.085,4.07,4.085,4.085,4.114,4.128,4.158,4.188,4.218,4.249,4.264,4.296,4.328,4.393,4.477,4.565,4.657,4.752,4.81,4.8305,4.851,4.891,4.912,4.933,4.954,4.975,4.975,4.954,4.954,4.912,4.912,4.891,4.891,4.891,4.891,0.0,0.0,0.0,0.0,0.0,0.0,0.0,0.0,0.0,1.315,1.314,1.314,1.314,1.312,1.312,1.311,1.307,1.304,1.302,1.296,1.293,1.292,1.289,1.286,1.281,0.0,0.0,0.0,1.2235,1.223,1.219,1.215,1.206,1.201,1.1955,0.0,0.0,1.158,1.154,1.15,1.146,1.14,1.139,1.138,1.135,1.131,0.0,0.0,0.0,0.0,0.0,0.0,0.0,0.0,0.0,0.0,0.0,0.0,0.0,0.0,0.0,0.0,0.0,0.0,0.0,0.0,0.0,0.0,0.0,0.0,0.0,0.0,0.0,0.396,0.397,0.397,0.397,0.397,0.397,0.397,0.397,0.397,0.397,0.397,0.396,0.394,0.394,0.393,0.392,0.391,0.389,0.389,0.389,0.389,0.389,0.389,0.388,0.388,0.388,0.388,0.388,0.388,0.388,0.388,0.389,0.389,0.389,0.389,0.389,0.389,0.38950000000000007,0.39,0.39,0.39,0.391,0.391,0.391,0.391,0.391,0.392,0.392,0.392,0.392,0.392,0.392,0.392,0.392,0.392,0.392,0.392,0.392,0.392,0.392,0.393,0.393,0.393,0.393,0.393,0.393,0.393,0.393,0.394,0.394,0.394,0.394,0.394,0.394,0.395,0.395,0.395,0.396,0.396,0.397,0.397,0.397,0.397,0.397,0.397,0.397,0.398,0.398,0.398,0.398,0.398,0.398,0.398,0.3985,0.399,0.399,0.399,0.39949999999999997,0.4,0.4,0.4,0.4,0.4,0.4,0.401,0.401,0.4,0.401,0.401,0.401,0.402,0.402,0.402,0.402,0.403,0.403,0.404,0.404,0.405,0.406,0.406,0.406,0.407,0.407,0.408,0.409,0.4095,0.41,0.411,0.411,0.413,0.415,0.416,0.416,0.417,0.418,0.419,0.42,0.421,0.422,0.424,0.425,0.425,0.426,0.427,0.4275,0.428,0.429,0.43,0.43,0.431,0.431,0.432,0.434,0.435,0.436,0.436,0.43724999999999997,0.438,0.44,0.441,0.441,0.442,0.443,0.445,0.446,0.447,0.4475,0.448,0.451,0.452,0.452,0.454,0.456,0.457,0.458,0.458,0.459,0.4595,0.46,0.462,0.463,0.464,0.465,0.467,0.469,0.47,0.4705,0.471,0.473,0.474,0.475,0.476,0.476,0.477,0.478,0.48,0.481,0.481,0.482,0.482,0.483,0.483,0.485,0.485,0.48562500000000003,0.486,0.487,0.487,0.488,0.488,0.488,0.489,0.489,0.489,0.489,0.49,0.0,0.0,0.0,0.0,0.0,0.0,0.0,0.0,0.0,0.0,0.0,0.0,0.0,0.0,0.0,0.0,0.672,0.672,0.671,0.671,0.669,0.668,0.666,0.664,0.661,0.658,0.657,0.655,0.655,0.654,0.653,0.653,0.652,0.65,0.649,0.648,0.646,0.645,0.644,0.639,0.636,0.633,0.631,0.627,0.624
0.0,0.0,0.0,0.0,0.0,0.0,3.055,3.047,3.039,3.039,3.024,3.016,2.993,2.977,2.977,2.977,2.977,2.977,2.977,2.977,2.993,2.993,3.0,3.0,3.016,3.024,3.039,3.047,3.055,3.072,3.08,3.104,3.113,3.121,3.129,3.138,3.146,3.146,3.155,3.155,3.155,3.155,3.155,3.163,3.163,3.163,3.181,3.189,3.225,3.326,3.444,3.496,3.627,3.7095,3.792,3.868,3.987,4.158,4.218,4.249,4.249,4.249,4.264,4.264,4.28,4.28,4.296,4.312,4.312,4.328,4.328,4.344,4.36,4.376,4.376,4.393,4.41,4.41,4.426,4.426,4.46,4.46,4.477,4.512,4.53,4.565,4.565,4.601,4.657,4.713,4.752,4.81,4.851,4.891,4.933,5.04,5.151,5.244,5.34,5.415,5.491,5.517,5.543,5.543,5.543,5.543,5.543,5.543,5.543,5.543,5.543,5.517,5.517,5.517,5.491,5.491,5.491,5.491,5.491,5.465,5.465,5.44,5.44,5.44,5.415,5.389,5.34,5.389,5.389,5.389,5.415,5.44,5.465,5.491,5.543,5.543,5.543,5.543,5.57,5.57,5.57,5.57,5.57,5.57,5.57,5.57,5.57,5.57,5.57,5.57,5.57,5.57,5.57,5.57,5.597,5.597,5.597,5.597,5.624,5.651,5.651,5.679,5.679,5.679,5.679,5.679,5.679,5.679,5.679,5.651,5.624,5.57,5.517,5.151,4.954,4.871,4.81,4.657,4.583,4.477,4.376,4.344,4.312,4.28,4.264,4.249,4.218,4.203,4.188,4.173,4.158,4.114,4.114,4.085,4.085,4.085,4.114,4.114,4.158,4.173,4.203,4.249,4.264,4.28,4.328,4.376,4.46,4.53,4.638,4.732,4.771249999999999,4.81,4.851,4.891,4.933,4.975,5.018,5.04,5.04,5.04,5.018,4.996,4.975,4.912,4.891,4.891,4.891,4.891,0.0,0.0,0.0,0.0,0.0,0.0,0.0,0.0,0.0,1.317,1.317,1.317,1.315,1.315,1.315,1.312,1.311,1.308,1.307,1.304,1.298,1.296,1.293,1.289,1.281,0.0,0.0,0.0,1.227,1.223,1.219,1.216,1.215,1.214,1.199,1.194,1.1789999999999998,1.164,1.157,1.154,1.149,1.144,1.14,1.139,1.136,0.0,0.0,0.0,0.0,0.0,0.0,0.0,0.0,0.0,0.0,0.0,0.0,0.0,0.0,0.0,0.0,0.0,0.0,0.0,0.0,0.0,0.0,0.0,0.0,0.0,0.0,0.0,0.0,0.396,0.396,0.397,0.397,0.397,0.397,0.397,0.397,0.396,0.396,0.394,0.394,0.393,0.392,0.391,0.389,0.389,0.388,0.388,0.388,0.387,0.387,0.387,0.386,0.386,0.3865,0.386375,0.386,0.386,0.387,0.387,0.388,0.388,0.388,0.389,0.389,0.389,0.389,0.389,0.38950000000000007,0.39,0.39,0.39,0.391,0.391,0.391,0.391,0.391,0.391,0.391,0.391,0.391,0.391,0.392,0.392,0.392,0.392,0.392,0.392,0.392,0.392,0.392,0.392,0.393,0.393,0.393,0.393,0.393,0.393,0.393,0.393,0.394,0.394,0.394,0.394,0.394,0.395,0.395,0.395,0.396,0.396,0.397,0.397,0.397,0.397,0.397,0.397,0.397,0.398,0.398,0.398,0.398,0.398,0.398,0.398,0.399,0.399,0.399,0.399,0.399,0.399,0.399,0.399,0.4,0.4,0.4,0.4,0.4005,0.401,0.401,0.401,0.402,0.402,0.402,0.402,0.403,0.403,0.404,0.404,0.405,0.406,0.406,0.406,0.407,0.408,0.409,0.4095,0.41,0.411,0.411,0.412,0.414,0.415,0.416,0.416,0.41724999999999995,0.418,0.42,0.421,0.421,0.423,0.424,0.425,0.426,0.426,0.427,0.4275,0.428,0.429,0.43,0.431,0.431,0.432,0.433,0.435,0.436,0.436,0.437,0.438,0.439,0.44,0.441,0.442,0.443,0.445,0.446,0.447,0.4475,0.448,0.45,0.452,0.452,0.453,0.455,0.457,0.457,0.458,0.458,0.459,0.46,0.462,0.463,0.464,0.466,0.468,0.469,0.47,0.470875,0.472,0.474,0.475,0.475,0.476,0.477,0.478,0.479,0.48,0.481,0.482,0.482,0.483,0.483,0.484,0.485,0.4855,0.486,0.486,0.487,0.487,0.488,0.488,0.488,0.489,0.489,0.489,0.489,0.49,0.0,0.0,0.0,0.0,0.0,0.0,0.0,0.0,0.0,0.0,0.0,0.0,0.0,0.0,0.0,0.0,0.671,0.671,0.67,0.669,0.668,0.667,0.665,0.662,0.659,0.657,0.656,0.655,0.654,0.653,0.653,0.651,0.651,0.65,0.648,0.647,0.645,0.644,0.635,0.633,0.623,0.622,0.621,0.619,0.617
0.0,0.0,0.0,0.0,0.0,0.0,0.0,3.055,3.055,3.047,3.039,3.024,2.993,2.993,2.993,2.977,2.977,2.977,2.977,2.993,2.993,2.993,3.0,3.016,3.016,3.024,3.039,3.047,3.055,3.072,3.096,3.104,3.113,3.129,3.138,3.138,3.146,3.146,3.155,3.155,3.155,3.155,3.155,3.163,3.163,3.163,3.181,3.189,3.225,3.326,3.444,3.496,3.627,3.697,3.767,3.855,3.946,4.085,4.173,4.188,4.203,4.218,4.233,4.249,4.264,4.264,4.28,4.296,4.312,4.328,4.328,4.328,4.344,4.36,4.36,4.376,4.393,4.41,4.41,4.426,4.426,4.46,4.477,4.512,4.512,4.53,4.565,4.583,4.638,4.657,4.713,4.771,4.83,4.871,4.912,4.975,5.084,5.174,5.268,5.389,5.44,5.491,5.517,5.517,5.543,5.543,5.543,5.543,5.543,5.543,5.543,5.543,5.543,5.543,5.543,5.543,5.543,5.543,5.517,5.491,5.491,5.465,5.465,5.44,5.415,5.389,5.34,5.34,5.3645,5.389,5.389,5.415,5.415,5.44,5.491,5.491,5.517,5.543,5.543,5.543,5.543,5.543,5.543,5.543,5.543,5.543,5.543,5.543,5.57,5.57,5.57,5.57,5.57,5.57,5.57,5.597,5.597,5.597,5.597,5.624,5.651,5.651,5.651,5.651,5.651,5.651,5.651,5.624,5.597,5.597,5.57,5.543,5.44,5.151,4.975,4.912,4.851,4.791,4.713,4.638,4.565,4.41,4.36,4.328,4.296,4.264,4.249,4.233,4.218,4.188,4.173,4.128,4.128,4.114,4.114,4.114,4.128,4.128,4.173,4.203,4.233,4.264,4.28,4.312,4.344,4.41,4.512,4.601,4.713,4.752000000000001,4.791,4.83,4.891,4.912,4.996,5.04,5.106,5.151,5.106,5.106,5.084,5.04,4.996,4.933,4.912,4.912,4.891,4.891,0.0,0.0,0.0,0.0,0.0,0.0,0.0,0.0,0.0,1.32,1.32,1.32,1.32,1.318,1.318,1.317,1.315,1.314,1.312,1.308,1.307,1.301,1.298,1.293,1.2845,0.0,0.0,0.0,1.231,1.228,1.22,1.219,1.216,1.215,1.208,1.201,1.194,1.171,1.161,1.155,1.15,1.146,1.142,1.14,1.138,0.0,0.0,0.0,0.0,0.0,0.0,0.0,0.0,0.0,0.0,0.0,0.0,0.0,0.0,0.0,0.0,0.0,0.0,0.0,0.0,0.0,0.0,0.0,0.0,0.0,0.0,0.0,0.395,0.395,0.39525,0.396,0.396,0.396,0.396,0.396,0.395,0.394,0.394,0.393,0.393,0.391,0.389,0.389,0.388,0.387,0.386,0.386,0.386,0.386,0.385,0.385,0.385,0.385,0.385,0.385,0.385,0.385,0.386,0.386,0.386,0.387,0.387,0.388,0.388,0.389,0.389,0.389,0.389,0.389,0.38950000000000007,0.39,0.39,0.39,0.39,0.39,0.391,0.391,0.391,0.391,0.391,0.391,0.391,0.391,0.391,0.391,0.391,0.391,0.391,0.391,0.392,0.392,0.392,0.392,0.392,0.393,0.393,0.393,0.393,0.393,0.393,0.393,0.394,0.394,0.394,0.394,0.394,0.395,0.395,0.396,0.396,0.396,0.396,0.397,0.397,0.397,0.397,0.397,0.397,0.398,0.398,0.398,0.398,0.398,0.398,0.398,0.398,0.398,0.398,0.398,0.399,0.399,0.399,0.399,0.399,0.4,0.4,0.4005,0.401,0.401,0.401,0.402,0.402,0.402,0.402,0.403,0.403,0.404,0.404,0.405,0.406,0.406,0.407,0.407,0.408,0.40912499999999996,0.41,0.41,0.411,0.412,0.413,0.414,0.415,0.416,0.417,0.418,0.419,0.42,0.421,0.422,0.423,0.425,0.4255,0.426,0.426,0.427,0.428,0.429,0.43,0.43,0.431,0.431,0.432,0.434,0.435,0.436,0.437,0.4375,0.438,0.44,0.441,0.441,0.442,0.444,0.446,0.447,0.4475,0.448,0.45,0.452,0.452,0.453,0.455,0.457,0.457,0.458,0.458,0.459,0.46,0.462,0.463,0.464,0.466,0.468,0.47,0.4705,0.471,0.473,0.475,0.475,0.476,0.477,0.477,0.479,0.48,0.481,0.482,0.482,0.483,0.483,0.484,0.48449999999999993,0.485,0.48562500000000003,0.486,0.487,0.487,0.487,0.488,0.488,0.488,0.489,0.489,0.489,0.49,0.49,0.0,0.0,0.0,0.0,0.0,0.0,0.0,0.0,0.0,0.0,0.0,0.0,0.0,0.0,0.0,0.0,0.0,0.0,0.0,0.668,0.667,0.665,0.6625000000000001,0.66,0.657,0.656,0.655,0.653,0.653,0.652,0.651,0.65,0.649,0.648,0.647,0.644,0.642,0.635,0.628,0.62275,0.618,0.615,0.612,0.612,0.611
0.0,0.0,0.0,0.0,0.0,0.0,0.0,3.08,3.072,3.055,3.047,3.024,3.0,2.993,2.993,2.977,2.977,2.977,2.977,2.993,2.993,2.993,3.0,3.016,3.016,3.024,3.039,3.047,3.072,3.08,3.096,3.104,3.121,3.129,3.138,3.146,3.146,3.146,3.155,3.155,3.155,3.155,3.155,3.155,3.163,3.163,3.172,3.189,3.225,3.326,3.434,3.496,3.593,3.668,3.743,3.829,3.893,4.014,4.085,4.114,4.128,4.158,4.203,4.233,4.249,4.264,4.264,4.28,4.312,4.312,4.328,4.328,4.328,4.344,4.36,4.36,4.376,4.393,4.41,4.426,4.426,4.46,4.477,4.477,4.512,4.53,4.53,4.583,4.601,4.638,4.694,4.752,4.81,4.83,4.891,4.933,5.018,5.106,5.22,5.34,5.415,5.465,5.491,5.517,5.517,5.543,5.543,5.543,5.543,5.543,5.543,5.543,5.543,5.543,5.543,5.543,5.543,5.543,5.543,5.517,5.517,5.491,5.465,5.465,5.44,5.415,5.389,5.34,5.34,5.34,5.389,5.389,5.389,5.415,5.44,5.465,5.465,5.491,5.517,5.517,5.517,5.543,5.543,5.543,5.543,5.543,5.543,5.543,5.543,5.543,5.543,5.57,5.57,5.57,5.57,5.57,5.597,5.597,5.597,5.597,5.597,5.624,5.597,5.597,5.597,5.597,5.597,5.57,5.57,5.57,5.543,5.465,5.244,5.151,5.018,4.933,4.891,4.83,4.81,4.752,4.694,4.601,4.53,4.393,4.328,4.312,4.28,4.264,4.249,4.218,4.188,4.158,4.158,4.128,4.128,4.128,4.158,4.158,4.188,4.218,4.249,4.264,4.296,4.328,4.376,4.477,4.583,4.657,4.752,4.781,4.81,4.851,4.891,4.933,4.996,5.084,5.106,5.151,5.151,5.151,5.084,5.04,5.018,4.975,4.912,4.912,4.912,4.9015,0.0,0.0,0.0,0.0,0.0,0.0,0.0,0.0,0.0,1.32,1.321,1.321,1.32,1.32,1.32,1.32,1.318,1.317,1.315,1.314,1.311,1.307,1.304,1.298,1.288,1.279,1.274,1.257,1.24,1.231,1.224,1.219,1.216,1.215,1.211,1.204,1.196,1.192,0.0,1.158,1.153,1.147,1.144,1.14,1.138,0.0,0.0,0.0,0.0,0.0,0.0,0.0,0.0,0.0,0.0,0.0,0.0,0.0,0.0,0.0,0.0,0.0,0.0,0.0,0.0,0.0,0.0,0.0,0.0,0.0,0.0,0.0,0.394,0.394,0.394,0.394,0.395,0.394,0.394,0.394,0.394,0.393,0.393,0.391,0.389,0.389,0.388,0.38675,0.385,0.385,0.385,0.385,0.385,0.385,0.385,0.385,0.385,0.384,0.384,0.384,0.385,0.385,0.385,0.385,0.385,0.385,0.386,0.386,0.387,0.388,0.388,0.389,0.389,0.389,0.389,0.38950000000000007,0.39,0.39,0.39,0.39,0.39,0.39,0.39,0.39,0.3905,0.391,0.391,0.391,0.391,0.391,0.391,0.391,0.391,0.391,0.391,0.391,0.391,0.392,0.392,0.392,0.392,0.393,0.393,0.393,0.393,0.393,0.393,0.393,0.394,0.394,0.394,0.394,0.394,0.395,0.395,0.395,0.396,0.396,0.396,0.397,0.397,0.397,0.397,0.397,0.397,0.397,0.397,0.398,0.398,0.398,0.398,0.398,0.398,0.398,0.398,0.398,0.399,0.399,0.399,0.399,0.4,0.4,0.4005,0.401,0.401,0.401,0.402,0.402,0.402,0.402,0.403,0.403,0.404,0.404,0.405,0.406,0.406,0.407,0.408,0.409,0.4095,0.41,0.411,0.411,0.413,0.414,0.415,0.416,0.416,0.417,0.41825,0.419,0.42,0.421,0.422,0.423,0.425,0.425,0.426,0.427,0.4275,0.428,0.429,0.43,0.43,0.431,0.432,0.434,0.435,0.436,0.436,0.437125,0.438,0.439,0.44,0.441,0.442,0.444,0.446,0.447,0.447375,0.448,0.45,0.451,0.452,0.453,0.455,0.456,0.457,0.458,0.458,0.459,0.46,0.462,0.463,0.464,0.467,0.469,0.47,0.470875,0.472,0.474,0.475,0.476,0.476,0.477,0.478,0.48,0.481,0.481,0.482,0.482,0.483,0.484,0.48449999999999993,0.485,0.486,0.486,0.487,0.487,0.487,0.488,0.488,0.488,0.489,0.489,0.489,0.489,0.49,0.49,0.0,0.0,0.0,0.0,0.0,0.0,0.0,0.0,0.0,0.0,0.0,0.0,0.0,0.0,0.0,0.0,0.0,0.0,0.0,0.0,0.665,0.0,0.0,0.0,0.0,0.655,0.653,0.653,0.651,0.651,0.65,0.649,0.648,0.648,0.645,0.62775,0.62,0.617,0.614,0.612,0.611,0.611,0.607,0.606,0.604
0.0,0.0,0.0,0.0,0.0,0.0,0.0,3.08,3.08,3.055,3.055,3.039,3.0,2.993,2.993,2.993,2.993,2.977,2.977,2.993,2.993,3.0,3.0,3.016,3.016,3.024,3.039,3.055,3.072,3.08,3.104,3.113,3.121,3.129,3.138,3.146,3.146,3.146,3.155,3.155,3.155,3.155,3.155,3.155,3.155,3.163,3.172,3.181,3.216,3.317,3.414,3.475,3.549,3.632,3.696,3.804,3.855,3.933,3.987,4.014,4.056,4.085,4.158,4.188,4.218,4.249,4.264,4.28,4.296,4.312,4.312,4.328,4.328,4.344,4.344,4.36,4.376,4.393,4.41,4.41,4.426,4.46,4.46,4.477,4.512,4.53,4.53,4.565,4.601,4.638,4.657,4.713,4.791,4.83,4.871,4.912,4.975,5.04,5.174,5.268,5.389,5.44,5.465,5.517,5.517,5.543,5.543,5.543,5.543,5.543,5.543,5.543,5.57,5.57,5.57,5.57,5.543,5.543,5.543,5.543,5.517,5.517,5.491,5.465,5.44,5.44,5.415,5.389,5.34,5.34,5.34,5.34,5.389,5.389,5.389,5.44,5.44,5.465,5.491,5.491,5.491,5.491,5.491,5.517,5.517,5.517,5.517,5.543,5.543,5.543,5.543,5.543,5.543,5.57,5.57,5.57,5.57,5.597,5.597,5.597,5.597,5.597,5.597,5.597,5.57,5.57,5.57,5.543,5.543,5.517,5.491,5.415,5.244,5.174,5.084,4.996,4.933,4.891,4.851,4.83,4.81,4.752,4.694,4.583,4.41,4.36,4.328,4.296,4.28,4.249,4.233,4.203,4.173,4.173,4.158,4.158,4.173,4.188,4.203,4.233,4.264,4.28,4.312,4.344,4.41,4.512,4.601,4.713,4.771,4.7905,4.81,4.851,4.891,4.933,4.996,5.084,5.106,5.151,5.151,5.151,5.106,5.084,5.04,4.996,4.975,4.933,4.912,4.912,0.0,0.0,0.0,0.0,0.0,0.0,0.0,0.0,0.0,1.321,1.321,1.321,1.321,1.321,1.321,1.321,1.321,1.32,1.318,1.317,1.315,1.311,1.308,1.301,1.293,1.2845,1.276,1.2645,1.253,1.24,1.231,1.227,1.223,1.219,1.214,1.21,1.199,1.194,1.1775,1.161,0.0,0.0,0.0,0.0,0.0,0.0,0.0,0.0,0.0,0.0,0.0,0.0,0.0,0.0,0.0,0.0,0.0,0.0,0.0,0.0,0.0,0.0,0.0,0.0,0.0,0.0,0.0,0.0,0.0,0.0,0.0,0.0,0.394,0.394,0.394,0.394,0.394,0.394,0.393,0.393,0.392,0.391,0.389,0.389,0.388,0.38675,0.385,0.385,0.385,0.384,0.384,0.384,0.384,0.383,0.383,0.383,0.383,0.383,0.383,0.383,0.383,0.384,0.384,0.384,0.385,0.385,0.385,0.385,0.386,0.387,0.388,0.388,0.389,0.389,0.389,0.389,0.389,0.389,0.389,0.389,0.39,0.39,0.39,0.39,0.39,0.39,0.39,0.39,0.39,0.39,0.39,0.39,0.39,0.39,0.3905,0.391,0.391,0.391,0.391,0.392,0.392,0.392,0.392,0.393,0.393,0.393,0.393,0.393,0.393,0.393,0.394,0.394,0.394,0.394,0.394,0.395,0.395,0.395,0.396,0.396,0.396,0.397,0.397,0.397,0.397,0.397,0.397,0.397,0.397,0.398,0.398,0.398,0.398,0.398,0.398,0.398,0.398,0.399,0.399,0.399,0.399,0.4,0.4,0.4005,0.401,0.401,0.401,0.402,0.402,0.402,0.402,0.403,0.403,0.404,0.404,0.405,0.406,0.407,0.407,0.408,0.40912499999999996,0.41,0.411,0.411,0.412,0.413,0.414,0.415,0.416,0.417,0.418,0.419,0.42,0.42,0.421,0.422,0.424,0.425,0.426,0.426,0.427125,0.428,0.429,0.43,0.43,0.431,0.431,0.433,0.435,0.436,0.436,0.437,0.438,0.439,0.44,0.441,0.442,0.443,0.445,0.446,0.447,0.448,0.449,0.451,0.452,0.453,0.454,0.456,0.457,0.458,0.458,0.459,0.46,0.462,0.463,0.465,0.468,0.469,0.47,0.471,0.473,0.475,0.476,0.476,0.477,0.478,0.479,0.48,0.481,0.482,0.482,0.483,0.484,0.48449999999999993,0.485,0.486,0.487,0.487,0.487,0.487,0.488,0.488,0.488,0.488,0.489,0.489,0.489,0.49,0.49,0.49,0.491,0.0,0.0,0.0,0.0,0.0,0.0,0.0,0.0,0.0,0.0,0.0,0.0,0.0,0.0,0.0,0.0,0.0,0.0,0.0,0.0,0.0,0.0,0.0,0.0,0.0,0.0,0.0,0.0,0.0,0.0,0.0,0.0,0.6194999999999999,0.6107499999999999,0.602,0.604,0.603,0.603,0.603,0.604,0.603,0.602,0.601,0.601
