0,0,0,0.524,0.523,0.523,0.523,0.523,0.523,0.523,0.523,0.522,0.522,0.522,0.522,0.522,0.52,0.519,0.518,0.517,0.516,0.516,0.515,0.513,0.511,0.511,0.511,0.511,0.511,0.511,0.511,0.511,0.511,0.511,0.51,0.51,0.51,0.509,0.509,0.509,0.509,0.508,0.508,0.507,0.506,0.505,0.504,0.505,0.505,0.504,0.504,0.504,0.504,0.504,0.503,0.503,0.502,0.502,0.501,0.495,0.493,0,0,0,0,0,0,0.486,0.487,0,0.487,0.488,0.488,0.489,0.489,0.489,0.489,0.489,0.489,0.489,0.489,0.489,0.489,0.488,0,0.488,0.488,0,0.486,0.486,0.486,0.485,0.485,0.485,0.485,0.484,0.484,0.485,0.486,0.487,0.487,0.488,0.488,0.489,0.489,0.49,0,0.491,0.491,0,0.491,0.491,0.492,0.492,0.492,0,0.493,0.493,0,0.494,0.494,0.494,0.494,0.494,0.493,0.492,0.491,0.491,0.49,0.489,0.489,0.489,0.488,0.488,0.488,0.488,0.488,0.488,0.487,0.487,0.489,0.489,0.488,0.488,0.488,0.487,0.487,0.487,0.487,0.487,0.487,0.486,0.486,0.486,0.485,0.485,0.485,0.484,0.483,0.483,0.483,0.482,0.482,0.482,0.482,0.482,0.482,0.482,0.482,0.482,0.482,0.482,0.481,0.481,0.481,0.48,0.48,0.479,0.479,0.478,0.478,0.477,0.477,0.477,0.477,0.477,0.477,0.476,0.476,0.476,0.476,0.476,0.476,0.475,0.474,0.474,0.473,0.473,0.473,0.473,0.473,0.472,0.472,0.472,0.472,0.473,0.473,0.473,0.473,0.473,0.473,0.474,0.474,0.473,0.472,0.472,0.471,0.471,0.47,0.47,0.469,0.469,0.468,0.468,0.467,0.466,0.466,0.465,0.465,0.465,0.465,0,0,0,0,0.463,0.463,0.463,0.463,0.463,0.463,0,0.463,0.463,0.462,0.462,0.461,0.461,0.459,0,0.458,0.458,0.458,0.457,0.457,0.457,0.457,0.457,0.457,0.457,0.457,0.457,0.456,0.456,0.455,0.455,0.455,0.455,0.455,0.456,0.456,0.456,0.456,0.456,0.455,0.455,0.455,0.455,0.455,0.454,0.454,0.453,0.453,0.453,0.452,0.452,0.452,0.452,0.451,0.451,0.451,0.451,0.451,0.45,0.45,0.45,0,0,0,0.448,0.448,0.448,0.447,0.447,0,0.447,0.446,0.446,0.446,0.446,0.446,0.445,0.445,0.444,0.444,0.444,0.444,0.443,0.444,0.444,0.443,0.443,0.443,0.443,0.443,0.443,0.442,0.442,0.442,0.441,0.441,0.441,0.441,0.441,0.441,0.441,0.441,0.441,0.441,0,0,0.44,0.439,0.439,0.438,0.437,0,0,0.436,0.436,0.436,0.436,0.436,0.436,0.436,0.435,0.436,0.435,0.435,0.435,0,0.435,0,0,0.434,0.433,0.433,0.433,0.432,0.432,0.432,0.431,0.431,0.431,0.431,0.431,0.431,0.43,0.43,0.43,0.43,0.43,0.43,0.43,0.43,0.429,0.429,0.429,0.428,0.428,0.427,0.426,0.426,0.426,0.425,0.425,0.425,0.425,0.425,0.425,0.425,0.425,0.425,0.425,0.425,0.425,0.425,0.424,0.424,0.424,0.424,0.423,0.423,0.423,0.423,0.422,0.422,0.422,0.422,0.421,0.421,0,0,0,0,0.42,0.42,0.42,0.42,0.42,0.419,0.419,0.419,0.418,0.418,0.418,0.417,0.417,0.417,0.417,0.416,0,0.416,0.413,0.413,0.413,0.414,0.414,0.414,0.415,0.415,0,0.416,0.416,0.416,0.416,0.416,0.416,0.416,0.416,0.415,0.415,0.414,0,0.394,0.393,0.393,0.393,0.393,0.393,0.393,0.393,0.392,0.392,0.391,0.391,0.39,0.39,0.389,0.389,0.389,0.389,0.389,0.389,0.389,0.389,0.389,0.389,0.389,0.389,0.388,0.388,0.387,0.386,0.386,0.385,0.385,0.385,0.385,0.385,0.385,0.385,0,0,0.385,0.385,0.385,0.385,0.386,0.386,0.386,0.385,0,0.385,0.385,0.384,0.384,0.383,0.382,0.382,0.381,0.381,0.381,0.381,0,0,0,0.381,0.381,0.381,0.381,0.381,0.381,0.381,0.381,0.381,0,0,0,0,0,0,0,0,0,0,0,0,0,0,0,0,0,0,0,0,0,0,0,0,0,0,0,0,0,0,0,0,0,0,0,0,0,0,0,0,0,0,0,0,0,0,0,0,0,0,0,0,0,0,0,0,0,0,0,0,0,0,0,0,0,0,0,0
0.52,0.52,0.519,0.519,0.519,0.519,0.52,0.52,0.519,0.519,0.519,0.518,0.518,0.517,0.517,0.517,0.517,0.516,0.516,0.516,0.515,0.514,0.511,0.511,0.51,0.509,0.509,0.509,0.51,0.51,0.509,0.509,0.509,0.509,0.509,0.509,0.509,0.509,0.508,0.508,0.507,0.506,0.506,0.505,0.504,0.504,0.504,0.503,0.504,0.503,0.504,0.503,0.503,0.503,0.502,0.502,0.502,0.501,0.499,0.497,0.495,0,0,0,0,0.487,0.488,0.488,0.488,0,0.489,0.49,0.49,0.491,0.492,0.492,0.491,0.492,0.492,0.492,0.491,0.491,0.49,0.49,0.489,0.489,0.489,0.488,0.488,0.487,0.487,0.486,0.485,0.485,0.485,0.485,0.485,0.485,0.486,0.487,0.487,0.488,0.488,0.489,0.49,0.49,0,0.491,0.491,0.491,0.491,0.491,0.491,0.491,0.492,0.492,0.492,0.493,0.493,0.493,0.493,0.493,0.492,0.491,0.491,0.49,0.489,0.489,0.488,0.488,0.488,0.487,0.487,0.487,0.486,0.486,0.485,0.485,0.484,0.483,0.483,0.482,0.482,0.485,0.484,0.484,0.484,0.484,0.484,0.483,0.483,0.483,0.483,0.482,0.482,0.482,0.482,0.482,0.482,0.481,0.48,0.48,0.48,0.479,0.479,0.479,0.479,0.479,0.479,0.479,0.479,0.479,0.478,0.477,0.477,0.477,0.476,0.476,0.476,0.476,0.476,0.476,0.475,0.475,0.475,0.475,0.475,0.474,0.474,0.473,0.473,0.473,0.472,0.471,0.471,0.47,0.47,0.47,0.47,0.47,0.47,0.47,0.469,0.469,0.47,0.47,0.47,0.47,0.47,0.47,0.47,0.47,0.47,0.47,0.469,0.469,0.469,0.468,0.467,0.466,0.465,0.465,0.464,0.464,0.464,0.464,0.464,0.463,0.463,0.463,0.463,0.463,0,0,0.461,0.461,0.461,0.461,0.46,0.46,0.459,0.459,0.459,0.458,0.458,0.458,0.458,0.458,0.458,0.457,0.457,0.457,0.456,0.456,0.455,0.455,0.455,0.455,0.454,0.454,0.454,0.453,0.453,0.453,0.453,0.453,0.453,0.453,0.453,0.453,0.453,0.453,0.453,0.452,0.452,0.452,0.452,0.452,0.452,0.452,0.452,0.452,0.451,0.451,0.451,0.45,0.449,0.449,0.449,0.448,0.448,0.448,0.448,0.447,0.447,0.447,0.447,0,0.447,0.447,0.446,0.446,0.446,0.446,0.445,0.445,0.445,0.444,0.444,0.443,0.443,0,0.442,0.442,0.442,0.442,0.441,0.441,0.441,0.441,0.441,0.441,0.441,0.441,0.441,0.441,0.441,0.441,0.44,0.44,0.44,0.439,0.439,0.438,0.438,0.438,0.438,0.437,0,0,0.436,0.436,0.436,0.436,0.436,0.435,0.435,0.435,0.435,0.435,0.435,0.435,0.435,0.435,0.434,0.434,0.433,0.433,0.433,0.433,0,0,0,0.431,0.431,0.431,0.431,0.431,0.431,0.431,0.43,0.43,0.43,0.429,0.429,0.429,0.429,0.429,0.429,0.428,0.428,0.427,0.427,0.427,0.427,0.426,0.426,0.426,0.425,0.425,0.425,0.425,0.424,0.424,0.424,0.423,0.423,0.422,0.422,0.422,0.422,0.422,0.422,0.422,0.422,0.422,0.422,0.422,0.421,0.421,0.421,0.421,0.421,0.421,0.421,0.421,0.42,0.421,0.42,0.42,0.42,0.42,0.42,0.419,0.419,0.418,0.418,0.418,0.417,0.417,0.416,0.416,0.416,0.416,0.416,0.416,0.416,0.415,0.415,0.415,0.412,0.411,0.411,0.411,0.411,0.411,0.411,0.411,0,0.412,0.413,0.414,0.414,0.415,0.415,0.415,0.416,0.415,0.415,0.415,0.415,0.413,0,0,0.394,0.393,0.393,0.393,0.392,0.392,0.392,0.391,0.391,0.39,0.39,0.389,0.389,0.389,0.388,0.388,0.388,0.388,0.388,0.388,0.388,0.388,0.388,0.387,0.387,0.387,0.386,0,0.385,0,0.384,0.384,0.383,0.383,0.383,0.383,0.383,0.383,0.384,0,0.384,0.384,0.384,0.384,0.385,0.385,0.384,0,0.383,0.383,0.382,0.381,0.381,0.381,0.381,0.381,0.381,0.38,0.38,0.38,0.38,0.38,0.38,0.38,0.379,0.38,0.38,0.38,0.38,0.38,0.38,0.381,0,0,0,0,0,0,0,0,0,0,0,0,0,0,0,0,0,0,0,0,0,0,0,0,0,0,0,0,0,0,0,0,0,0,0,0,0,0,0,0,0,0,0,0,0,0,0,0,0,0,0,0,0,0,0,0,0,0,0,0,0,0,0,0,0,0,0,0
0.518,0.517,0.517,0.516,0.516,0.517,0.516,0.517,0.517,0.516,0.516,0.516,0.516,0.516,0.516,0.516,0.515,0.515,0.514,0.512,0.511,0.511,0.51,0.509,0.509,0.509,0.509,0.509,0.509,0.509,0.509,0.508,0.508,0.508,0.508,0.508,0.507,0.507,0.507,0.505,0.504,0.504,0.504,0.503,0.503,0.502,0.502,0.502,0.502,0.502,0.502,0.502,0.502,0.502,0.502,0.502,0.501,0.499,0.498,0.496,0.495,0.494,0,0.489,0.489,0.489,0.489,0.489,0.49,0.49,0.491,0.492,0,0.493,0.494,0.494,0.494,0.494,0.494,0.494,0.493,0.493,0.493,0.492,0.491,0.49,0.49,0.489,0.488,0.488,0.487,0.486,0.486,0.485,0.485,0.485,0.485,0.485,0.486,0.487,0.487,0.488,0.488,0.489,0.489,0.49,0.49,0.49,0.49,0.491,0.49,0.49,0.491,0.491,0.491,0.491,0.491,0.491,0.491,0.491,0.491,0.49,0.49,0.489,0.488,0.488,0.487,0.487,0.487,0.486,0.485,0.485,0.485,0.484,0.483,0.484,0.483,0.483,0.482,0.482,0.482,0.481,0.481,0.481,0.48,0.482,0.482,0.482,0.482,0.482,0.481,0.481,0.481,0.481,0.481,0.48,0.48,0.479,0.478,0.478,0.477,0.477,0.477,0.476,0.476,0.476,0.476,0.476,0.476,0.476,0.476,0.476,0.476,0.476,0.475,0.475,0.475,0.475,0.474,0.474,0.474,0.473,0.473,0.473,0.472,0.472,0.471,0.471,0.47,0.47,0.47,0.47,0.47,0.469,0.469,0.469,0.469,0.468,0.468,0.468,0.468,0.468,0.467,0.468,0.468,0.468,0.468,0.468,0.467,0.467,0.468,0.468,0.468,0.468,0.466,0.465,0.465,0.464,0.464,0.464,0.463,0.463,0.463,0.463,0.463,0.463,0.462,0.462,0.461,0.461,0.46,0.46,0.459,0.458,0.458,0.458,0.458,0.458,0.458,0.457,0.457,0.457,0.457,0.457,0.456,0.456,0.456,0.456,0.456,0.455,0.455,0.454,0.453,0.453,0.453,0.453,0.453,0.452,0.452,0.452,0.452,0.452,0.452,0.452,0.451,0.451,0.451,0.451,0.451,0.451,0,0,0,0,0.45,0.45,0.451,0.451,0.451,0.45,0.45,0.449,0.449,0.448,0.447,0.447,0.447,0.447,0.446,0.446,0.446,0.446,0.446,0.446,0.446,0.446,0.445,0.445,0.445,0.445,0.444,0.444,0.443,0.443,0.442,0.442,0.442,0.442,0.442,0.441,0.441,0.441,0.441,0.441,0.441,0.44,0.44,0.44,0.44,0.44,0.439,0.439,0.439,0.439,0.44,0.439,0.439,0.438,0,0.437,0.437,0.436,0.436,0.436,0.436,0.436,0.435,0.435,0.435,0.435,0.435,0.434,0.434,0.433,0.433,0.433,0.433,0.432,0.432,0.432,0.432,0.432,0.432,0.432,0.432,0.432,0.431,0.431,0.431,0.431,0.431,0,0,0.43,0.43,0.43,0.43,0.43,0.43,0.429,0.429,0.428,0.428,0.427,0.427,0.426,0.426,0.426,0.426,0,0,0.425,0.425,0.425,0.425,0.425,0.424,0.424,0.423,0.423,0.423,0.422,0.422,0.422,0.421,0.421,0.421,0.421,0.42,0.42,0.42,0.42,0.42,0.42,0.42,0.42,0.42,0.42,0.42,0.42,0.419,0.419,0.419,0.419,0.419,0.419,0.419,0.419,0.418,0.418,0.417,0.417,0.417,0.416,0.416,0.416,0.416,0.416,0.416,0.415,0.415,0.415,0.415,0.414,0.414,0.414,0.413,0.411,0.411,0.41,0.41,0.41,0.409,0.409,0.409,0.409,0.409,0.41,0.411,0.411,0.411,0.412,0.412,0,0.414,0.414,0.414,0.415,0.414,0.413,0,0.412,0,0,0.394,0.393,0.393,0.392,0.392,0.391,0.39,0.39,0.389,0.389,0.389,0,0.388,0.387,0.386,0.386,0.386,0.386,0.386,0.386,0.386,0.386,0.385,0.385,0.385,0.385,0.385,0,0.383,0.382,0.382,0.381,0.381,0.381,0.381,0.381,0.381,0.381,0.381,0.381,0.381,0.381,0.381,0,0,0.381,0.381,0.381,0.381,0.38,0.38,0.379,0.379,0.379,0.379,0.379,0.378,0.378,0.378,0.378,0.378,0.378,0.378,0.377,0.377,0.377,0.378,0.378,0.378,0.378,0.378,0.378,0,0,0,0,0,0,0,0,0,0,0,0,0,0,0,0,0,0,0,0,0,0,0,0,0,0,0,0,0,0,0,0,0,0,0,0,0,0,0,0,0,0,0,0,0,0,0,0,0,0,0,0,0,0,0,0,0,0,0,0,0,0,0,0,0,0,0,0
0.516,0.516,0.515,0.515,0.515,0.516,0.515,0.515,0.515,0.515,0.515,0.514,0.514,0.513,0.513,0.513,0.511,0.511,0,0.509,0,0.509,0.509,0.508,0.508,0.507,0.507,0.507,0.507,0.507,0.506,0.506,0.506,0.506,0.506,0.504,0.504,0.504,0.503,0.503,0.502,0.502,0.502,0.502,0.502,0.502,0.502,0.502,0.502,0.502,0.502,0.502,0.502,0.502,0.501,0.501,0.499,0.497,0.496,0.495,0.495,0.494,0.492,0.49,0.489,0.489,0.489,0.49,0.491,0.491,0.492,0,0.493,0.494,0.495,0.495,0.495,0.495,0.495,0.494,0.494,0.493,0.493,0.492,0.491,0.49,0.489,0.489,0.488,0.488,0.486,0.485,0.485,0.485,0.484,0.485,0.485,0.485,0.485,0.486,0.487,0.487,0.488,0.488,0.488,0.489,0.489,0.489,0.489,0.489,0.489,0.489,0.489,0.489,0.489,0.489,0.489,0.489,0.489,0.489,0.489,0.488,0.488,0.487,0.486,0.485,0.484,0.484,0.483,0.483,0.483,0.483,0.483,0.482,0.482,0.482,0.482,0.481,0.481,0.48,0.479,0.478,0.478,0.477,0.477,0.477,0.476,0.48,0.479,0.478,0.478,0.478,0.477,0.477,0.477,0.477,0.476,0.476,0.476,0.476,0.475,0.475,0.475,0.475,0.475,0.475,0.475,0.475,0.474,0.474,0.474,0.474,0.473,0.473,0.473,0.473,0.472,0.472,0.472,0.472,0.471,0.471,0.47,0.47,0.47,0.47,0.47,0,0,0,0.468,0.468,0.468,0.467,0.467,0.467,0.466,0.466,0.466,0.465,0.465,0,0.465,0.465,0.464,0.464,0,0.464,0,0,0,0.464,0.464,0.464,0.463,0.463,0.463,0.463,0.463,0.463,0.462,0.461,0.46,0.461,0.46,0,0,0.458,0.458,0.458,0.458,0.457,0.457,0.457,0.457,0.457,0.457,0.456,0.456,0.456,0.455,0,0.454,0.453,0.453,0.453,0.453,0.453,0.453,0.452,0.452,0.452,0.452,0.452,0.452,0.452,0.451,0.451,0.451,0.451,0.45,0.45,0.449,0.449,0.449,0.449,0.448,0.448,0.447,0.447,0,0,0,0,0.447,0.447,0.447,0.447,0.447,0.447,0.447,0.447,0.446,0.446,0.446,0.445,0.444,0.444,0.444,0.444,0.443,0.443,0.443,0.443,0.442,0.442,0.442,0.442,0.442,0.442,0.442,0.441,0.441,0.441,0.441,0.441,0.441,0.441,0.44,0.44,0.44,0.439,0.439,0.438,0.438,0.437,0.437,0,0.437,0.436,0.436,0.436,0.436,0,0.436,0,0,0,0.436,0.436,0.435,0.435,0.434,0.434,0.433,0.433,0.432,0.432,0.432,0.432,0.431,0.431,0.431,0.431,0.431,0.431,0.431,0.431,0.431,0.431,0.431,0.431,0.431,0.431,0.43,0.43,0.43,0.43,0.43,0.43,0.43,0.429,0.429,0.429,0.429,0.428,0.428,0.428,0.427,0.427,0.426,0.426,0.426,0.425,0.425,0.425,0.425,0.425,0.424,0.424,0.423,0.423,0.422,0.422,0.422,0.422,0.421,0.421,0.421,0.421,0.421,0.42,0.42,0.42,0.42,0.42,0.42,0.418,0.418,0.418,0.418,0.417,0.417,0.417,0.417,0.417,0.417,0.417,0.417,0.417,0.417,0.417,0.416,0.417,0.416,0.416,0.416,0.416,0.416,0.416,0.416,0.416,0.416,0.415,0.415,0.415,0.414,0.414,0.414,0.413,0.413,0.412,0.412,0.412,0.411,0.41,0.409,0.409,0.408,0.408,0.408,0.407,0.407,0.407,0.407,0.407,0.407,0.408,0.409,0.41,0.41,0.411,0.411,0.412,0.412,0,0.413,0.413,0.412,0.412,0.412,0.411,0,0.397,0.393,0,0.393,0.392,0.391,0.39,0.389,0.389,0.387,0.386,0.386,0.386,0.385,0.385,0.385,0.385,0.385,0.385,0.385,0.385,0.385,0.384,0.384,0.383,0.383,0.382,0.382,0.381,0.381,0.381,0.38,0.38,0.379,0.378,0.378,0.378,0.378,0.378,0.379,0.379,0,0.379,0.379,0,0.379,0,0,0,0,0.378,0.377,0.377,0.377,0.377,0.377,0.377,0.377,0.377,0.377,0.377,0.377,0.377,0.377,0.376,0.376,0,0.377,0,0.377,0,0.377,0,0,0,0,0,0,0,0,0,0,0,0,0,0,0,0,0,0,0,0,0,0,0,0,0,0,0,0,0,0,0,0,0,0,0,0,0,0,0,0,0,0,0,0,0,0,0,0,0,0,0,0,0,0,0,0,0,0,0,0,0,0,0,0,0,0,0,0,0
0.512,0.512,0.512,0.513,0.512,0.513,0.512,0.512,0.512,0.511,0.511,0.511,0.51,0.51,0.509,0.509,0.509,0.509,0.508,0.508,0.507,0.507,0.506,0.506,0.505,0.504,0.504,0.504,0.504,0.504,0.504,0.503,0.503,0.503,0.502,0.502,0.502,0.502,0.502,0.502,0.501,0.501,0.501,0.501,0.501,0.501,0.501,0.501,0.501,0.501,0.501,0.5,0.5,0.5,0.499,0.497,0.496,0.495,0.495,0.495,0.494,0.493,0.491,0.489,0.489,0.489,0.49,0.49,0.491,0.491,0.492,0,0.493,0.493,0.494,0.494,0.494,0.495,0.494,0.493,0.493,0.492,0.491,0.49,0.489,0.489,0.488,0.488,0.486,0.485,0.485,0.484,0.484,0.483,0.483,0.483,0.483,0.483,0.484,0.485,0.485,0.485,0.486,0.486,0.487,0.487,0.487,0.487,0.487,0.487,0.487,0.487,0.487,0.487,0.487,0.487,0.487,0.487,0.486,0.486,0.485,0.483,0.483,0.482,0.482,0.482,0.482,0.482,0.481,0.481,0.482,0.482,0.482,0.482,0.481,0.481,0.48,0.479,0.478,0.477,0.476,0.476,0.476,0.476,0.475,0.475,0.475,0.475,0.474,0.476,0.476,0.476,0.475,0.475,0.475,0.475,0.475,0.474,0.474,0.473,0.473,0.473,0.472,0.472,0.472,0.471,0.471,0.471,0.471,0.471,0.47,0.47,0.47,0.47,0.47,0.47,0.47,0.47,0.47,0.47,0.469,0.469,0.469,0.469,0.468,0.468,0,0,0,0,0.465,0.465,0.465,0.465,0.464,0.464,0.464,0.464,0.464,0.463,0.463,0,0.463,0.463,0.462,0.462,0.461,0.461,0,0,0,0.461,0.461,0.461,0.461,0.46,0.46,0.46,0.459,0.459,0.458,0.458,0.458,0.458,0.458,0.458,0.457,0.457,0.456,0.456,0.456,0.456,0.455,0.455,0.455,0.454,0.454,0.454,0.454,0,0.453,0.452,0.452,0.452,0.452,0.452,0.452,0.452,0.452,0.451,0.451,0.451,0.45,0.45,0.449,0.449,0.449,0.449,0.449,0.448,0.448,0.447,0.447,0.447,0.447,0.447,0.446,0.446,0.446,0.445,0.445,0.445,0.445,0.444,0.444,0.444,0.445,0.445,0.445,0,0,0.443,0.443,0.442,0.442,0.441,0.441,0.441,0.441,0.441,0.441,0.441,0.441,0.441,0.441,0.441,0.441,0.441,0.441,0.441,0.441,0.441,0.441,0.441,0.44,0.44,0.439,0.438,0.438,0.437,0.437,0.436,0.436,0.436,0.436,0.436,0.436,0.436,0.435,0.435,0.435,0.435,0.435,0.435,0,0,0,0,0.434,0.434,0.433,0.433,0.432,0.432,0.431,0.431,0.431,0.431,0.431,0.431,0.43,0.43,0.43,0.43,0.43,0.43,0.43,0.43,0.43,0.429,0.429,0.43,0.429,0.429,0.429,0.428,0.428,0.427,0.427,0.427,0.427,0.427,0.426,0.426,0.426,0.426,0.426,0.426,0.425,0.425,0.425,0.423,0.423,0.422,0.422,0.422,0.421,0.421,0.421,0.421,0.421,0.421,0.42,0.42,0.42,0.42,0.42,0.42,0.419,0.419,0.419,0.418,0.418,0.418,0.417,0.417,0.417,0.417,0.416,0.416,0.416,0.416,0.416,0.416,0.416,0.416,0.416,0.415,0.415,0.415,0.415,0.415,0.415,0.415,0.415,0.415,0.415,0.415,0.415,0.415,0.415,0.414,0.414,0.414,0.413,0.413,0.412,0.412,0.412,0.411,0.411,0.411,0.409,0.408,0.408,0.407,0.407,0.407,0.407,0.407,0.407,0.406,0.406,0.406,0.406,0.406,0.406,0.406,0.407,0.407,0.408,0.409,0.409,0.411,0,0,0,0.411,0.411,0.41,0.411,0,0,0.397,0.393,0.393,0.392,0.392,0.391,0.39,0.389,0.386,0.386,0.385,0.384,0.384,0.384,0.383,0.383,0.383,0.383,0.383,0.383,0.382,0.382,0.382,0.381,0.381,0.381,0.381,0.38,0.38,0.379,0.378,0.378,0.377,0.377,0.377,0.377,0.377,0.377,0.377,0.377,0.377,0.377,0.377,0.377,0.377,0.377,0.377,0.377,0,0.377,0.376,0,0,0,0.376,0.376,0.375,0.375,0.375,0.375,0.375,0.375,0.375,0.374,0.374,0.375,0.375,0.375,0,0,0,0.375,0,0,0,0,0,0,0,0,0,0,0,0,0,0,0,0,0,0,0,0,0,0,0,0,0,0,0,0,0,0,0,0,0,0,0,0,0,0,0,0,0,0,0,0,0,0,0,0,0,0,0,0,0,0,0,0,0,0,0,0,0,0,0,0,0,0,0,0,0
0.509,0.509,0.509,0.509,0.509,0.509,0.509,0.509,0.509,0.509,0.509,0.509,0.508,0.508,0.508,0.507,0.507,0.506,0.505,0.505,0.504,0.504,0.503,0.503,0.502,0.502,0.502,0.502,0.502,0.502,0.502,0.502,0.502,0.502,0.501,0.501,0.501,0.501,0.5,0.5,0.499,0.499,0.499,0.499,0.499,0.499,0.499,0.499,0.499,0.499,0.499,0.497,0.497,0.497,0.496,0.495,0.495,0.494,0.493,0.493,0.491,0.49,0.489,0.489,0.489,0.489,0.489,0.49,0.49,0.49,0.491,0.491,0.492,0.492,0.492,0.492,0.492,0.491,0.491,0.49,0.489,0.489,0.489,0.489,0.488,0.488,0.487,0.486,0.485,0.485,0.484,0.483,0.483,0.482,0.482,0.482,0.482,0.482,0.483,0.483,0.483,0.483,0.483,0.483,0.483,0.483,0.483,0.484,0.484,0.484,0.483,0.483,0.484,0.484,0.483,0.483,0,0.482,0.482,0.482,0.482,0,0.481,0.48,0.479,0.478,0.478,0.478,0.478,0.478,0.479,0.479,0.479,0.479,0.478,0.478,0.477,0.476,0.476,0.475,0.475,0.475,0.475,0.474,0.473,0.473,0.472,0.472,0.471,0.471,0.471,0.474,0.473,0.473,0.473,0.472,0.471,0.471,0.47,0.47,0.47,0.47,0.47,0.47,0.47,0.469,0.469,0.469,0.469,0.469,0.469,0.469,0.468,0.468,0.468,0.468,0.468,0.468,0.468,0.467,0.467,0.466,0.466,0.465,0,0.464,0.464,0.464,0.464,0.463,0.463,0.463,0.463,0.463,0.463,0.463,0.462,0.461,0.461,0.46,0.46,0.459,0.459,0.459,0.458,0.458,0.458,0.458,0.458,0.458,0,0.458,0.458,0.458,0.458,0.458,0.457,0.457,0.457,0.457,0.457,0.456,0.456,0.456,0.456,0.455,0.455,0.454,0.453,0.453,0.453,0.453,0.453,0.453,0.453,0.452,0.452,0.452,0.452,0.452,0.452,0.451,0.451,0.45,0.45,0.449,0.449,0.448,0.448,0.448,0.448,0.448,0.448,0.447,0.447,0.447,0.447,0.447,0.447,0.447,0.446,0.446,0.446,0.446,0.446,0.445,0.444,0.444,0.442,0.442,0.442,0.441,0.441,0.441,0.441,0.441,0.442,0.442,0,0,0,0.441,0.441,0.44,0.44,0.44,0.44,0.44,0.44,0.44,0.44,0.44,0.44,0.44,0.44,0.44,0.44,0.44,0.44,0.44,0.439,0.439,0.439,0.438,0.437,0.436,0.436,0.436,0.435,0.435,0.435,0.435,0.434,0.434,0.433,0.433,0.433,0.433,0.432,0.432,0.432,0.432,0.432,0.432,0.431,0,0,0,0.431,0.431,0.431,0.431,0.431,0.43,0.43,0.429,0.429,0.429,0.429,0.428,0.428,0.428,0.428,0.428,0.428,0.428,0.427,0.427,0.427,0.427,0.426,0.426,0.426,0.426,0,0.426,0.426,0.425,0.425,0.425,0.426,0.425,0.425,0.425,0.425,0.425,0.425,0.425,0.422,0.422,0.421,0.421,0,0,0.42,0.42,0.42,0.42,0.42,0.42,0.419,0.418,0.418,0.418,0.418,0.417,0.417,0.417,0.417,0.416,0.416,0.416,0.416,0.416,0.416,0.416,0.416,0.416,0.415,0.415,0.415,0.415,0.415,0.414,0.414,0.414,0.414,0.413,0.412,0.412,0.412,0.412,0.412,0.412,0.412,0.412,0.412,0.412,0.413,0.412,0.412,0.412,0.412,0.411,0.411,0.411,0.411,0.411,0.411,0.407,0.407,0.407,0.407,0.407,0.407,0.406,0.406,0.406,0.406,0.406,0.406,0.406,0.406,0.406,0.405,0.405,0.405,0.405,0.406,0.406,0.407,0.407,0.407,0.408,0.409,0,0,0.41,0.408,0.407,0.406,0,0,0,0.394,0.393,0.393,0.391,0.39,0.389,0.386,0.385,0.384,0.383,0.381,0.381,0.381,0.381,0.381,0.381,0.381,0.381,0.381,0.381,0.381,0.38,0.38,0.38,0.379,0.379,0.378,0.377,0.377,0.377,0.377,0.376,0.376,0.376,0.375,0.375,0.375,0.375,0.375,0.375,0.375,0.375,0.374,0.374,0.374,0.374,0.373,0.373,0.373,0,0,0.373,0.373,0.373,0.373,0.373,0.373,0.373,0.373,0.373,0.373,0.373,0.373,0.373,0.373,0.373,0.373,0,0,0,0.373,0,0,0,0,0,0,0,0,0,0,0,0,0,0,0,0,0,0,0,0,0,0,0,0,0,0,0,0,0,0,0,0,0,0,0,0,0,0,0,0,0,0,0,0,0,0,0,0,0,0,0,0,0,0,0,0,0,0,0,0,0,0,0,0,0,0,0,0,0
0.508,0.508,0.508,0.508,0.508,0.508,0.508,0.508,0.507,0.507,0.507,0.506,0.505,0.505,0.504,0.504,0.503,0.503,0.502,0.502,0.502,0.502,0.502,0.501,0.501,0.501,0.501,0.501,0.501,0.5,0.5,0.5,0.5,0.5,0.499,0.499,0.499,0.499,0.498,0.497,0.497,0.497,0.496,0.496,0.496,0.496,0.496,0.496,0.496,0.496,0.496,0.496,0.495,0.495,0.495,0.494,0.493,0.492,0.491,0.49,0.489,0.489,0.488,0.488,0.488,0.488,0.488,0.489,0.489,0.489,0.489,0.489,0.489,0.489,0.489,0.489,0.489,0.489,0.488,0.488,0.488,0.487,0.487,0.486,0.485,0.484,0.483,0,0.483,0.482,0.482,0.482,0.482,0.481,0.481,0.481,0.481,0.481,0.481,0.481,0.482,0.481,0.481,0.481,0.481,0.481,0.481,0.481,0.482,0.482,0.481,0.481,0.481,0.481,0,0,0,0,0,0.478,0.477,0.477,0.476,0.476,0.476,0.475,0.475,0.475,0.475,0.475,0.476,0.476,0.476,0.476,0.476,0.475,0.475,0,0,0.472,0.472,0.471,0.471,0.471,0.47,0.47,0.47,0.469,0.469,0.469,0.469,0.469,0.469,0.47,0.47,0.47,0.469,0.469,0.469,0.469,0.469,0.469,0.468,0.468,0.468,0.468,0.467,0.467,0.466,0.466,0.466,0.466,0.465,0.465,0.465,0.465,0.465,0.464,0.464,0.464,0.463,0,0,0.463,0.462,0.462,0.462,0.462,0.461,0.461,0.46,0.46,0.46,0.46,0.46,0.459,0.459,0.458,0.458,0.458,0.457,0.457,0.457,0.457,0.457,0.456,0.456,0.456,0.456,0.456,0.456,0.456,0.456,0.456,0.456,0,0,0.455,0.455,0.455,0.454,0.453,0.453,0.453,0.453,0.453,0.452,0.452,0.452,0.452,0.452,0.452,0.452,0.452,0.451,0.451,0.451,0.45,0.449,0.448,0.448,0.448,0.447,0.447,0.447,0.447,0.447,0.447,0.446,0.446,0.446,0.446,0.446,0.446,0.446,0.445,0.445,0.445,0.445,0.445,0.444,0.444,0.443,0.443,0.442,0.442,0.441,0.441,0.441,0.441,0.441,0.44,0.44,0.44,0.44,0.44,0.44,0.44,0,0,0,0.439,0.438,0.438,0.438,0.438,0.439,0.439,0.439,0.438,0.438,0.439,0.438,0.439,0.439,0.439,0.439,0.439,0.438,0.438,0.437,0.436,0.436,0.435,0.435,0.434,0.434,0.433,0.433,0.432,0.432,0.432,0.431,0.431,0.431,0.431,0.431,0.431,0.431,0.431,0.43,0.43,0.43,0.43,0.43,0.429,0.429,0.429,0.429,0.429,0.429,0,0,0.428,0.427,0.427,0.427,0.427,0.426,0.426,0,0,0.426,0.426,0.426,0.426,0.425,0.425,0.425,0.425,0.425,0.425,0.424,0.424,0.424,0.424,0.424,0.424,0.424,0.424,0.425,0.424,0.423,0.423,0.423,0.422,0.422,0.421,0.421,0.42,0.42,0,0,0,0.418,0.417,0.417,0.417,0.417,0.416,0.416,0.416,0.416,0.416,0.416,0.416,0.415,0.415,0.415,0.415,0.415,0.415,0.415,0.415,0.415,0.415,0.414,0.414,0.414,0.413,0.412,0.412,0.412,0.412,0.411,0.411,0.411,0.411,0.411,0.411,0.411,0.411,0.411,0.411,0.411,0.411,0.411,0.411,0.411,0.411,0.411,0.411,0.411,0.41,0.41,0.409,0.407,0.406,0.406,0.406,0.406,0.406,0.406,0.406,0.406,0.406,0.405,0.405,0.405,0.405,0.405,0.405,0.404,0.404,0.404,0.403,0.403,0.404,0,0.405,0.405,0.405,0.405,0.406,0.407,0.407,0,0,0.405,0,0.403,0.399,0,0.395,0.393,0.392,0.392,0.391,0.39,0.389,0.385,0.385,0.381,0.381,0.381,0.38,0.38,0.38,0.38,0.38,0.38,0.379,0.379,0.379,0.379,0,0.378,0.377,0.377,0.377,0.377,0.377,0.376,0.376,0.375,0.375,0.374,0.374,0.374,0.373,0.373,0.373,0.373,0.373,0.373,0.373,0.373,0.372,0.372,0.371,0.371,0.371,0.371,0.371,0.371,0.371,0.372,0.371,0.372,0.372,0.372,0.372,0.372,0.372,0.372,0.372,0.371,0.371,0.371,0.371,0.372,0.372,0.37,0.37,0,0,0,0,0,0,0,0,0,0,0,0,0,0,0,0,0,0,0,0,0,0,0,0,0,0,0,0,0,0,0,0,0,0,0,0,0,0,0,0,0,0,0,0,0,0,0,0,0,0,0,0,0,0,0,0,0,0,0,0,0,0,0,0,0,0,0,0,0,0
0.505,0.506,0.505,0.506,0.505,0.505,0.505,0.504,0.504,0.504,0.503,0.503,0.502,0.502,0.502,0.502,0.502,0.501,0.501,0.501,0.501,0.5,0.5,0.499,0.499,0.499,0.499,0.499,0.498,0.498,0.497,0.497,0.498,0.497,0.497,0.496,0.496,0.496,0.496,0.496,0.495,0.495,0.495,0.495,0.495,0.495,0.495,0.495,0.495,0.494,0.494,0.494,0.494,0.493,0.492,0.491,0.49,0.489,0.489,0.488,0.488,0.488,0.487,0.487,0.487,0.487,0.488,0.488,0.488,0.488,0.488,0.488,0.488,0.488,0.488,0.487,0.487,0.486,0.486,0.485,0.484,0.483,0.483,0.482,0.482,0.482,0.482,0.481,0.481,0.481,0.481,0.48,0.48,0.479,0.479,0.479,0.479,0.479,0.479,0.479,0.478,0,0.478,0.478,0,0.477,0.478,0.478,0.478,0.477,0.477,0,0.477,0.476,0.476,0,0,0.475,0.475,0.475,0.474,0.474,0.473,0.472,0.472,0.472,0.472,0.472,0.473,0.473,0.473,0.473,0.473,0,0.472,0.472,0.471,0.47,0.47,0.47,0.47,0.469,0.469,0.469,0.469,0.469,0.468,0.467,0.467,0.467,0.467,0.466,0.466,0.465,0.465,0.468,0.468,0.467,0.467,0.467,0.466,0.466,0.466,0.465,0.465,0.465,0.464,0.464,0.464,0.464,0.464,0.464,0.464,0.463,0.463,0.463,0.463,0.463,0,0.462,0,0,0,0.46,0.459,0.458,0.458,0.458,0.458,0.458,0.458,0.458,0.458,0.458,0.458,0.457,0.457,0.457,0.456,0.455,0.455,0.455,0.454,0.454,0.453,0.453,0.453,0.453,0.453,0.452,0.452,0.452,0.452,0.452,0.452,0,0,0.452,0.452,0.452,0.452,0.452,0.452,0.452,0.452,0.451,0.451,0.449,0,0.45,0.45,0.45,0.449,0.448,0.448,0.448,0.447,0.447,0.446,0.446,0.446,0.446,0.446,0.446,0.446,0.445,0.445,0.444,0.444,0.444,0.444,0.444,0.443,0.443,0,0.442,0.442,0.442,0.442,0.442,0.441,0.441,0.441,0.441,0.441,0.441,0.44,0.44,0.44,0.439,0.439,0.439,0.438,0.438,0.438,0.437,0.437,0.437,0.437,0.436,0.436,0.436,0.436,0.436,0.436,0.436,0.436,0.436,0.436,0.437,0.437,0.437,0.436,0.436,0.436,0.437,0.437,0.436,0.436,0.435,0.435,0.435,0.434,0.432,0.431,0.431,0.431,0.431,0.431,0.431,0.431,0.431,0.43,0.43,0.43,0.43,0.43,0.43,0.429,0.429,0.428,0.428,0.427,0.427,0.427,0.426,0.426,0.426,0.426,0.426,0.426,0,0,0,0.425,0.425,0.425,0.425,0.425,0.425,0,0,0,0.425,0.424,0.424,0.424,0.423,0.423,0.422,0.422,0.421,0.421,0.421,0.421,0.421,0.421,0.421,0.422,0.422,0.421,0.421,0.421,0.421,0.421,0.421,0.421,0.42,0.419,0.419,0.418,0.417,0.417,0.417,0.417,0.416,0.416,0.416,0.416,0.416,0.415,0.415,0.414,0.414,0.414,0.413,0.413,0.413,0.413,0.413,0.412,0.413,0.412,0.412,0.412,0.412,0.412,0.411,0.411,0.411,0.411,0.411,0.411,0.411,0.41,0.41,0.41,0.41,0.409,0.409,0.409,0.409,0.409,0.409,0.409,0.409,0.409,0.409,0.409,0.409,0,0.408,0,0,0.405,0.405,0.405,0.405,0.404,0.404,0.404,0.404,0.404,0.404,0.404,0.404,0.404,0.404,0.404,0.403,0.403,0.402,0.402,0.402,0.402,0,0,0.402,0.402,0.402,0.402,0.402,0,0.404,0.404,0,0,0,0,0,0.399,0,0,0.394,0.393,0.393,0.392,0.391,0.39,0.389,0.385,0.384,0.381,0.38,0.379,0.379,0.379,0.378,0.378,0.378,0.378,0.378,0.378,0.378,0.377,0.377,0.377,0.377,0.377,0.376,0.376,0.375,0.374,0.374,0.374,0.373,0.373,0.373,0.373,0.372,0.372,0.372,0.372,0.371,0.371,0.371,0.37,0.37,0.37,0.37,0.369,0.369,0.369,0.369,0.369,0.369,0.369,0.369,0.369,0,0.37,0.369,0.369,0,0.37,0.369,0.369,0.369,0.369,0.369,0.369,0.369,0.369,0.369,0,0,0,0,0,0,0,0,0,0,0,0,0,0,0,0,0,0,0,0,0,0,0,0,0,0,0,0,0,0,0,0,0,0,0,0,0,0,0,0,0,0,0,0,0,0,0,0,0,0,0,0,0,0,0,0,0,0,0,0,0,0,0,0,0,0,0,0,0,0
0.504,0.504,0.504,0.504,0.503,0.503,0.502,0.502,0.502,0.502,0.501,0.501,0.5,0.5,0.499,0.499,0.499,0.498,0.497,0.497,0.497,0.497,0.497,0.496,0.496,0.496,0.496,0.496,0.495,0.495,0.495,0.495,0.495,0.495,0.495,0.495,0.495,0.494,0.494,0.493,0.493,0.493,0.492,0.492,0.492,0.491,0.491,0.491,0.491,0.49,0.49,0.489,0.489,0.489,0.488,0.487,0.487,0.487,0.486,0.486,0.485,0.485,0.485,0.485,0.484,0.485,0.485,0.485,0.485,0.485,0.485,0.485,0.485,0.485,0.484,0.483,0.483,0.482,0.482,0.482,0.482,0.481,0.481,0.481,0.48,0.479,0.479,0.479,0.478,0.478,0.477,0.477,0.476,0.476,0.477,0.477,0.476,0.476,0.476,0.476,0.476,0.476,0.476,0.475,0.475,0.475,0.475,0.475,0.475,0.475,0.475,0.475,0.474,0.473,0.473,0.471,0.471,0.47,0.47,0.47,0.47,0.47,0.47,0.469,0.469,0.469,0.469,0.47,0.47,0.47,0.47,0.47,0,0,0,0.469,0.469,0.469,0.468,0.468,0.468,0.467,0.467,0.466,0.466,0.465,0.465,0.464,0.464,0.464,0.464,0,0,0,0.463,0.463,0.463,0.463,0.464,0.464,0.464,0.464,0.464,0.463,0.463,0.463,0.463,0.463,0,0.462,0.462,0.462,0.462,0.461,0.461,0.46,0.46,0.46,0.459,0.458,0.458,0.458,0.458,0.457,0.457,0.457,0.457,0.457,0.457,0.457,0.457,0.456,0.456,0.456,0.455,0.455,0.454,0.454,0.453,0.453,0.453,0.452,0.452,0.452,0.452,0.452,0.452,0.452,0.452,0.451,0.451,0.451,0.451,0.451,0.451,0.45,0.45,0.45,0.45,0.451,0.45,0.45,0.45,0.449,0.449,0.448,0.448,0.447,0.448,0.447,0.447,0.447,0.447,0.447,0.446,0.446,0.446,0.446,0.445,0.444,0.444,0.443,0.443,0.443,0.442,0.442,0.442,0,0.441,0.441,0.441,0.441,0.441,0.441,0.441,0.441,0.441,0.441,0.441,0.44,0.44,0.44,0.44,0.439,0.439,0.438,0.437,0.437,0.437,0.437,0.437,0.437,0.437,0.436,0.436,0.436,0.436,0.436,0.436,0.435,0.435,0.435,0.435,0.435,0.435,0.435,0.436,0.435,0.435,0.435,0.435,0.435,0.435,0.435,0.435,0.435,0.434,0.433,0.432,0.432,0.432,0.431,0.431,0.431,0.43,0.43,0.429,0.429,0.429,0.429,0.429,0.428,0.428,0.427,0.427,0.427,0.426,0.426,0.426,0.426,0.426,0.426,0.426,0.425,0.425,0.425,0.425,0.425,0.424,0.425,0,0,0,0,0.422,0.423,0.423,0.423,0.422,0.422,0.422,0,0,0.422,0.421,0.421,0.421,0.421,0.421,0.421,0.42,0.42,0.42,0.42,0.42,0.42,0.42,0.42,0.42,0.42,0.42,0,0,0,0.419,0.419,0.418,0.417,0.416,0.416,0.416,0.416,0.416,0.416,0.415,0.415,0.415,0.414,0.414,0.414,0.413,0.412,0.412,0.411,0.411,0.411,0.411,0.411,0.411,0.411,0.411,0.411,0.411,0.411,0.411,0.41,0.41,0.41,0.41,0.409,0.409,0.409,0.409,0.408,0.408,0.408,0.408,0.407,0.407,0.407,0.407,0.407,0.407,0.407,0.407,0.407,0.407,0.407,0.407,0.406,0.406,0,0.403,0.403,0.402,0.402,0.402,0.402,0.402,0.402,0.402,0.402,0.402,0.402,0.402,0.402,0.402,0.402,0.402,0.402,0.402,0.401,0.401,0.4,0.399,0.399,0,0.399,0.399,0.4,0,0,0,0,0.401,0.401,0.4,0.399,0,0.398,0.397,0.397,0,0.394,0.393,0.392,0.392,0.391,0.39,0.389,0.385,0,0.379,0.378,0.378,0.377,0.377,0.377,0.377,0.377,0.376,0.376,0.376,0.376,0.376,0.376,0.375,0.375,0.374,0.374,0.374,0.373,0.373,0.373,0.373,0.372,0.371,0.371,0.37,0.37,0.37,0.37,0.37,0.37,0.37,0.37,0.369,0.369,0.369,0.369,0.368,0.368,0.368,0.368,0.368,0.367,0.367,0.368,0.368,0.368,0.368,0.368,0.368,0.368,0.368,0.368,0.368,0.367,0.368,0.368,0.368,0.367,0.366,0.366,0,0,0,0,0,0,0,0,0,0,0,0,0,0,0,0,0,0,0,0,0,0,0,0,0,0,0,0,0,0,0,0,0,0,0,0,0,0,0,0,0,0,0,0,0,0,0,0,0,0,0,0,0,0,0,0,0,0,0,0,0,0,0,0,0,0,0,0,0,0
0.502,0.503,0.502,0.502,0.502,0.502,0.502,0.501,0.501,0.499,0.498,0.497,0.497,0.496,0.496,0.496,0.495,0.495,0.495,0.495,0.495,0.495,0.495,0.495,0.495,0.495,0.495,0.494,0.494,0.493,0.493,0.493,0.492,0.492,0.492,0.492,0.491,0.491,0.49,0.49,0.489,0.489,0.489,0.489,0.489,0.488,0.488,0.488,0.488,0.488,0.487,0.486,0.485,0.484,0.483,0.483,0.482,0.482,0.482,0.482,0.482,0.482,0.482,0.482,0.482,0.482,0.482,0.482,0.482,0.482,0.482,0.482,0.482,0.482,0.482,0.481,0.481,0.481,0.48,0.479,0.479,0.478,0.477,0.477,0.476,0.476,0.476,0.476,0.475,0.475,0.475,0.475,0.475,0.475,0.475,0.475,0.475,0.475,0.475,0.474,0.474,0.473,0.473,0.472,0.472,0.471,0.472,0.472,0.471,0.471,0.47,0.47,0.47,0.469,0.469,0.469,0.468,0.468,0.468,0.468,0.468,0.468,0.468,0.467,0.467,0.467,0.467,0.467,0.467,0.467,0.467,0.467,0.467,0.467,0.467,0.465,0.465,0.465,0.465,0.464,0.464,0.464,0.464,0.464,0.463,0.463,0.463,0.463,0.462,0.462,0.461,0,0,0.46,0.46,0.46,0.46,0.46,0.459,0.463,0.462,0.462,0.462,0.461,0.46,0.46,0.459,0,0.458,0.458,0.459,0.459,0.458,0.458,0.458,0.458,0.458,0.457,0.457,0.456,0.456,0.456,0.455,0.455,0.455,0.456,0.455,0.456,0.456,0.455,0.454,0.453,0.453,0.453,0.452,0.452,0.452,0.452,0.452,0.452,0.451,0.451,0.451,0.451,0.451,0.45,0.45,0.45,0.449,0.449,0.448,0.447,0.447,0.447,0.447,0.447,0.447,0.447,0.447,0.447,0,0,0,0.447,0.447,0.446,0.446,0.446,0.446,0.446,0.446,0.446,0.446,0.446,0.445,0.444,0.444,0.443,0.442,0.441,0.441,0.441,0.441,0.441,0.441,0.44,0.44,0.44,0.44,0.44,0.44,0.439,0.439,0.439,0.438,0,0.438,0.438,0.438,0.437,0.437,0.437,0.436,0.436,0.436,0.436,0.436,0.436,0.436,0.436,0.436,0.436,0.435,0.435,0.435,0.435,0.435,0.435,0.434,0.434,0.433,0.433,0.433,0.433,0.433,0.433,0.433,0.433,0.433,0.433,0.433,0.432,0.432,0.432,0.432,0.431,0,0,0,0,0.43,0.43,0.429,0.427,0.427,0.426,0.426,0.426,0.426,0.426,0.426,0.426,0.426,0.425,0.425,0.425,0.425,0.425,0.425,0.425,0.425,0.425,0.425,0.425,0.424,0.424,0.423,0.422,0.422,0.421,0.421,0.421,0.421,0.421,0.421,0.421,0.421,0.421,0.421,0.421,0.42,0.42,0.42,0.42,0.42,0.42,0.42,0.42,0.419,0.419,0,0.418,0.418,0.418,0.418,0.417,0.417,0.417,0.418,0.418,0.417,0.417,0,0,0.416,0.416,0.416,0.416,0.415,0.415,0.414,0.414,0.415,0.414,0.414,0.413,0.413,0.412,0.412,0.412,0.411,0.411,0.411,0.41,0.41,0.41,0.41,0.41,0.41,0.409,0.409,0.409,0.409,0.408,0.408,0.408,0.407,0.407,0.407,0.407,0.407,0.407,0.407,0.407,0.407,0.406,0.406,0.406,0.406,0.406,0.406,0.406,0.406,0.406,0.406,0.406,0.406,0.406,0.403,0.402,0.402,0.402,0.402,0.401,0.401,0.401,0.401,0.401,0.401,0.401,0.401,0.401,0.401,0.401,0.401,0.401,0.401,0.401,0.401,0.4,0.399,0.399,0.398,0.398,0.397,0.397,0.397,0.397,0.397,0.397,0,0,0,0.398,0.398,0,0.397,0.397,0.397,0.397,0.396,0.395,0.394,0.394,0.392,0.392,0.391,0.391,0.39,0,0,0.38,0.378,0.377,0.377,0.377,0.376,0.376,0.376,0.375,0.374,0.374,0.374,0.373,0.373,0.373,0.373,0.373,0.373,0.373,0.372,0.372,0.371,0.37,0.37,0.37,0.369,0.369,0.369,0.369,0.369,0.369,0.369,0.369,0.369,0.368,0.368,0.368,0.367,0,0.367,0.366,0.366,0.366,0.366,0.366,0.366,0.366,0.366,0.366,0.366,0.366,0.366,0.366,0.366,0.366,0.366,0,0.366,0.366,0.366,0.366,0.366,0.366,0,0,0,0,0,0,0,0,0,0,0,0,0,0,0,0,0,0,0,0,0,0,0,0,0,0,0,0,0,0,0,0,0,0,0,0,0,0,0,0,0,0,0,0,0,0,0,0,0,0,0,0,0,0,0,0,0,0,0,0,0,0,0,0,0,0,0,0,0,0
0.502,0.502,0.502,0.502,0.502,0.501,0.5,0.498,0.497,0.496,0.495,0.495,0.495,0.495,0.494,0.493,0.493,0.493,0.493,0.493,0.493,0.493,0.492,0.493,0.492,0.491,0.491,0.49,0.49,0.49,0.49,0.489,0.489,0.489,0.489,0.489,0.489,0.488,0.488,0.488,0.488,0.487,0.487,0.486,0.485,0.485,0.485,0.484,0.483,0.483,0.482,0.482,0.482,0.481,0.481,0.48,0.48,0.48,0.48,0.48,0.48,0.48,0.48,0.48,0.48,0.481,0.48,0.48,0.48,0,0.48,0.479,0.48,0.479,0.478,0.478,0.477,0.477,0.476,0.476,0.476,0.475,0.474,0.473,0.473,0.473,0.473,0.473,0.472,0.472,0.472,0.472,0.472,0.472,0.472,0.472,0.473,0.472,0.472,0.471,0.471,0.47,0.47,0.469,0.469,0.469,0.469,0.469,0.469,0.469,0.468,0.468,0.468,0.467,0.466,0.466,0.465,0.465,0.465,0.465,0.465,0.465,0.465,0.464,0.464,0.464,0.464,0.464,0.463,0.463,0.463,0.463,0.463,0.463,0.463,0.463,0.462,0.463,0.463,0.462,0.462,0.461,0.461,0.461,0.461,0.46,0.459,0.458,0.458,0.458,0.458,0.458,0.458,0.458,0.458,0.458,0.458,0.458,0.458,0.457,0.457,0.457,0.458,0.458,0.458,0.457,0.457,0.457,0.457,0.457,0.457,0.457,0.457,0.457,0.456,0.455,0.455,0.453,0.453,0.453,0.453,0.453,0.453,0.453,0.453,0.453,0.453,0.453,0.453,0.452,0.452,0.452,0.452,0.451,0.451,0.451,0.45,0.449,0.448,0.448,0.448,0.448,0.447,0.447,0.447,0,0,0.447,0.447,0.447,0.446,0.446,0.446,0.446,0.446,0.445,0.445,0.445,0.445,0,0,0,0,0.445,0.445,0.444,0.444,0.443,0.444,0,0.444,0.444,0.443,0.442,0.442,0.442,0.441,0.441,0.441,0.441,0.44,0.44,0.439,0.439,0.438,0.437,0.437,0.437,0.437,0.437,0.436,0.436,0.436,0.436,0.436,0.436,0.436,0.436,0.436,0.436,0.436,0.435,0.435,0.435,0.435,0.433,0.433,0.433,0.433,0.433,0.433,0.433,0.433,0.433,0.432,0.432,0.433,0.433,0.432,0.432,0.432,0.432,0.431,0.431,0.431,0.431,0.431,0.431,0.431,0.431,0.431,0.431,0.431,0.43,0,0,0,0,0,0.427,0.426,0.426,0.426,0.426,0.425,0.425,0.425,0.425,0.425,0.425,0.425,0.425,0.424,0.424,0.424,0.424,0.423,0.423,0.423,0.423,0.423,0.423,0.422,0.422,0.422,0.421,0.421,0.421,0.42,0.42,0.42,0.419,0.419,0.419,0.419,0.419,0.419,0.419,0.419,0.418,0.418,0.417,0.417,0.416,0.417,0.417,0.417,0.416,0.416,0.416,0.416,0.416,0.416,0.416,0.416,0.416,0.416,0.416,0.416,0.416,0.415,0,0.415,0.415,0.415,0.415,0.414,0.414,0.414,0.413,0.412,0.412,0.412,0.412,0.412,0.411,0.411,0.411,0.411,0.411,0.41,0.409,0.409,0.409,0.408,0.408,0.408,0.408,0.407,0.407,0.407,0.407,0.407,0,0,0,0.406,0.406,0.406,0.406,0.406,0.406,0.405,0,0.405,0.405,0.405,0.405,0.405,0.404,0.404,0.404,0.404,0.404,0.404,0.404,0.402,0.402,0.402,0.4,0.4,0.399,0.399,0.398,0.398,0.398,0.399,0.399,0.399,0.398,0.398,0.398,0.398,0.398,0.398,0.398,0.398,0.398,0.398,0.398,0.398,0.397,0.396,0.396,0.395,0,0.394,0.394,0.394,0.394,0.394,0.394,0.394,0.394,0.394,0.394,0.394,0.394,0.394,0.394,0.394,0.394,0.393,0.393,0.392,0.391,0.391,0.39,0.389,0,0,0.378,0.377,0.377,0.376,0.375,0.374,0.374,0.374,0.373,0.373,0.373,0.373,0.372,0.372,0.372,0.371,0.37,0.37,0.37,0.37,0.369,0.369,0.369,0.369,0.369,0.369,0.368,0.368,0.367,0.367,0.367,0.367,0.366,0.366,0.366,0.366,0.366,0.366,0.366,0.366,0.366,0.366,0.365,0.365,0.365,0.365,0.365,0.365,0.365,0.365,0.365,0.365,0.365,0.365,0.365,0,0,0.365,0.365,0.365,0.364,0.364,0,0,0,0,0,0,0,0,0,0,0,0,0,0,0,0,0,0,0,0,0,0,0,0,0,0,0,0,0,0,0,0,0,0,0,0,0,0,0,0,0,0,0,0,0,0,0,0,0,0,0,0,0,0,0,0,0,0,0,0,0,0,0,0,0,0,0,0,0,0,0
0.501,0.501,0.501,0.501,0.501,0.498,0.497,0.495,0.495,0.494,0.493,0.492,0.491,0.491,0.49,0.49,0.489,0,0,0.489,0.489,0.489,0.489,0.489,0.489,0.489,0.489,0.488,0.488,0.488,0.488,0.488,0.487,0.487,0.487,0.487,0.487,0.486,0.485,0.484,0.483,0.483,0.482,0.482,0.482,0.482,0.481,0.481,0.481,0.48,0.48,0.479,0.477,0.477,0.477,0.477,0.477,0.477,0.477,0.477,0.477,0.477,0.477,0.477,0.477,0.477,0.476,0.476,0,0,0,0.476,0.476,0.476,0.475,0.475,0.475,0.474,0.473,0.472,0.471,0.471,0.47,0.47,0.47,0.47,0.47,0.47,0.47,0.47,0.47,0.47,0.47,0.47,0.47,0.47,0.47,0.47,0.47,0.47,0.469,0.469,0.469,0.468,0.468,0.468,0.468,0.468,0.467,0.467,0.467,0.466,0.466,0.465,0.465,0.464,0.464,0.464,0.464,0.464,0.464,0.463,0.463,0.463,0.463,0.463,0.462,0.461,0.46,0.46,0.46,0.46,0.459,0.459,0.459,0,0.459,0.459,0.459,0.459,0.458,0.458,0.458,0.458,0.457,0.457,0.457,0.456,0.456,0.456,0.455,0.455,0.455,0.455,0.455,0.455,0.455,0.455,0.455,0.455,0.454,0.453,0.453,0.453,0.452,0.455,0.454,0.454,0.453,0.453,0.453,0.453,0.453,0,0.452,0.452,0.452,0.452,0.452,0.452,0.452,0.452,0.452,0.452,0.452,0.452,0.452,0.451,0.451,0.45,0.45,0.448,0.448,0.448,0.448,0.447,0.447,0.447,0.446,0.446,0.446,0.446,0.446,0.446,0,0,0.446,0.446,0.445,0.445,0.444,0.444,0.443,0.443,0.443,0.443,0.442,0.442,0.442,0.442,0,0,0,0.442,0.442,0.441,0.441,0.441,0.441,0.441,0.442,0.441,0,0,0.441,0.44,0.44,0.439,0.439,0.438,0.438,0.438,0.437,0.436,0.436,0.436,0.436,0.435,0.435,0.435,0.435,0.435,0.435,0.435,0.434,0.435,0.435,0.434,0.434,0.434,0.433,0.433,0.433,0.432,0.432,0.432,0.431,0.431,0.431,0.431,0.431,0.431,0.431,0.431,0.431,0.431,0.431,0.431,0.431,0.43,0.43,0.43,0.43,0.43,0.43,0.43,0.43,0.43,0.43,0.429,0.429,0.429,0.428,0.426,0.426,0.425,0,0,0,0.425,0.425,0.424,0.424,0.424,0.424,0.423,0.423,0.423,0.423,0.423,0.422,0.422,0.422,0,0.421,0.421,0,0.421,0.421,0.421,0.421,0.42,0.42,0.42,0.42,0.42,0.42,0.418,0.418,0.417,0.417,0.417,0.417,0.417,0.417,0.417,0.417,0.416,0.416,0.416,0.416,0.416,0.416,0.415,0.415,0.415,0.415,0.414,0.414,0.414,0.414,0.414,0.414,0.414,0.414,0.414,0.414,0.414,0.414,0.414,0.414,0.413,0.413,0.412,0.412,0.412,0.412,0.412,0.411,0.411,0.411,0.411,0.411,0.411,0.411,0.411,0,0,0.409,0.409,0.408,0.408,0.407,0.407,0.407,0.407,0.407,0.406,0.406,0.406,0.406,0.405,0.405,0.404,0.404,0.404,0.404,0.404,0.404,0.404,0.404,0.404,0.404,0.404,0.404,0.404,0.404,0.404,0.403,0.403,0.403,0.403,0.402,0.401,0.402,0.401,0.401,0.4,0.399,0.398,0.398,0.398,0.398,0.398,0.397,0.397,0.397,0.397,0.397,0.397,0.397,0.397,0.397,0.397,0.397,0.397,0.397,0.397,0.397,0.396,0.395,0.394,0.394,0.393,0.393,0.393,0.393,0.392,0.391,0.392,0.392,0.392,0.392,0.392,0.392,0.393,0.393,0.393,0.393,0.393,0.393,0.393,0.393,0.393,0.392,0.391,0.391,0.39,0.386,0,0,0.377,0.376,0.375,0.374,0.374,0.373,0.373,0.373,0.373,0,0.37,0.37,0.37,0.37,0,0,0,0,0.369,0.369,0.368,0.368,0.368,0.367,0.366,0.366,0.366,0.366,0.366,0.366,0.366,0.366,0.366,0.365,0.365,0.365,0.365,0.365,0.364,0.364,0.364,0.364,0.364,0.363,0.363,0.363,0.363,0.363,0.363,0.363,0.363,0.363,0.363,0.363,0.363,0.363,0.363,0.363,0.363,0.363,0.362,0.363,0,0,0,0,0,0,0,0,0,0,0,0,0,0,0,0,0,0,0,0,0,0,0,0,0,0,0,0,0,0,0,0,0,0,0,0,0,0,0,0,0,0,0,0,0,0,0,0,0,0,0,0,0,0,0,0,0,0,0,0,0,0,0,0,0,0,0,0,0,0,0
0,0,0.5,0.498,0.497,0.495,0.495,0.493,0.491,0.49,0.489,0.488,0.488,0.488,0.488,0.488,0.488,0.487,0.487,0.487,0.487,0.487,0.487,0.487,0.487,0.487,0.486,0.486,0.485,0.485,0.484,0.484,0.483,0.483,0.483,0.483,0.482,0.482,0.482,0.482,0.481,0.481,0.48,0.479,0.478,0.478,0.477,0.477,0.476,0.476,0.476,0.475,0.475,0.475,0.475,0.475,0.475,0.475,0.475,0.475,0.475,0.475,0.475,0.475,0.475,0.475,0.474,0.474,0.474,0.473,0.473,0.473,0.472,0.471,0.471,0.471,0.47,0.47,0.47,0.469,0.469,0.469,0.469,0.469,0.469,0.469,0.469,0.469,0.469,0.469,0.469,0.469,0.469,0.469,0.469,0.469,0.469,0.469,0.469,0.469,0.468,0.468,0.468,0.467,0.466,0.466,0.466,0.465,0.465,0,0.465,0.464,0.464,0.464,0.464,0.463,0.463,0.463,0.463,0.462,0.461,0.461,0.46,0.46,0.459,0.459,0.458,0.458,0.458,0.457,0.457,0.457,0.457,0.456,0,0,0,0.457,0.457,0.456,0.456,0.456,0.456,0.456,0.455,0.454,0.453,0.453,0.452,0.452,0.452,0.452,0.452,0.452,0.452,0.452,0.453,0.453,0.452,0.452,0.452,0.452,0.452,0.451,0.451,0.451,0.452,0.452,0.452,0.452,0.452,0.452,0.452,0.452,0.451,0.451,0.451,0.451,0.451,0.45,0.45,0.45,0.45,0.449,0.449,0.448,0.448,0.448,0.447,0.446,0.446,0.446,0.445,0.446,0.445,0.445,0.445,0.444,0.444,0.444,0.444,0.443,0.443,0.443,0.443,0.443,0.443,0.442,0.442,0.442,0.442,0.442,0.441,0.441,0.441,0.441,0.441,0.441,0.44,0.44,0.44,0.44,0.44,0,0.44,0.44,0.44,0,0.441,0.44,0,0,0,0,0.438,0.437,0.437,0.437,0.437,0.436,0.436,0.436,0.436,0.435,0.435,0.434,0.433,0.432,0.433,0.432,0.432,0.432,0.431,0.431,0.432,0.432,0.431,0.431,0.431,0.431,0.431,0.431,0.431,0.431,0.431,0.43,0.43,0.43,0.43,0.43,0.43,0.43,0.43,0.43,0.429,0.429,0.429,0.429,0.429,0,0,0,0.428,0.428,0.428,0.427,0.427,0.427,0,0.426,0.426,0.425,0.425,0.424,0.423,0.423,0.422,0.422,0.422,0.421,0.421,0.421,0.421,0.421,0.421,0.421,0.421,0.421,0.421,0.421,0.421,0.421,0.42,0.42,0.42,0.42,0.419,0.419,0.419,0.418,0.418,0.418,0.418,0.418,0,0.417,0.417,0.416,0.416,0.416,0.416,0.416,0.416,0.415,0.415,0.416,0.416,0.416,0.415,0.415,0.415,0.414,0.413,0.413,0.413,0.412,0.412,0.412,0.411,0.411,0.411,0.411,0.411,0.411,0.412,0.412,0.412,0.412,0.412,0.412,0.412,0.412,0.412,0.411,0.411,0.411,0.411,0.411,0.411,0.41,0.41,0.409,0.409,0.409,0.408,0,0,0,0.407,0.407,0.406,0.406,0.406,0.406,0.406,0.406,0.405,0.405,0.404,0.404,0.403,0.403,0.403,0.402,0.402,0.402,0.402,0.402,0.402,0.402,0.402,0.402,0.402,0.402,0.402,0.402,0.402,0.402,0.402,0.402,0.399,0.399,0.399,0.399,0.399,0.398,0,0.398,0.397,0.397,0.397,0.397,0.397,0.396,0.396,0.396,0.396,0.396,0.395,0.395,0.395,0.395,0.394,0.394,0.394,0.394,0.394,0.394,0.394,0.393,0.393,0,0.392,0.391,0.39,0.39,0.389,0.389,0.389,0.389,0.39,0.39,0.39,0.391,0.391,0,0.392,0.393,0.393,0.393,0.393,0.393,0.392,0.392,0.391,0.391,0.39,0.389,0.385,0,0.378,0.377,0.376,0.374,0.374,0.373,0.373,0.372,0.371,0.369,0.369,0.369,0.368,0.368,0.368,0.368,0.367,0.367,0.367,0.367,0.366,0.366,0.366,0.366,0.366,0.366,0.366,0.365,0.365,0.365,0.365,0.365,0.364,0.364,0.364,0.364,0.363,0.363,0.363,0.362,0.362,0.362,0.362,0.362,0.362,0.362,0.362,0.362,0.362,0.362,0.362,0.362,0.362,0.362,0.362,0.361,0.361,0.362,0.362,0.362,0.362,0.362,0.362,0,0,0,0,0,0,0,0,0,0,0,0,0,0,0,0,0,0,0,0,0,0,0,0,0,0,0,0,0,0,0,0,0,0,0,0,0,0,0,0,0,0,0,0,0,0,0,0,0,0,0,0,0,0,0,0,0,0,0,0,0,0,0,0,0,0,0,0,0,0,0
0,0,0,0.495,0,0,0.49,0.488,0.488,0.487,0.486,0.485,0.485,0.485,0.484,0.484,0.484,0.484,0.484,0.484,0.483,0.483,0.484,0.483,0.483,0.483,0.483,0.482,0.482,0.481,0.481,0.481,0.481,0.481,0.481,0.481,0.48,0.48,0.48,0.479,0.478,0.478,0.477,0.476,0.476,0.475,0.475,0.475,0.475,0.474,0.473,0.473,0.473,0.473,0.472,0.472,0.472,0.472,0.472,0.472,0.472,0.472,0.472,0.472,0.471,0.47,0.47,0.47,0.47,0.47,0.47,0.469,0.469,0.469,0.469,0.469,0.469,0.468,0.468,0.467,0.467,0.467,0.467,0.466,0.467,0.467,0.466,0.467,0.466,0.467,0.467,0.467,0.467,0.467,0.467,0.467,0.467,0.467,0.467,0.466,0.465,0.465,0.465,0.465,0.465,0.464,0.464,0.464,0.464,0.464,0.463,0.463,0.463,0.463,0.461,0.461,0.46,0.459,0.459,0.458,0.458,0.458,0.457,0.457,0.457,0.457,0.457,0.456,0.455,0.455,0.455,0.454,0.453,0,0,0,0.453,0.453,0.453,0.453,0.453,0.453,0.453,0.452,0.452,0.452,0.452,0.451,0.451,0.451,0.451,0.451,0.45,0.451,0.451,0.451,0.452,0.451,0.451,0.451,0.45,0.45,0.449,0.448,0.448,0.448,0.448,0.447,0.447,0.449,0.449,0.45,0.45,0.45,0.449,0.449,0.448,0.448,0.448,0.447,0.447,0.447,0.447,0.447,0.447,0.446,0.446,0.445,0.444,0.444,0.443,0.442,0.442,0.442,0.442,0.442,0.442,0.442,0.442,0,0.441,0.441,0.441,0.441,0.441,0.441,0.441,0.441,0.441,0.441,0.441,0.44,0.439,0.439,0.439,0.438,0.438,0.437,0.437,0.437,0.438,0.438,0.438,0.438,0.438,0.438,0.439,0.439,0.439,0.438,0.437,0,0,0.436,0.436,0.436,0.436,0.436,0.436,0.435,0.435,0.435,0.434,0.432,0.432,0.432,0.431,0.431,0.431,0.431,0.431,0.43,0.43,0.43,0.43,0.43,0.43,0.43,0.43,0.43,0.429,0.429,0.429,0.428,0.428,0.428,0.428,0.428,0.428,0.427,0.428,0.427,0.427,0.426,0.426,0.426,0.426,0,0,0,0,0.425,0.426,0.425,0.425,0.425,0.425,0,0,0,0.424,0.423,0.422,0.421,0.421,0.421,0.42,0.42,0.42,0.42,0.42,0.42,0.42,0.42,0.42,0.42,0.42,0.42,0.42,0.419,0.419,0.419,0.418,0.418,0.417,0.417,0.416,0.416,0.416,0.416,0.416,0.416,0.416,0.416,0,0.416,0.415,0.415,0.415,0.415,0.415,0.414,0.414,0.414,0.414,0.414,0,0,0.413,0.413,0.412,0.412,0.412,0.411,0.411,0.411,0.411,0.411,0.41,0.41,0.411,0.411,0.411,0.411,0.411,0.411,0.411,0.411,0.411,0.411,0.411,0.411,0.411,0.411,0.411,0.41,0.41,0.408,0.408,0.407,0.407,0.407,0.407,0.407,0.406,0,0,0,0.406,0.405,0.405,0.404,0.404,0.404,0.403,0.403,0.402,0.402,0.402,0.402,0.402,0.402,0.401,0.401,0.401,0.4,0.401,0.401,0.401,0.401,0.401,0.401,0.401,0.401,0.401,0.401,0.4,0.398,0.398,0.398,0.398,0.398,0.397,0.397,0.397,0,0.397,0,0,0,0.394,0.394,0.394,0.394,0.394,0.394,0.394,0.394,0.393,0.393,0.393,0.393,0.393,0.393,0.393,0.393,0.392,0.392,0.392,0.391,0.39,0.39,0.389,0.389,0.389,0.389,0.389,0.389,0.389,0.389,0.389,0.389,0.389,0.389,0.389,0.39,0.391,0.391,0.391,0.392,0.392,0.392,0.392,0.391,0.391,0.39,0.39,0.389,0.388,0.382,0,0.376,0.374,0.374,0.373,0.373,0.372,0.371,0.369,0.368,0.367,0.366,0.366,0.366,0.366,0.366,0.365,0.365,0.365,0.365,0.365,0.365,0.365,0.365,0.364,0.364,0.364,0.364,0.364,0.364,0.363,0.363,0.363,0.363,0.362,0.362,0.362,0.362,0.362,0.362,0.361,0.361,0.361,0.361,0.361,0.361,0.361,0.36,0.36,0.36,0.36,0.36,0.36,0.36,0.359,0.359,0.359,0.359,0.359,0.359,0.36,0.36,0.36,0,0,0,0,0,0,0,0,0,0,0,0,0,0,0,0,0,0,0,0,0,0,0,0,0,0,0,0,0,0,0,0,0,0,0,0,0,0,0,0,0,0,0,0,0,0,0,0,0,0,0,0,0,0,0,0,0,0,0,0,0,0,0,0,0,0,0,0,0,0,0
0,0,0,0,0,0,0,0.484,0.483,0.483,0.483,0.482,0.482,0.482,0.482,0.482,0.482,0.482,0.482,0.482,0.482,0.482,0.482,0.482,0.481,0.481,0.479,0.479,0.478,0.477,0.477,0.477,0.477,0.477,0.477,0.477,0.476,0.476,0.476,0.476,0.476,0.475,0.475,0.474,0.474,0.473,0.473,0.472,0.472,0.471,0.471,0.47,0.47,0.47,0.47,0.47,0.47,0.47,0.469,0.469,0.469,0.47,0.469,0.469,0.469,0.469,0.469,0.469,0.469,0.468,0.468,0.468,0.468,0.468,0.467,0,0.467,0.465,0.465,0,0,0.464,0.464,0.464,0.464,0.465,0.465,0.464,0.464,0.465,0.464,0.464,0.464,0.464,0.464,0.464,0.464,0.464,0.463,0.463,0.463,0.463,0.463,0.463,0.463,0.463,0.463,0.463,0.462,0.461,0.46,0.459,0.459,0.458,0.458,0.458,0.457,0.457,0.457,0.456,0.456,0.455,0.453,0.453,0.453,0.453,0,0.452,0.452,0.452,0.452,0.452,0.452,0.451,0.451,0.451,0.451,0.451,0.451,0.451,0.451,0.451,0.451,0.451,0.45,0.449,0.449,0.449,0.449,0.448,0.448,0.448,0.448,0.448,0.448,0.449,0.448,0.448,0.448,0.448,0.447,0.447,0.447,0.446,0.446,0.446,0.446,0.446,0.446,0.446,0.446,0.447,0.447,0.447,0.447,0.447,0.447,0.447,0.446,0.446,0.446,0.445,0.445,0.444,0.444,0.443,0.443,0.442,0.442,0.441,0.441,0.441,0.441,0.441,0.441,0.441,0.441,0.441,0.441,0.441,0.44,0.44,0.441,0.441,0.441,0.44,0.44,0.439,0.439,0.438,0.437,0.437,0.436,0.436,0.436,0.436,0.436,0.436,0.436,0.436,0.436,0.436,0.436,0.436,0.436,0.436,0.437,0.436,0.437,0.436,0.436,0.435,0.435,0.435,0.435,0.434,0.434,0.433,0,0.432,0.432,0.431,0.431,0.431,0.431,0.43,0.43,0.43,0.43,0.43,0.429,0.429,0.429,0.428,0.428,0.428,0.428,0.427,0.427,0,0,0.426,0.426,0.426,0.426,0.426,0.425,0.425,0.425,0.425,0.425,0.425,0.425,0.425,0.425,0.425,0.424,0,0,0,0,0.423,0.423,0.423,0.423,0.423,0,0,0,0,0.421,0.421,0.42,0.42,0.42,0.419,0.419,0.419,0.419,0.419,0.419,0.419,0.419,0.419,0.419,0.418,0.418,0.418,0.417,0.417,0.417,0.416,0.416,0.416,0.416,0.415,0.415,0.415,0.415,0.415,0.414,0.414,0.414,0.414,0.413,0.413,0.413,0.412,0.412,0.412,0.412,0.412,0.411,0.411,0.411,0.411,0,0.411,0.411,0.411,0.411,0.411,0.41,0.41,0.41,0.409,0.409,0.408,0.408,0.408,0.409,0.409,0.409,0.409,0.41,0.411,0.411,0.411,0.411,0.411,0.411,0.411,0.411,0.41,0.41,0.408,0.407,0.407,0.406,0.406,0.406,0.406,0.405,0.405,0.404,0.404,0.404,0.404,0.403,0.402,0.402,0.402,0.402,0.402,0.401,0.401,0.401,0.401,0.4,0.4,0.399,0.399,0.399,0.399,0.398,0.398,0.398,0.399,0.399,0.399,0.398,0.398,0,0.399,0.399,0.397,0.397,0.397,0.396,0.396,0.396,0.396,0.395,0.395,0.394,0.394,0.394,0.394,0,0.393,0.393,0.393,0.393,0.393,0.393,0.392,0.392,0.392,0.392,0.392,0.391,0.391,0.391,0.391,0.391,0.39,0.39,0.389,0.389,0.389,0,0,0,0.388,0.388,0.388,0.388,0.388,0.388,0.388,0.387,0.388,0.388,0.388,0.389,0.389,0.389,0.389,0.39,0.391,0.391,0.391,0.391,0.39,0.39,0.39,0.389,0.387,0,0.38,0.377,0.376,0.374,0.373,0.373,0.373,0.372,0.369,0.369,0.367,0.366,0.364,0.364,0.363,0.363,0.363,0.363,0.363,0.363,0.363,0.363,0.363,0.363,0.363,0.363,0.362,0.362,0.362,0.362,0.362,0.362,0.362,0.362,0.362,0.362,0.362,0.361,0.361,0.361,0.36,0.36,0.36,0.359,0.359,0.359,0.359,0.359,0.359,0.359,0.359,0.359,0.358,0.358,0.358,0.358,0.358,0.358,0.358,0.358,0.358,0.358,0,0.359,0,0,0,0,0,0,0,0,0,0,0,0,0,0,0,0,0,0,0,0,0,0,0,0,0,0,0,0,0,0,0,0,0,0,0,0,0,0,0,0,0,0,0,0,0,0,0,0,0,0,0,0,0,0,0,0,0,0,0,0,0,0,0,0,0,0,0,0,0,0,0
0,0,0,0,0,0,0,0,0.482,0.482,0.481,0.481,0.481,0.481,0.48,0.48,0.48,0.479,0.479,0.479,0.479,0.479,0.478,0.478,0.477,0.476,0.476,0.475,0.475,0.475,0.474,0.475,0.474,0.474,0.474,0.474,0.474,0.474,0.473,0.473,0.472,0.472,0.471,0.471,0.471,0.47,0.47,0.47,0.47,0.47,0.469,0.469,0.469,0.469,0.469,0.468,0.468,0.468,0.468,0.468,0.468,0.468,0.467,0.467,0.467,0.466,0.466,0.466,0.466,0.466,0.465,0.465,0.465,0.465,0,0.464,0.464,0.463,0.463,0.463,0.463,0.463,0.463,0.463,0.463,0.463,0.463,0.463,0.463,0.463,0.463,0.463,0.462,0.462,0.461,0.461,0.461,0.461,0.461,0.461,0.461,0.461,0.461,0.461,0.461,0.46,0.459,0.459,0.458,0.458,0.458,0.457,0.457,0.457,0.456,0.456,0.455,0.453,0.453,0.452,0.452,0.452,0.452,0.452,0.451,0.451,0.451,0.451,0.451,0.45,0.45,0.449,0.449,0.448,0.448,0.448,0.448,0.448,0.448,0.448,0.448,0.448,0.448,0.447,0.447,0.447,0.447,0.447,0.447,0.447,0.446,0.446,0.446,0.446,0.446,0.447,0.447,0.446,0.446,0.446,0.446,0.446,0.446,0.445,0.444,0.444,0.444,0.443,0.443,0.443,0.443,0.443,0.443,0.446,0.446,0.446,0.445,0.445,0.444,0.443,0.443,0.442,0.442,0.442,0.441,0.441,0.441,0.441,0.44,0.44,0.44,0.439,0.439,0.438,0.438,0.438,0.439,0.438,0.438,0.438,0.438,0,0.439,0.439,0.438,0.437,0.437,0.436,0.436,0.436,0.436,0.435,0.435,0.435,0.435,0.435,0.435,0.435,0.435,0.435,0.435,0.435,0.435,0.436,0.435,0.436,0.436,0.436,0.436,0.435,0.435,0.432,0.432,0.431,0.431,0.431,0.431,0.431,0.431,0.431,0.43,0.43,0.43,0.429,0.429,0.429,0.428,0.427,0.427,0.427,0.427,0.427,0,0.426,0.426,0.426,0.425,0,0.425,0,0.425,0.425,0.424,0.424,0.424,0.424,0,0,0,0,0.423,0.424,0.423,0.423,0.422,0.422,0.421,0.421,0.421,0,0.421,0.421,0.421,0.421,0.421,0.421,0.42,0.42,0.42,0.418,0.418,0.418,0.418,0.418,0.418,0.418,0.418,0.417,0.417,0.417,0.417,0.418,0.418,0.417,0.417,0.417,0.417,0.416,0.416,0.416,0.415,0.415,0.415,0.414,0.414,0.412,0.412,0.412,0.412,0.411,0.411,0.411,0.411,0.411,0.411,0.411,0.411,0.411,0.411,0.411,0.411,0.41,0.41,0.41,0.41,0.41,0.409,0.409,0.409,0.409,0.409,0.408,0.408,0.407,0.407,0.407,0.406,0.407,0.407,0.407,0.407,0.407,0.407,0,0.408,0.409,0.41,0.41,0.41,0.41,0.41,0.41,0.41,0,0.407,0.407,0.406,0,0,0.405,0.404,0.404,0.403,0.402,0.402,0.402,0.402,0.402,0.401,0.401,0.401,0.401,0.401,0.4,0.399,0.399,0.398,0.398,0.398,0.398,0.398,0.398,0.398,0.398,0.398,0.398,0.398,0.398,0.398,0.398,0.397,0.397,0.396,0.395,0.395,0.394,0.394,0.394,0.394,0.394,0.394,0.393,0.393,0.393,0.392,0.392,0.392,0.392,0.391,0.391,0.391,0.391,0.391,0.391,0.391,0.39,0.39,0.39,0.39,0.389,0.389,0.389,0.389,0.389,0.389,0.389,0.389,0.388,0.388,0.388,0.387,0.387,0.387,0.387,0.386,0.386,0.386,0.386,0.386,0.386,0.386,0.385,0.386,0.386,0.387,0.388,0.388,0.389,0.389,0.389,0.39,0.39,0.39,0.39,0.39,0.39,0.389,0.388,0,0.379,0.377,0.376,0.374,0.373,0.373,0.373,0.371,0.369,0.368,0.366,0.364,0.363,0.362,0.362,0.362,0.362,0.362,0.362,0.362,0.362,0.362,0.362,0.362,0.362,0.362,0.362,0.362,0.361,0.361,0.361,0.361,0.361,0.36,0.36,0.36,0.36,0.359,0.359,0.359,0.359,0.359,0.359,0.358,0.358,0.358,0.358,0.358,0.358,0.358,0.358,0.358,0.357,0.357,0.356,0.356,0.356,0.356,0.356,0.357,0.357,0.357,0.357,0,0,0,0,0,0,0,0,0,0,0,0,0,0,0,0,0,0,0,0,0,0,0,0,0,0,0,0,0,0,0,0,0,0,0,0,0,0,0,0,0,0,0,0,0,0,0,0,0,0,0,0,0,0,0,0,0,0,0,0,0,0,0,0,0,0,0,0,0,0,0,0
0,0,0,0,0,0,0.48,0.479,0.478,0.478,0.478,0.477,0.477,0.477,0.477,0.477,0.476,0.476,0.476,0.476,0.476,0.475,0.475,0.475,0.474,0.474,0.473,0.472,0.471,0.471,0.471,0.471,0.471,0.47,0.471,0.471,0.47,0.47,0.47,0.47,0.47,0.469,0.469,0.469,0.469,0.469,0.469,0.469,0.468,0.468,0.468,0.468,0.467,0.466,0.466,0.465,0.465,0.465,0.465,0.465,0.465,0.464,0.465,0.465,0.465,0.464,0.464,0.464,0.464,0.464,0.464,0.464,0.464,0.463,0.463,0.463,0.462,0.462,0.462,0.461,0.461,0.461,0.461,0.462,0.462,0.462,0.461,0.461,0.461,0.46,0.46,0.459,0.459,0.458,0.458,0.458,0.458,0.458,0,0.458,0.458,0.458,0.458,0.458,0.458,0.458,0.457,0.457,0.456,0.456,0.455,0.454,0.453,0.453,0.452,0.452,0.452,0.452,0.451,0.451,0.451,0.45,0.449,0.448,0.448,0.448,0.448,0.448,0.448,0.447,0.447,0.447,0.447,0.447,0.446,0.446,0.446,0.446,0.446,0.446,0.446,0.446,0.446,0.446,0.446,0.445,0.445,0.445,0.445,0.445,0.445,0.444,0.444,0.444,0.444,0.445,0,0,0,0,0.443,0.442,0.442,0.442,0.442,0.441,0.441,0.441,0.441,0.441,0.441,0.441,0,0.442,0.442,0.442,0.442,0.442,0.441,0.441,0.441,0.441,0.441,0.44,0.44,0.439,0.438,0.437,0.437,0.436,0.436,0.436,0.436,0.436,0.436,0.436,0.436,0.436,0.436,0.436,0.436,0.436,0.436,0.436,0.436,0.436,0.435,0.435,0.435,0.435,0.433,0.433,0.433,0.433,0.433,0.433,0.433,0.432,0.432,0.432,0.432,0.433,0.433,0.433,0.433,0,0,0.433,0.431,0.431,0.431,0.43,0.43,0.429,0.429,0.429,0.428,0.429,0.429,0.429,0.428,0.427,0.427,0.427,0.427,0.427,0.426,0.426,0.425,0.425,0.425,0.425,0.425,0.425,0.424,0.424,0.423,0,0.422,0.422,0.422,0.422,0.422,0.422,0.421,0.421,0.421,0,0,0,0.421,0.421,0.421,0.421,0.421,0.42,0.42,0.419,0.419,0.418,0.418,0.418,0.418,0.418,0.418,0.418,0.417,0.417,0.416,0.416,0.416,0.416,0.416,0.416,0.416,0.416,0.416,0.416,0.416,0.416,0.416,0.416,0.416,0.416,0.416,0.416,0.416,0.416,0.415,0.415,0.414,0.412,0.412,0.411,0.411,0.411,0.411,0.411,0.411,0.41,0.411,0.411,0.41,0.41,0.41,0.41,0.409,0.409,0.409,0.409,0.408,0.408,0.407,0.407,0.407,0.407,0.407,0.407,0.407,0.406,0.406,0.406,0.406,0.406,0.405,0.405,0.405,0.405,0.405,0.405,0.405,0.405,0.406,0,0.407,0.407,0,0.408,0.408,0.409,0.409,0.409,0.409,0.407,0.406,0.405,0.404,0,0,0.403,0.402,0.402,0.402,0.401,0.402,0.402,0.401,0.4,0.399,0.399,0.399,0.399,0.398,0.398,0.398,0.397,0.397,0.397,0.397,0.397,0.397,0.397,0.397,0.397,0.397,0.397,0.397,0.397,0.397,0.397,0.395,0.395,0.394,0.394,0.393,0.393,0.393,0.392,0.392,0.392,0.391,0.391,0.39,0.39,0.39,0.39,0.39,0.389,0.389,0.389,0.389,0.389,0.389,0.389,0.389,0.389,0.389,0.389,0.389,0.388,0.388,0.388,0.388,0.388,0.387,0.387,0.386,0.386,0.386,0.386,0.385,0.385,0.385,0.385,0.385,0.385,0.385,0.385,0.385,0.385,0.385,0.385,0.385,0.385,0,0.386,0.386,0.388,0.388,0.389,0.389,0.389,0.389,0.389,0.389,0.389,0.389,0.387,0,0.378,0.376,0.374,0.374,0.373,0.373,0.372,0.369,0,0,0.364,0.362,0.362,0.362,0.361,0.361,0.361,0.361,0.36,0.36,0.36,0.36,0.36,0.36,0.36,0.36,0.36,0.359,0.359,0.359,0.359,0.359,0.359,0.359,0.359,0.359,0.359,0.358,0.358,0.358,0.358,0.358,0.358,0.357,0.357,0.357,0.357,0.357,0.356,0.356,0.356,0.356,0.355,0.355,0.355,0.355,0,0.355,0.355,0.355,0.355,0,0,0,0,0,0,0,0,0,0,0,0,0,0,0,0,0,0,0,0,0,0,0,0,0,0,0,0,0,0,0,0,0,0,0,0,0,0,0,0,0,0,0,0,0,0,0,0,0,0,0,0,0,0,0,0,0,0,0,0,0,0,0,0,0,0,0,0,0,0,0,0,0,0
0,0,0,0,0.476,0.476,0.475,0.476,0.476,0.475,0.475,0.475,0.475,0.475,0.475,0.475,0.474,0.474,0.473,0.473,0.473,0.473,0.472,0.471,0.47,0.47,0.47,0.469,0.469,0.469,0.469,0.469,0.469,0.469,0.469,0.469,0.469,0.469,0.468,0.468,0.468,0.468,0.467,0.467,0.467,0.466,0.466,0.466,0.465,0.465,0.465,0.465,0.464,0.464,0.464,0.464,0.463,0.463,0.463,0.463,0.463,0.463,0.463,0.463,0.463,0.463,0.463,0.463,0.463,0.463,0.463,0.462,0.461,0.46,0.461,0.46,0.46,0.459,0.459,0.459,0.459,0.459,0.459,0.459,0.459,0.459,0.458,0.458,0.458,0.458,0.458,0.457,0.457,0,0.457,0.456,0.456,0.457,0.457,0,0.456,0.456,0.456,0.456,0.456,0.456,0.455,0.454,0.453,0.453,0.452,0.452,0.452,0.451,0.451,0.451,0.45,0.449,0.448,0.448,0.447,0.447,0.447,0.446,0.446,0.446,0.446,0.446,0.446,0.446,0.446,0.446,0.446,0.446,0.445,0.445,0.445,0.444,0.444,0.444,0.444,0.444,0.443,0.443,0.442,0.442,0.442,0.442,0.442,0.442,0.442,0.442,0.442,0.442,0.442,0.442,0,0,0,0.441,0.441,0.441,0.44,0.44,0.44,0.44,0.44,0.439,0.438,0.438,0.438,0.438,0.437,0,0,0,0.44,0.437,0.44,0.44,0.439,0.439,0.438,0.438,0.436,0.436,0.436,0.436,0.435,0.435,0.435,0.435,0.435,0.434,0.434,0.435,0.435,0.435,0.435,0.435,0.435,0.435,0.435,0.435,0,0,0,0.432,0.432,0.432,0.431,0.431,0.431,0.431,0.431,0.431,0.431,0.431,0.431,0.43,0.431,0.431,0.431,0,0,0,0,0.43,0.43,0.429,0.428,0.427,0.427,0.426,0.426,0.426,0.426,0.426,0.426,0.426,0.426,0.425,0.425,0.425,0.425,0.425,0.425,0.424,0.424,0.424,0.424,0.423,0.422,0.422,0.421,0.421,0.421,0.421,0.421,0.42,0.42,0.42,0.42,0.42,0.42,0.42,0.42,0.419,0.419,0.419,0.419,0.419,0.419,0.418,0.417,0.417,0.417,0.417,0.416,0.416,0.416,0.416,0.416,0.416,0.416,0.416,0.416,0.416,0.415,0.415,0.415,0.415,0.415,0.415,0.415,0.415,0.415,0.415,0.415,0.415,0.415,0.415,0.415,0.415,0.415,0.415,0.414,0.414,0.412,0,0.411,0.411,0.411,0.411,0.41,0.41,0.41,0.409,0.409,0.408,0.408,0.408,0.408,0.408,0.407,0.407,0.407,0.407,0.407,0.406,0.406,0.406,0.406,0.406,0.406,0.405,0.405,0.405,0.405,0.404,0.404,0.404,0.404,0.403,0.403,0.403,0.403,0.403,0.403,0.402,0.403,0,0,0,0,0.406,0.406,0.407,0.407,0.407,0,0,0,0,0.404,0.403,0.402,0.402,0.401,0.401,0.4,0.4,0.4,0.399,0.399,0.399,0.399,0.398,0,0,0.397,0.397,0.397,0.397,0.396,0.396,0.395,0.395,0.395,0.395,0.394,0.394,0.394,0.394,0.395,0.396,0.396,0.394,0.394,0.394,0.394,0.393,0.393,0.393,0.391,0.391,0.39,0.389,0.389,0.389,0.389,0.389,0.389,0.389,0.388,0.388,0.388,0.388,0.388,0.388,0.388,0.388,0.388,0.388,0.388,0.388,0.387,0.387,0.386,0.386,0.386,0.386,0.386,0.386,0.385,0.385,0.385,0.385,0.385,0.385,0.385,0.385,0.385,0.385,0.384,0.384,0.384,0.383,0.383,0.383,0.382,0.383,0.383,0.384,0.385,0.385,0.385,0,0.386,0.387,0.388,0.388,0.388,0.388,0,0.386,0.385,0,0.379,0,0.374,0.374,0.373,0.373,0.372,0.369,0,0,0.363,0.362,0.361,0.361,0.36,0.359,0.359,0.359,0.359,0.359,0.359,0.359,0.359,0.359,0.359,0.359,0.358,0.358,0.358,0.358,0.358,0.358,0.358,0.358,0.358,0.358,0.358,0.358,0.357,0.357,0.356,0.356,0.356,0.356,0.356,0.355,0.355,0.355,0.355,0.355,0.355,0.355,0.355,0.354,0.354,0.354,0.353,0.353,0.353,0.354,0.354,0.354,0,0,0,0,0,0,0,0,0,0,0,0,0,0,0,0,0,0,0,0,0,0,0,0,0,0,0,0,0,0,0,0,0,0,0,0,0,0,0,0,0,0,0,0,0,0,0,0,0,0,0,0,0,0,0,0,0,0,0,0,0,0,0,0,0,0,0,0,0,0,0,0,0,0
0,0,0,0,0.471,0.472,0.472,0.472,0.472,0.472,0.473,0.472,0.472,0.472,0.471,0,0,0,0.47,0.47,0,0.469,0.469,0.469,0.468,0.468,0.468,0.467,0.467,0.467,0.467,0.467,0.467,0.466,0.467,0.467,0.466,0.466,0.465,0.465,0.465,0.464,0.464,0.464,0.464,0.464,0.464,0.464,0.464,0.463,0.463,0.463,0.463,0.463,0.463,0.462,0.462,0.461,0.461,0.461,0.461,0.461,0.46,0.46,0.46,0.46,0.46,0.46,0.46,0.459,0.458,0.459,0.458,0.458,0.458,0.458,0.458,0.458,0.458,0.458,0.458,0.457,0.457,0.457,0.457,0.457,0.457,0.456,0.455,0.454,0.454,0.454,0.454,0.454,0.453,0.453,0.453,0.453,0.453,0.453,0.453,0.452,0.452,0.452,0.452,0.452,0.452,0.451,0.451,0.451,0.45,0.449,0.449,0.448,0.447,0.447,0.447,0.446,0.446,0.446,0.446,0.445,0.444,0.444,0.444,0.444,0.444,0.444,0.444,0.444,0.444,0.444,0.443,0.443,0.443,0.442,0.442,0.442,0,0.442,0.441,0.441,0.441,0.441,0.441,0.441,0.441,0.441,0.441,0.441,0.441,0.441,0.441,0.44,0.44,0.439,0,0,0.438,0.437,0.437,0.438,0.437,0.438,0.438,0.437,0.437,0.436,0.436,0.436,0.436,0.435,0.435,0,0,0.435,0.435,0.435,0.435,0.435,0.436,0.436,0.436,0.435,0.435,0.435,0.434,0.434,0.433,0.433,0.432,0.432,0.432,0.432,0.432,0.432,0.433,0.433,0.432,0.432,0.432,0.433,0.433,0.433,0,0,0,0.431,0.43,0.43,0.43,0.43,0.43,0.429,0.429,0.429,0.429,0.429,0,0.428,0.428,0.428,0.428,0,0,0,0,0.427,0,0,0.426,0,0.425,0.425,0.424,0.424,0.424,0.424,0.424,0.424,0,0,0,0.423,0.423,0.423,0.422,0.422,0.421,0.421,0.421,0.421,0.421,0.42,0.42,0.42,0.419,0.419,0.418,0.418,0.418,0.418,0.418,0.418,0.417,0.417,0.417,0.416,0.416,0.416,0.416,0.416,0.416,0,0.416,0.415,0.415,0.415,0.415,0.415,0.415,0.414,0,0.414,0.414,0.414,0.414,0.414,0.414,0.414,0.414,0.414,0.414,0.413,0.414,0.413,0.413,0.413,0,0,0.413,0.413,0.413,0.412,0.412,0.412,0.411,0.411,0.411,0.411,0.41,0.409,0.409,0.408,0.408,0.407,0.407,0.407,0.407,0.407,0.407,0.406,0.406,0.406,0.406,0.406,0.405,0.405,0.405,0.404,0.404,0.404,0.404,0.404,0.404,0.404,0.403,0.403,0.403,0.402,0.402,0.402,0.402,0.402,0.402,0.402,0.402,0.402,0.401,0.401,0.401,0.401,0,0,0,0.403,0,0.406,0.406,0,0,0.406,0.405,0.404,0.401,0.4,0.399,0.399,0.399,0.399,0.398,0.398,0.398,0.398,0.398,0.398,0.398,0.397,0,0,0,0.396,0.395,0.394,0.394,0.394,0.394,0.393,0.393,0.393,0.393,0.393,0.393,0.393,0.393,0.392,0.392,0.393,0.393,0.393,0.393,0.392,0.391,0.39,0.39,0.389,0.389,0.389,0.389,0.388,0.388,0.388,0.387,0.386,0.386,0.386,0.386,0.386,0.386,0.386,0.386,0.386,0.386,0.386,0.385,0.385,0.385,0.385,0.385,0.385,0.385,0.385,0.385,0.385,0.385,0.385,0.385,0.384,0.384,0.384,0.383,0.383,0.383,0.382,0.382,0,0,0.381,0.381,0.381,0.381,0.381,0.381,0.382,0.382,0.383,0.384,0.385,0.385,0.385,0.385,0.385,0,0,0,0,0,0,0.378,0.374,0.373,0.373,0.373,0.372,0.371,0.37,0,0,0.362,0,0,0,0.359,0.359,0.358,0.358,0.358,0.358,0.358,0.358,0.358,0.358,0.358,0.358,0.358,0.358,0.357,0.357,0.357,0,0.357,0.356,0.356,0.356,0.356,0.355,0.355,0.355,0.355,0.355,0.355,0.355,0.354,0.354,0.354,0.354,0.354,0.354,0.354,0.353,0.352,0.352,0.352,0.352,0.352,0.352,0.352,0.352,0.352,0,0,0,0,0,0,0,0,0,0,0,0,0,0,0,0,0,0,0,0,0,0,0,0,0,0,0,0,0,0,0,0,0,0,0,0,0,0,0,0,0,0,0,0,0,0,0,0,0,0,0,0,0,0,0,0,0,0,0,0,0,0,0,0,0,0,0,0,0,0,0,0,0,0,0
0,0,0,0,0,0,0,0,0.47,0.47,0.47,0.47,0.469,0.469,0.469,0.469,0.468,0.468,0.467,0.467,0.467,0.467,0.466,0.466,0.465,0.465,0.464,0.464,0.464,0.464,0.464,0.464,0.464,0.464,0.464,0.464,0.464,0.464,0.464,0.463,0.463,0.463,0.463,0.463,0.463,0.463,0.462,0.462,0.462,0.462,0.461,0.461,0.461,0.461,0.46,0.46,0.459,0.459,0.459,0.458,0.458,0.458,0.458,0.458,0.458,0.458,0.458,0.458,0.457,0.457,0.457,0.457,0.457,0.457,0.457,0.457,0.456,0.456,0.457,0.456,0.456,0.456,0.455,0.454,0.453,0.453,0.452,0.452,0.452,0.451,0.451,0.451,0.451,0.451,0.451,0.45,0.45,0.451,0.451,0.451,0.451,0.45,0,0.45,0.449,0.449,0.448,0.447,0.447,0.447,0.447,0.446,0.446,0.446,0.446,0.445,0.445,0.444,0.443,0.443,0.442,0.442,0.442,0.442,0.442,0.442,0.442,0.442,0.442,0.442,0.442,0.441,0.441,0.441,0.441,0.441,0.441,0.44,0.44,0.44,0.44,0.44,0.439,0.439,0.439,0.44,0.44,0.44,0.439,0.439,0.439,0.438,0.438,0.437,0.436,0.436,0.436,0.436,0.436,0.436,0.436,0.436,0.436,0.436,0.436,0.436,0.436,0.434,0.434,0.433,0.432,0.432,0.431,0.431,0.431,0.431,0.431,0.431,0.431,0.431,0.431,0.431,0.431,0.433,0.432,0.432,0.431,0.431,0.431,0.431,0.431,0.431,0.431,0,0.43,0.431,0.431,0.431,0.431,0.431,0.431,0.431,0.431,0.431,0,0.429,0.429,0.428,0.428,0.428,0.427,0.427,0.427,0.427,0.426,0.426,0.426,0,0,0.426,0.426,0.426,0.426,0,0,0,0,0.425,0,0,0,0.423,0.422,0.422,0.421,0.421,0.421,0.421,0.421,0.421,0,0,0,0.421,0.421,0.421,0.421,0.42,0.42,0.42,0.42,0.419,0.419,0.417,0.417,0.417,0.417,0.417,0.416,0.416,0.416,0.416,0.416,0.416,0.416,0.416,0.415,0.415,0.415,0.415,0.415,0.415,0,0,0,0,0.413,0.413,0.413,0.412,0,0,0,0,0.412,0.412,0.412,0.412,0.411,0,0.411,0.411,0.411,0.411,0.411,0.411,0.411,0,0,0,0.411,0.411,0.411,0.411,0.411,0.411,0.411,0.41,0.409,0.408,0.407,0.407,0.407,0.406,0.406,0.406,0.406,0.406,0.405,0.405,0.405,0.404,0.404,0.403,0.403,0.403,0.403,0.403,0.403,0.402,0.402,0.402,0.402,0.402,0.402,0.402,0.402,0.402,0.402,0.401,0.401,0.401,0.401,0.4,0.4,0.4,0.399,0.399,0.399,0.398,0.399,0.399,0.4,0.4,0,0.401,0.402,0.402,0,0.403,0.403,0.402,0.4,0.398,0.398,0.397,0.397,0.397,0.397,0.397,0.397,0.397,0.397,0.397,0.397,0.397,0.395,0,0,0,0.393,0.393,0.393,0.393,0.393,0.392,0.392,0.392,0.392,0.391,0.391,0.389,0.389,0.389,0.39,0.39,0,0,0,0,0,0,0,0.389,0.389,0.388,0.388,0.387,0.386,0.386,0.386,0.385,0.385,0.385,0.385,0.385,0.385,0.385,0.385,0.385,0.385,0.385,0.385,0.385,0.385,0.385,0.385,0.385,0.384,0.384,0.384,0.384,0.384,0.384,0.384,0.383,0.383,0.382,0.382,0.382,0.382,0.381,0.381,0.381,0,0,0,0.38,0.38,0.38,0.379,0.38,0.38,0.381,0.381,0.381,0.381,0.382,0.382,0.383,0.383,0,0,0,0,0.381,0,0,0.374,0,0.373,0.373,0.373,0.371,0.37,0,0.366,0.362,0.361,0,0,0.358,0.358,0.358,0.358,0.357,0.357,0.357,0.357,0.357,0.357,0.357,0.357,0.356,0.356,0.356,0.356,0.356,0.355,0.355,0.355,0.355,0.355,0.355,0.354,0.354,0.354,0.354,0.354,0.353,0.353,0.353,0.352,0.352,0.353,0.352,0.352,0.352,0.352,0.352,0.351,0.351,0.351,0.351,0.351,0.351,0.35,0.35,0.35,0.35,0,0,0,0,0,0,0,0,0,0,0,0,0,0,0,0,0,0,0,0,0,0,0,0,0,0,0,0,0,0,0,0,0,0,0,0,0,0,0,0,0,0,0,0,0,0,0,0,0,0,0,0,0,0,0,0,0,0,0,0,0,0,0,0,0,0,0,0,0,0,0,0,0,0
0,0,0,0,0.465,0.465,0.465,0.465,0.465,0.465,0.464,0.464,0.464,0.464,0.463,0.463,0.463,0.462,0.464,0.464,0.464,0.464,0.463,0.463,0.463,0.463,0.463,0.463,0.463,0.463,0.463,0.463,0.463,0.463,0.463,0.463,0.462,0.462,0.462,0.462,0.461,0.461,0.461,0.461,0.461,0.46,0.46,0.46,0.459,0.46,0.459,0.459,0.458,0.458,0.458,0.458,0.458,0.457,0.457,0.457,0.457,0.456,0.456,0.456,0.456,0.456,0.456,0.455,0.455,0.454,0.454,0.455,0.454,0.454,0.453,0.453,0.453,0.453,0.453,0.452,0.452,0.452,0.452,0.451,0.451,0.45,0.449,0.449,0.447,0.447,0.447,0.447,0.447,0.447,0.447,0.447,0.447,0.447,0.447,0.447,0.447,0,0.447,0.447,0.447,0.446,0.446,0.446,0.445,0.445,0.445,0.444,0.443,0.442,0.442,0.442,0.441,0.441,0.441,0.441,0.441,0.441,0.441,0.441,0.441,0.441,0.441,0.441,0.441,0.441,0.44,0.44,0.44,0.44,0.438,0.438,0.437,0.437,0.437,0.437,0.436,0.437,0.436,0.436,0.436,0.436,0.436,0.436,0.436,0.436,0.436,0.436,0.436,0.435,0.434,0.433,0.433,0.433,0.433,0.433,0,0.434,0.434,0.434,0.433,0.433,0.432,0,0.431,0.431,0.431,0.43,0.43,0.43,0.43,0.43,0.43,0.43,0.43,0.43,0.43,0.43,0.429,0.429,0.428,0.43,0.43,0.43,0.43,0.43,0.43,0.429,0.429,0.428,0.429,0.429,0.429,0.429,0.428,0.429,0.429,0.429,0.428,0.427,0.426,0.426,0.426,0.426,0.426,0.425,0.425,0.425,0.425,0.425,0.425,0.425,0,0.425,0.425,0.425,0.425,0.424,0.424,0.424,0.424,0.423,0.422,0.422,0.422,0.421,0.421,0.421,0.421,0.42,0.42,0.42,0.42,0.42,0.419,0.419,0,0,0,0.418,0.418,0.418,0.418,0.417,0.417,0.417,0.416,0.416,0.416,0.416,0.416,0.416,0.415,0.415,0.415,0.415,0.415,0.415,0.415,0.415,0.415,0.415,0.414,0.414,0.413,0.412,0.412,0.412,0,0,0,0,0.411,0.411,0.411,0.411,0.411,0.411,0.411,0.411,0.41,0.411,0.411,0,0,0,0,0.41,0.41,0.41,0.41,0.409,0.409,0,0,0,0.408,0.408,0.408,0.408,0.408,0.408,0,0.407,0.407,0.406,0.405,0.405,0.404,0.404,0.404,0.404,0.403,0.403,0.403,0.403,0.402,0.402,0.402,0,0,0.402,0.402,0.402,0.402,0.402,0.401,0.401,0.401,0.401,0.401,0.401,0.4,0.4,0.4,0.399,0.399,0.399,0.398,0.398,0.398,0.398,0.398,0.398,0.397,0.397,0.397,0.397,0.398,0.398,0.398,0.398,0.399,0.399,0,0,0,0,0.397,0.395,0.394,0,0.394,0.394,0.394,0.394,0.394,0.395,0.395,0.394,0.394,0.394,0.393,0.393,0,0.392,0.392,0.391,0.391,0.391,0.39,0.39,0.39,0.389,0.389,0.388,0.388,0.388,0.388,0.388,0.388,0.388,0,0,0,0,0.387,0.387,0,0,0.385,0.385,0.385,0.385,0.385,0.385,0.385,0.385,0.384,0.384,0.384,0.384,0.384,0.384,0.384,0.384,0.384,0.383,0.383,0.383,0.383,0,0,0.383,0.383,0.382,0.383,0.382,0.382,0.382,0.382,0.381,0.381,0.381,0.381,0.381,0.381,0.38,0.38,0.38,0.379,0,0,0,0.377,0.377,0.378,0.378,0,0.379,0.379,0.379,0.38,0.38,0.381,0.381,0.381,0.381,0.381,0.38,0,0,0,0,0.373,0.372,0.372,0.372,0.371,0.369,0,0,0.363,0.362,0.36,0.358,0.358,0.357,0.356,0.356,0.356,0.356,0.356,0.356,0.355,0.355,0.355,0.355,0.355,0.355,0.355,0.355,0.355,0.355,0.354,0.354,0.354,0.354,0.353,0.353,0.352,0.352,0.352,0.352,0.352,0.351,0.351,0.351,0.351,0.351,0.351,0.351,0.351,0.351,0.351,0.35,0.35,0.35,0.349,0.349,0.349,0.349,0.348,0.348,0.348,0.348,0.348,0,0,0,0,0,0,0,0,0,0,0,0,0,0,0,0,0,0,0,0,0,0,0,0,0,0,0,0,0,0,0,0,0,0,0,0,0,0,0,0,0,0,0,0,0,0,0,0,0,0,0,0,0,0,0,0,0,0,0,0,0,0,0,0,0,0,0,0,0,0,0,0,0
0,0,0,0.463,0.463,0.463,0.463,0.463,0.463,0.463,0.463,0.462,0.462,0.462,0.461,0.459,0.459,0.458,0.458,0.458,0.458,0.458,0.458,0.458,0.458,0.458,0.458,0.46,0.46,0.46,0.46,0.46,0.46,0.46,0.46,0.46,0.46,0.46,0.46,0.459,0.459,0.459,0.458,0.458,0.458,0.458,0.458,0.458,0.458,0.458,0.458,0.457,0.457,0.457,0.457,0.456,0.456,0.455,0.455,0.454,0.453,0.453,0.453,0.453,0.453,0.452,0.452,0.452,0.452,0.452,0.452,0.452,0.452,0.452,0.452,0.451,0.451,0.451,0.451,0.45,0.449,0.448,0.448,0.447,0.447,0.446,0.446,0.446,0.446,0.446,0.446,0.446,0.446,0.446,0.446,0.445,0.445,0.446,0.446,0.446,0.445,0.445,0.445,0.445,0.445,0.444,0.444,0,0,0.442,0.442,0.441,0.441,0.441,0.441,0.441,0.44,0.44,0.44,0.44,0.44,0.44,0.44,0.44,0.44,0.44,0.439,0.439,0.439,0.439,0.439,0.438,0.437,0.436,0.436,0.436,0.436,0.436,0.436,0.435,0.435,0.435,0.435,0.435,0.435,0.435,0.435,0.435,0,0,0,0,0.432,0.431,0.431,0.431,0.431,0.431,0.431,0.431,0.431,0.431,0.432,0.432,0.431,0.431,0.431,0.431,0.43,0.43,0.429,0.429,0.428,0.428,0.428,0.428,0.427,0,0.428,0.428,0.428,0.427,0.426,0.426,0.426,0.426,0.425,0.426,0.427,0.427,0.427,0.427,0.426,0.426,0.426,0.426,0.426,0.426,0,0,0.426,0.426,0.426,0.425,0.425,0.425,0.424,0.424,0.424,0.424,0.424,0.423,0.423,0.422,0.422,0.422,0.422,0.422,0.421,0.421,0.421,0.421,0.421,0.421,0.421,0.421,0.421,0.421,0.42,0.42,0,0.42,0.419,0.418,0.418,0.418,0.417,0.416,0.416,0.416,0.416,0.416,0.416,0.416,0.416,0.416,0.416,0,0.415,0.415,0.415,0.415,0.414,0.414,0.414,0.414,0.414,0.414,0.414,0.414,0.413,0.414,0.413,0.413,0.413,0.412,0.412,0.412,0.411,0.411,0.411,0.41,0,0,0.41,0.409,0.409,0.409,0.409,0.409,0.409,0.408,0.408,0.408,0.408,0.407,0.408,0,0,0,0,0.407,0.407,0.407,0.407,0.407,0.407,0,0,0.406,0.406,0.406,0.406,0.407,0.406,0.406,0.406,0.405,0.404,0.403,0.403,0.402,0.402,0.402,0.402,0.402,0.402,0.402,0.402,0.402,0.401,0.401,0.4,0.4,0.4,0.4,0.4,0.4,0.4,0.4,0.4,0.399,0.399,0.399,0.399,0.398,0.398,0.398,0.398,0.398,0.397,0.397,0.397,0.397,0.397,0.397,0.397,0.396,0.396,0.395,0.395,0.396,0.395,0.396,0.396,0.395,0.395,0.396,0,0,0.393,0.393,0.393,0.393,0.393,0,0.393,0.393,0.393,0,0.393,0.394,0.394,0.393,0.393,0.393,0.392,0.392,0.391,0.389,0.389,0.389,0.389,0.389,0.389,0.389,0.387,0.386,0.386,0.386,0.386,0.386,0.386,0.385,0.385,0.385,0.385,0,0.385,0.384,0,0.385,0,0.385,0.384,0.384,0.384,0.384,0.384,0.384,0.383,0.383,0.383,0.382,0.382,0.382,0.382,0.382,0.382,0.382,0.382,0.381,0.382,0.382,0.382,0.382,0.381,0.381,0.381,0.381,0.381,0.381,0.381,0.381,0.381,0.381,0.381,0.38,0.38,0.379,0.379,0.377,0.377,0.377,0.377,0.377,0.377,0.377,0.376,0.377,0.377,0.377,0.377,0.377,0.377,0.377,0.377,0,0.377,0.377,0.377,0.377,0.376,0.376,0,0.373,0.373,0,0,0.37,0.37,0.37,0.369,0.368,0,0.363,0.362,0.361,0.359,0.358,0.357,0.355,0.355,0.355,0.355,0.355,0.355,0.355,0.355,0.355,0.355,0.355,0.354,0.354,0.354,0.353,0.353,0.352,0.352,0.352,0.352,0.352,0.351,0.351,0.351,0.351,0.351,0.35,0.35,0.35,0.35,0.349,0.35,0.35,0.349,0.349,0.349,0.349,0.349,0.348,0.348,0.348,0.348,0.348,0.348,0.348,0.348,0.348,0.348,0.348,0.348,0,0,0,0,0,0,0,0,0,0,0,0,0,0,0,0,0,0,0,0,0,0,0,0,0,0,0,0,0,0,0,0,0,0,0,0,0,0,0,0,0,0,0,0,0,0,0,0,0,0,0,0,0,0,0,0,0,0,0,0,0,0,0,0,0,0,0,0,0,0,0,0,0
0,0,0,0.459,0.459,0.459,0.46,0.46,0.461,0.46,0.46,0.46,0.459,0.458,0.458,0.458,0.458,0.457,0.457,0.457,0.457,0.457,0.457,0.457,0.457,0.456,0.456,0.456,0.456,0.456,0.457,0.457,0.457,0.457,0.458,0.458,0.458,0.458,0.458,0.458,0.458,0.458,0.458,0.457,0.457,0.457,0.457,0.457,0.457,0.457,0.456,0.456,0.456,0.456,0.455,0.454,0.453,0.453,0.452,0.452,0.452,0.452,0.451,0.451,0.451,0.451,0.451,0.45,0.45,0.45,0.45,0.45,0.45,0.449,0,0,0.448,0.448,0.447,0.447,0.446,0.446,0.445,0.444,0.443,0.443,0.443,0.443,0.443,0.443,0.443,0.443,0.443,0.443,0.443,0.443,0.443,0.442,0.442,0.442,0.442,0.442,0.441,0.442,0.441,0.441,0.441,0,0,0.441,0.441,0.44,0.44,0.439,0.439,0.438,0.438,0.437,0.437,0.437,0.437,0.437,0.437,0.437,0.437,0.437,0.437,0.437,0.436,0.436,0.436,0.436,0.436,0.435,0.435,0.435,0.434,0.434,0.433,0.433,0.432,0.432,0.432,0.432,0.432,0.431,0.431,0,0,0,0.431,0.431,0.431,0.43,0.43,0.43,0.43,0.431,0.43,0.43,0.43,0.431,0.431,0.43,0.43,0.43,0.429,0.428,0.428,0.427,0.426,0.426,0.426,0.426,0.426,0.426,0.426,0.426,0.426,0.426,0.425,0.425,0.425,0.424,0.424,0.424,0.424,0.424,0.424,0.424,0.425,0.425,0.425,0.425,0.425,0.425,0.425,0.425,0,0,0.425,0.425,0.425,0.424,0.422,0.422,0.421,0.421,0,0,0.421,0.421,0.421,0.421,0.421,0.421,0.42,0.42,0.42,0.42,0.42,0.42,0.42,0.42,0.42,0.42,0.42,0.419,0.419,0.418,0.417,0.416,0.416,0.416,0.416,0.416,0.415,0.415,0.415,0.414,0.414,0.414,0.413,0.412,0.413,0.413,0,0,0,0.412,0.412,0.412,0.412,0.412,0.411,0,0,0.411,0.411,0.411,0.411,0.411,0.411,0.411,0.411,0.411,0.411,0.41,0.409,0.409,0.408,0.408,0.408,0.408,0.407,0.407,0.407,0.407,0.407,0.407,0.407,0.407,0.406,0.406,0.406,0.406,0.406,0.406,0,0,0.405,0.405,0.405,0.405,0.404,0.404,0.404,0.404,0.404,0.404,0.404,0.404,0.404,0.404,0.404,0.404,0.403,0.402,0.402,0.402,0.401,0.401,0.401,0.4,0.4,0.4,0.4,0.4,0.399,0.399,0.398,0.398,0.398,0.398,0.398,0.398,0.398,0.398,0.398,0.398,0.398,0.398,0.398,0.397,0.397,0.397,0.397,0.396,0.396,0.396,0.396,0.396,0.395,0.396,0.395,0.395,0.395,0.394,0.394,0.394,0.394,0.394,0.394,0.393,0,0,0.393,0,0,0,0,0,0.391,0,0,0.391,0.391,0.391,0.391,0,0,0.392,0.392,0.392,0.391,0.391,0.39,0.389,0.389,0.389,0.388,0.388,0.388,0.386,0.385,0.385,0.385,0.385,0.385,0.385,0.385,0.385,0.385,0.383,0.383,0.382,0.382,0.381,0.381,0,0,0,0.382,0.382,0.382,0.382,0.382,0.382,0.382,0.382,0.382,0.381,0.381,0.381,0.381,0.381,0.381,0.381,0.381,0.381,0.381,0.381,0.381,0.381,0.381,0.381,0.381,0.381,0.381,0.381,0.381,0.381,0.38,0.38,0.38,0.379,0.379,0.378,0.378,0.377,0.377,0.376,0.376,0.376,0.376,0.376,0.375,0.375,0.375,0.374,0.375,0.375,0.375,0.375,0,0,0,0.373,0,0.373,0.373,0.373,0.372,0.372,0.371,0.37,0.37,0,0,0,0.369,0.369,0.368,0,0,0.362,0.362,0.361,0.358,0.358,0.356,0.355,0.354,0.354,0.354,0.354,0.353,0.353,0.353,0.353,0.353,0.353,0.352,0.352,0.352,0.351,0.351,0.351,0.351,0.351,0.35,0.35,0.35,0,0,0.349,0.349,0.349,0.349,0.348,0.348,0.348,0.348,0.348,0.348,0.348,0.348,0.348,0.348,0.348,0.348,0.347,0.347,0.347,0.347,0.347,0.347,0.347,0.347,0.347,0,0,0,0,0,0,0,0,0,0,0,0,0,0,0,0,0,0,0,0,0,0,0,0,0,0,0,0,0,0,0,0,0,0,0,0,0,0,0,0,0,0,0,0,0,0,0,0,0,0,0,0,0,0,0,0,0,0,0,0,0,0,0,0,0,0,0,0,0,0,0,0,0,0
0,0,0,0.458,0.458,0.458,0.458,0.458,0.458,0.458,0.458,0.458,0.458,0.457,0.457,0.457,0.456,0.455,0.455,0.455,0.454,0.454,0.454,0.454,0.454,0.454,0.453,0.453,0.453,0.453,0,0.454,0.454,0.453,0.454,0.454,0.454,0.454,0.454,0.457,0.457,0.456,0.456,0.456,0.457,0.456,0.455,0.455,0.455,0.454,0.454,0.453,0.453,0.453,0.453,0,0,0,0.451,0.449,0.448,0.448,0.448,0.448,0.447,0.447,0.447,0.447,0.447,0.447,0.447,0.447,0.447,0,0,0,0.446,0.446,0.444,0.444,0.442,0.442,0.442,0.441,0.441,0.441,0.441,0.441,0.441,0.441,0.441,0.441,0.441,0.441,0.441,0.441,0.441,0.44,0.44,0.44,0.44,0.44,0.44,0.44,0.44,0.44,0.439,0.439,0.438,0.438,0.437,0.437,0.436,0.436,0.436,0.436,0.436,0.436,0.436,0.436,0.436,0.436,0.436,0.436,0.436,0.436,0.435,0.435,0.435,0.435,0.435,0.434,0,0.433,0.433,0.432,0.432,0.432,0.431,0.431,0.431,0.431,0.431,0.43,0.43,0.43,0.43,0.43,0,0,0.429,0.429,0.429,0.429,0.429,0.429,0.429,0.429,0.429,0.429,0.429,0.429,0.428,0.428,0.427,0.426,0.426,0.426,0.425,0.425,0.425,0.425,0.425,0.425,0.425,0.425,0.425,0.424,0.424,0.423,0.423,0.422,0.422,0.421,0.421,0.421,0.421,0.421,0.421,0.421,0.421,0.422,0.422,0.424,0.424,0.424,0.424,0.424,0,0,0.423,0.422,0.422,0.421,0.421,0.421,0.42,0.42,0.42,0,0.42,0.42,0.419,0.419,0.419,0.419,0.418,0.418,0.418,0.417,0.417,0.417,0.418,0.418,0.418,0.418,0.418,0.417,0,0.416,0.415,0.415,0.415,0.415,0.415,0.414,0.414,0.413,0.413,0.412,0.412,0.411,0.411,0.411,0.411,0.411,0,0,0,0.411,0.41,0.41,0.41,0.41,0.41,0,0.41,0.41,0.41,0.41,0.41,0.41,0.41,0.409,0.409,0.409,0.408,0.408,0.407,0.407,0.406,0.406,0.406,0.406,0.406,0.406,0.406,0.406,0.406,0.406,0.406,0.406,0.405,0.404,0.404,0.403,0.403,0.403,0.403,0.403,0.402,0.402,0.402,0.402,0.402,0.402,0.402,0.402,0.402,0.402,0.402,0.402,0.402,0.402,0.402,0.402,0.401,0.401,0,0,0.399,0.399,0.398,0.398,0.398,0.398,0.398,0.398,0.398,0.397,0.397,0.397,0.397,0.397,0.397,0.397,0.397,0.397,0.397,0.397,0.397,0.396,0.396,0.395,0.395,0.394,0.394,0.394,0.394,0.394,0.394,0.394,0.394,0.394,0.394,0.393,0.393,0.393,0.393,0.393,0.393,0.393,0.393,0.392,0,0,0,0.39,0.39,0,0,0.389,0.389,0.389,0.389,0.389,0.389,0.389,0.389,0.389,0.389,0.389,0.389,0.389,0.389,0.389,0.389,0.388,0.388,0.387,0.386,0.385,0.385,0.385,0.385,0.385,0.384,0.384,0.384,0.383,0.383,0.383,0.382,0.381,0.381,0,0,0.38,0.38,0.379,0.38,0.381,0,0.381,0.381,0.381,0.381,0.381,0.381,0.381,0.381,0.381,0.38,0.379,0.379,0,0,0.378,0.378,0.379,0.379,0.379,0.379,0.38,0.38,0.38,0.38,0.38,0.38,0.38,0.38,0.379,0.379,0.378,0.378,0.377,0.377,0.377,0.376,0.376,0.376,0.375,0.374,0.374,0.374,0.374,0.374,0.373,0.373,0.373,0.373,0.373,0.373,0.373,0,0,0.372,0.372,0.372,0.371,0.371,0.37,0.37,0.37,0.369,0.369,0.369,0.369,0,0.368,0.368,0.367,0,0,0,0.362,0.361,0.36,0.358,0.357,0,0,0.353,0.352,0.352,0.352,0.352,0.352,0.352,0.352,0.351,0.351,0.351,0.351,0.35,0.35,0.349,0.349,0.349,0.348,0.348,0.348,0.348,0,0.348,0.348,0.348,0.348,0.348,0.348,0.347,0.347,0.347,0.347,0.347,0.347,0.346,0.346,0.346,0.346,0.346,0.346,0.346,0.346,0.346,0.346,0.346,0.346,0.347,0.346,0,0,0,0,0,0,0,0,0,0,0,0,0,0,0,0,0,0,0,0,0,0,0,0,0,0,0,0,0,0,0,0,0,0,0,0,0,0,0,0,0,0,0,0,0,0,0,0,0,0,0,0,0,0,0,0,0,0,0,0,0,0,0,0,0,0,0,0,0,0,0,0,0,0
0,0,0,0.457,0.457,0.457,0.457,0.457,0.457,0.457,0.457,0.457,0.456,0.455,0.455,0.454,0.454,0.453,0.453,0.453,0.452,0.452,0.452,0.452,0.452,0.452,0.452,0.452,0.452,0.452,0.452,0.452,0.452,0.452,0.452,0.452,0.452,0.452,0.452,0.452,0.452,0.452,0.452,0.452,0.454,0.453,0.453,0.453,0.453,0.452,0.452,0.452,0.452,0.452,0.452,0.451,0,0.448,0.448,0.447,0.447,0.447,0.446,0.446,0.446,0.446,0.445,0.445,0.445,0.445,0.445,0.445,0.444,0.444,0,0.443,0.442,0.442,0.441,0.441,0.441,0.441,0.44,0.44,0.44,0.44,0.44,0.44,0.439,0.439,0.44,0.44,0.44,0.439,0.439,0.439,0.439,0.438,0.438,0.438,0.438,0.437,0.437,0.437,0.436,0.436,0.436,0.436,0.436,0.436,0.436,0.435,0.435,0.435,0.435,0.435,0.434,0.434,0.434,0.434,0.434,0.434,0.434,0.434,0.434,0.433,0.433,0.432,0.432,0.432,0.431,0.431,0.431,0.431,0.431,0.43,0.43,0.43,0.43,0.429,0.429,0.429,0.429,0.428,0.428,0.427,0.427,0.427,0.427,0.426,0.426,0.426,0.426,0.426,0.426,0.426,0.426,0.426,0.426,0.426,0.426,0.425,0.425,0.425,0.424,0.424,0.424,0.424,0.423,0.422,0.422,0.422,0.422,0.422,0.422,0.422,0.421,0.421,0.421,0.421,0.42,0.42,0.42,0.42,0.42,0.42,0.42,0.42,0.42,0.42,0.42,0.42,0.42,0.42,0.42,0.421,0.421,0.421,0.421,0.421,0.421,0.42,0.42,0,0,0.419,0.418,0.418,0.418,0.418,0.417,0.417,0.417,0.417,0.417,0.417,0.416,0.416,0.416,0.416,0.416,0.416,0.416,0.416,0.416,0.416,0.416,0,0,0,0.414,0.413,0.413,0.413,0.412,0.412,0.412,0.411,0.411,0.411,0.411,0.411,0.411,0.41,0.409,0.409,0,0.409,0.409,0.408,0.408,0.408,0.408,0.408,0.408,0.408,0.408,0.408,0.408,0.408,0.408,0.407,0.407,0.407,0.407,0.407,0.406,0.406,0.406,0.406,0.405,0.405,0.405,0.405,0.405,0.404,0.404,0.404,0.404,0.404,0.404,0.403,0.403,0.402,0.402,0.402,0.402,0.402,0.401,0.401,0.401,0.401,0.401,0.401,0.401,0.401,0.4,0.4,0.4,0.4,0.4,0.4,0.4,0.4,0.399,0.399,0.399,0.398,0.398,0.398,0.398,0.397,0.397,0.397,0.397,0.397,0.397,0.397,0.396,0.396,0.395,0.396,0.395,0.395,0.395,0.395,0.395,0.395,0.395,0.395,0.394,0.394,0.394,0.394,0.393,0.393,0.393,0.393,0.393,0.393,0.393,0.393,0.393,0.393,0.392,0.392,0.392,0.391,0.391,0.391,0.391,0.391,0.391,0.39,0.389,0,0,0.389,0.388,0.388,0.387,0,0.388,0.388,0.388,0.388,0.388,0.388,0.388,0.388,0.388,0.388,0.388,0.388,0.387,0.386,0.386,0.386,0.385,0.384,0.384,0.384,0.383,0,0.383,0.383,0.383,0.382,0.382,0.382,0.382,0.381,0.381,0.38,0.38,0.38,0.379,0.378,0,0,0.379,0.379,0.379,0.379,0.38,0.379,0.38,0.38,0.379,0.379,0.378,0.378,0.378,0.377,0.377,0.377,0.377,0.377,0.377,0.377,0.377,0.377,0.378,0.378,0.378,0.378,0.378,0.378,0.378,0.378,0.378,0.377,0.377,0.377,0.376,0.376,0.375,0.374,0.374,0.374,0.373,0.373,0.373,0.373,0.373,0.373,0.373,0.373,0.373,0.372,0.372,0.371,0.371,0.37,0.37,0.37,0.37,0.37,0.37,0.369,0,0.369,0,0,0,0.369,0.368,0.368,0.367,0.367,0.366,0.366,0.366,0,0.363,0.362,0.361,0.36,0.359,0,0,0.353,0.352,0.352,0.352,0.351,0.351,0.351,0.351,0.351,0.35,0.35,0.349,0.349,0.349,0.348,0.348,0.348,0.348,0.348,0.348,0.348,0.348,0.347,0.347,0.347,0.346,0.346,0.346,0.346,0.346,0.345,0,0.345,0.345,0.345,0.345,0.345,0.345,0.345,0.345,0.345,0.345,0.345,0.345,0.345,0.345,0.345,0.345,0.345,0,0,0,0,0,0,0,0,0,0,0,0,0,0,0,0,0,0,0,0,0,0,0,0,0,0,0,0,0,0,0,0,0,0,0,0,0,0,0,0,0,0,0,0,0,0,0,0,0,0,0,0,0,0,0,0,0,0,0,0,0,0,0,0,0,0,0,0,0,0,0,0,0,0
0,0,0.456,0.455,0.455,0.456,0.456,0.456,0.455,0.455,0.454,0.453,0.453,0.452,0.452,0.452,0.452,0.452,0.452,0.451,0.451,0.451,0.451,0.451,0.451,0.451,0.451,0.451,0.451,0.451,0.451,0.451,0.451,0.451,0,0.451,0.45,0.451,0.451,0.451,0.45,0.451,0.451,0.451,0.451,0.451,0.451,0.451,0.45,0.451,0.451,0.45,0.449,0.449,0.448,0.447,0.447,0.446,0.446,0.446,0.446,0.445,0.444,0.443,0.442,0.442,0.442,0.442,0.442,0.442,0.441,0.441,0.441,0.441,0.441,0.441,0.441,0.44,0.44,0.44,0.439,0.439,0.438,0.437,0.437,0.437,0.437,0.437,0.437,0.437,0.437,0.437,0.437,0.436,0.436,0.436,0.436,0.436,0.436,0.436,0.436,0.436,0.436,0.436,0.435,0.435,0.435,0.434,0.434,0.433,0.433,0.432,0.433,0.432,0.432,0.432,0.431,0.431,0.431,0.431,0.431,0.431,0.431,0.431,0.431,0.431,0.431,0.431,0.43,0.43,0.429,0.429,0.429,0.429,0.428,0.428,0.428,0.427,0.427,0.427,0.426,0.426,0.426,0.426,0.426,0.425,0.425,0.425,0.425,0.425,0.425,0.425,0.425,0.425,0.425,0.425,0.425,0.424,0.424,0.424,0.423,0.423,0.422,0.422,0.421,0.421,0.421,0.421,0.421,0.421,0.421,0.421,0.421,0.42,0.42,0.42,0.419,0.418,0.418,0.418,0.417,0.417,0.417,0.417,0.417,0.417,0.417,0.417,0.418,0.418,0.418,0.418,0.418,0.418,0.418,0.418,0.418,0.418,0.42,0.42,0.419,0.418,0.418,0,0,0.416,0.416,0.416,0.416,0.416,0.416,0.415,0.415,0.415,0.415,0.415,0.415,0.415,0.414,0.414,0.415,0.414,0,0.414,0,0,0,0,0,0,0.411,0.411,0.411,0.411,0.411,0.411,0.411,0.411,0.41,0.41,0.41,0.409,0.409,0.408,0.407,0.407,0.407,0.407,0.407,0.407,0.407,0.406,0.407,0.406,0.406,0.406,0.406,0.406,0.406,0.406,0.406,0.406,0.406,0.406,0,0.405,0.405,0.404,0.404,0.403,0.403,0.403,0.403,0.403,0.402,0,0,0,0.402,0.402,0.402,0.402,0.402,0.402,0.401,0.401,0.4,0.4,0.4,0.399,0.399,0.399,0.399,0.399,0.399,0.398,0.398,0.398,0.398,0.398,0.398,0.398,0.398,0.398,0.397,0.397,0.397,0.397,0.396,0.396,0.396,0.395,0.396,0.395,0.395,0.395,0.394,0.394,0.394,0.394,0.394,0.394,0.394,0.394,0.394,0.394,0.393,0.393,0.393,0.393,0.393,0.393,0.393,0.392,0.392,0.392,0.392,0.392,0.391,0.391,0.391,0.391,0.391,0.39,0.39,0.389,0.389,0.389,0.389,0.389,0.389,0.389,0.389,0.389,0.389,0.387,0.386,0.386,0.386,0.386,0.386,0.386,0.386,0.386,0.386,0.386,0.386,0.386,0.386,0.386,0.386,0.385,0.385,0.385,0.385,0.383,0.383,0.382,0.382,0.382,0.382,0.382,0.381,0.382,0.381,0.382,0.381,0.381,0.381,0.381,0.381,0.38,0.38,0.379,0.379,0.378,0.377,0.377,0.377,0.378,0.378,0.378,0.378,0.378,0.378,0.378,0.378,0.378,0.377,0.377,0.377,0.377,0.377,0.376,0.376,0.376,0.376,0.376,0.376,0.376,0.376,0.376,0.377,0.377,0.377,0.377,0.377,0.377,0.377,0.377,0.377,0.377,0.375,0.375,0,0.373,0.373,0.373,0.373,0.372,0.372,0.371,0.371,0.371,0.371,0.371,0.371,0.37,0.37,0.37,0.37,0.369,0.369,0.369,0.368,0.368,0.368,0.368,0.368,0.368,0.368,0.368,0.368,0.368,0.367,0.367,0,0.367,0.366,0.366,0.366,0.366,0.365,0.365,0.363,0.362,0.361,0.36,0.358,0,0.353,0.352,0.352,0.351,0.351,0.351,0.35,0.35,0.349,0.348,0.348,0.348,0.348,0,0.347,0.347,0.347,0.347,0.346,0.346,0.346,0.346,0.346,0.345,0.345,0.345,0.345,0.345,0.345,0.345,0.345,0.345,0.345,0.345,0.344,0.344,0.344,0.344,0.344,0.344,0.344,0.344,0.343,0.344,0.344,0.344,0.344,0.344,0.344,0.344,0,0,0,0,0,0,0,0,0,0,0,0,0,0,0,0,0,0,0,0,0,0,0,0,0,0,0,0,0,0,0,0,0,0,0,0,0,0,0,0,0,0,0,0,0,0,0,0,0,0,0,0,0,0,0,0,0,0,0,0,0,0,0,0,0,0,0,0,0,0,0,0,0,0
0,0,0.454,0.454,0.454,0.454,0.454,0.454,0.453,0.453,0.452,0.452,0.452,0.452,0.451,0.45,0.45,0.449,0.449,0.449,0.449,0.449,0.449,0.448,0.448,0.448,0.448,0.448,0.448,0.448,0.448,0.448,0.448,0.448,0.448,0.448,0.447,0.447,0.447,0.447,0,0,0.447,0.447,0.447,0.447,0,0.446,0.446,0.446,0.445,0.444,0.443,0.446,0.446,0.445,0.444,0.443,0.442,0.442,0.442,0.441,0.441,0.441,0,0.441,0.441,0.441,0.44,0.44,0.439,0.439,0.438,0.438,0.438,0.438,0.437,0.437,0.437,0.436,0.436,0.436,0.436,0.436,0.436,0.436,0.436,0.436,0.436,0.436,0.436,0.436,0.436,0.435,0.435,0.435,0.435,0.435,0.435,0.435,0.434,0.434,0.433,0.433,0.432,0.432,0.432,0.432,0.431,0.431,0.431,0.431,0.431,0.431,0.431,0.431,0.43,0.43,0.43,0.43,0.43,0.43,0.43,0.43,0.43,0.429,0.428,0.428,0.427,0.427,0.426,0.426,0.426,0.426,0.426,0.426,0.426,0.426,0.425,0.425,0.425,0.425,0.425,0.425,0.425,0.424,0.423,0.423,0.423,0.422,0.422,0.423,0.423,0.423,0.423,0.422,0.422,0.422,0.421,0.421,0.421,0.421,0.421,0.42,0,0.42,0.42,0.42,0.42,0.42,0.419,0.419,0.419,0.418,0.418,0.417,0.417,0.417,0,0.416,0.416,0.416,0.416,0.416,0.416,0.416,0.416,0.416,0.416,0.416,0.416,0.416,0.416,0.416,0.416,0.417,0.416,0.416,0.416,0.416,0.416,0.415,0.416,0,0.415,0.415,0.414,0.414,0.414,0.414,0.413,0.413,0.413,0.413,0.413,0.413,0,0.412,0.412,0.412,0.412,0.411,0.411,0.411,0,0.411,0,0,0.41,0,0.41,0.41,0.41,0.41,0.41,0.409,0.409,0.408,0.408,0.407,0.407,0.407,0.407,0.406,0.406,0.406,0.406,0.406,0.406,0.406,0.406,0.406,0.406,0.406,0.406,0.406,0.405,0.405,0.405,0.405,0.405,0.404,0.404,0.403,0.403,0.402,0.402,0,0.402,0.402,0.402,0.402,0.402,0.402,0.401,0,0,0,0.401,0.4,0.4,0.4,0.4,0.4,0.399,0.399,0.398,0.398,0.398,0.398,0.397,0.397,0.397,0.397,0.397,0.397,0.397,0.397,0.397,0.397,0.397,0.396,0.396,0.396,0.395,0.394,0.394,0.394,0.394,0.393,0.393,0.393,0.394,0.393,0.393,0.393,0.393,0.393,0.393,0.393,0.393,0.393,0.393,0.393,0.393,0.392,0.392,0.392,0.392,0.392,0,0.391,0.391,0.39,0.39,0.39,0.39,0.389,0.389,0.389,0.389,0.389,0,0.389,0.389,0.388,0.388,0.388,0.388,0.388,0.387,0.387,0.386,0.386,0.386,0.385,0.385,0.385,0.385,0.385,0.385,0.385,0.385,0.385,0.385,0.385,0.385,0.385,0.385,0.385,0.385,0.382,0.381,0.381,0.381,0.381,0.381,0.381,0.381,0.381,0.381,0.381,0.381,0.381,0.381,0.381,0,0,0,0,0.379,0.378,0.378,0.377,0.377,0.377,0.377,0.377,0.377,0.377,0.377,0.377,0.377,0.377,0.377,0.377,0.377,0.377,0.376,0.376,0.376,0.376,0.375,0.375,0.374,0.374,0.374,0.374,0.374,0.374,0.374,0,0.375,0.375,0.375,0.375,0.375,0.375,0,0.375,0.375,0.374,0.373,0.373,0.373,0.372,0.371,0.37,0.37,0.37,0.37,0.37,0.369,0.37,0.37,0.37,0.369,0,0,0.369,0.369,0.368,0.368,0.367,0.366,0.366,0.366,0.366,0.366,0.366,0.366,0.366,0.366,0.366,0.366,0.366,0.366,0.366,0.366,0.366,0.365,0.365,0.365,0.364,0.362,0.362,0.36,0.358,0.357,0.355,0.353,0.352,0.351,0.351,0.35,0.35,0.349,0.348,0.348,0.348,0.347,0.347,0.346,0.345,0.345,0.345,0.345,0.345,0.345,0.345,0.345,0.345,0.345,0.345,0.344,0.344,0.344,0.344,0.344,0.344,0.343,0.343,0.343,0.343,0.343,0.342,0.342,0.342,0.342,0.342,0.342,0.342,0.342,0.342,0.342,0.342,0,0,0,0,0,0,0,0,0,0,0,0,0,0,0,0,0,0,0,0,0,0,0,0,0,0,0,0,0,0,0,0,0,0,0,0,0,0,0,0,0,0,0,0,0,0,0,0,0,0,0,0,0,0,0,0,0,0,0,0,0,0,0,0,0,0,0,0,0,0,0,0,0,0,0,0,0,0
0,0,0.453,0.453,0.453,0.453,0.453,0.453,0.452,0.452,0.451,0.45,0.449,0.449,0.448,0.448,0.447,0.447,0.447,0.447,0.447,0.447,0.447,0.447,0.447,0.447,0.447,0.447,0.447,0.447,0.447,0.447,0.447,0.447,0.447,0.446,0.446,0.446,0.446,0.446,0.446,0.446,0,0,0,0,0.443,0.442,0.442,0.441,0.441,0.441,0.44,0.44,0.44,0.439,0.438,0.44,0.44,0.44,0.44,0.44,0.439,0.439,0.439,0.439,0.438,0.438,0.437,0.437,0.436,0.436,0.436,0.436,0.436,0.436,0.435,0.435,0.435,0.435,0.435,0.435,0.435,0.435,0.435,0.435,0.434,0.434,0.434,0.434,0.434,0.434,0.434,0.434,0.434,0.433,0.433,0.432,0.432,0.431,0.431,0.431,0.431,0.431,0.431,0.431,0.43,0.431,0.43,0.43,0.43,0.43,0.43,0.429,0.429,0.429,0.429,0.428,0.427,0,0.427,0.427,0,0.427,0.427,0.426,0.426,0.426,0.425,0.425,0.425,0.425,0.425,0.425,0.424,0.424,0.424,0.424,0.424,0.424,0.423,0.422,0.422,0.422,0.421,0.421,0.421,0.421,0.421,0.421,0.421,0.421,0.421,0.421,0.421,0.421,0.42,0.42,0.42,0.42,0.42,0.419,0.419,0.418,0.418,0.418,0.418,0.417,0.418,0,0,0.417,0.417,0.416,0.416,0.416,0.416,0.415,0.415,0.415,0.414,0.414,0.414,0.414,0.414,0.414,0.414,0.414,0.414,0.415,0.415,0.415,0.415,0.415,0.415,0.416,0.415,0,0.415,0.415,0.414,0.412,0.412,0.411,0,0.412,0.412,0.412,0.411,0.411,0.411,0.411,0.411,0.411,0.411,0.411,0.411,0.411,0.41,0.41,0.41,0.41,0.409,0.408,0.407,0,0.407,0.407,0,0.407,0.407,0.408,0.408,0.408,0.408,0.407,0.407,0.407,0.406,0.406,0.406,0.406,0.406,0.405,0.405,0.405,0.405,0.404,0.404,0.404,0.404,0.404,0.404,0.404,0.404,0.404,0.403,0.403,0.403,0.403,0.402,0.402,0.402,0.402,0.401,0.401,0.4,0.4,0.4,0.4,0.399,0.399,0.399,0.399,0.398,0,0,0,0.398,0.398,0.398,0.398,0.398,0.398,0.398,0,0.397,0.397,0.397,0.396,0.396,0.395,0.395,0.395,0.395,0.394,0.394,0.394,0.394,0.394,0.394,0.394,0.394,0.394,0.393,0.393,0.393,0.393,0.393,0.392,0.392,0.392,0.392,0.392,0.392,0.392,0.392,0.391,0.391,0.391,0.391,0.391,0.391,0.391,0,0,0.391,0.39,0.39,0.39,0.389,0.389,0.389,0.389,0.389,0.388,0.388,0.388,0.387,0.387,0,0,0,0.386,0.386,0.386,0.386,0.386,0.386,0.386,0.385,0.385,0.385,0.385,0.385,0.385,0.385,0.384,0.384,0.384,0.384,0.384,0.384,0.384,0.384,0.384,0.383,0.383,0.381,0.382,0.381,0.38,0.38,0.38,0.38,0.38,0.379,0.379,0.379,0.379,0.379,0.379,0.379,0.379,0.379,0.378,0.378,0,0,0.377,0.377,0.377,0.377,0.377,0.376,0.376,0.376,0.376,0.376,0.376,0.376,0.376,0.376,0.375,0.375,0.375,0.375,0.374,0.374,0.374,0.374,0.373,0.373,0.373,0.373,0.373,0.373,0.373,0.373,0.373,0.373,0.373,0.373,0.373,0.373,0.373,0.373,0.373,0,0,0,0.373,0.372,0.37,0.37,0.369,0.369,0.369,0.369,0.369,0.369,0.369,0.369,0.369,0.369,0.369,0.368,0,0,0,0.366,0.366,0.366,0.366,0.366,0.366,0.365,0.365,0.365,0.365,0.365,0.365,0.365,0.365,0.365,0.365,0.365,0.365,0.365,0.365,0.364,0.364,0.363,0.363,0.362,0.362,0.36,0.358,0,0.355,0.352,0.352,0.351,0.35,0.35,0.348,0.348,0.348,0.347,0.346,0.345,0.345,0.345,0,0.343,0.343,0.343,0.343,0.343,0.343,0.343,0.343,0.343,0.343,0.343,0.342,0.342,0.342,0.342,0.342,0.342,0.342,0.342,0.341,0.341,0.341,0.341,0.341,0.341,0.341,0.341,0.341,0.34,0,0.34,0,0,0,0,0,0,0,0,0,0,0,0,0,0,0,0,0,0,0,0,0,0,0,0,0,0,0,0,0,0,0,0,0,0,0,0,0,0,0,0,0,0,0,0,0,0,0,0,0,0,0,0,0,0,0,0,0,0,0,0,0,0,0,0,0,0,0,0,0,0,0,0,0,0,0,0,0,0,0
0,0,0,0.452,0.452,0.452,0.452,0.451,0.449,0.448,0.448,0.447,0.447,0.447,0.447,0.446,0.446,0.446,0.446,0.446,0.446,0.446,0.446,0.445,0.446,0.446,0.446,0.446,0.446,0.445,0.445,0.445,0.445,0.445,0.445,0.444,0.443,0.443,0.443,0.442,0.442,0,0,0,0.441,0.441,0.441,0.44,0.439,0.439,0.438,0.437,0,0.437,0.436,0.436,0.436,0.436,0.436,0.437,0.436,0.437,0.436,0.436,0.436,0.436,0.436,0.436,0.436,0.436,0.435,0.435,0.434,0.434,0.434,0.434,0.433,0.433,0.433,0.433,0.433,0.432,0.432,0.432,0.432,0.432,0.432,0.432,0.432,0.432,0.432,0.432,0.431,0.432,0.431,0.431,0.431,0.431,0.431,0.431,0.43,0.43,0.43,0.429,0.429,0.429,0.429,0.429,0.428,0.428,0.428,0.428,0.427,0.427,0.426,0.426,0.426,0.426,0.426,0.426,0.425,0.425,0.425,0.425,0.425,0.425,0.424,0.424,0.423,0.423,0.423,0.422,0.422,0.422,0.422,0,0.422,0.421,0.421,0.421,0.421,0.421,0.42,0.42,0.42,0.42,0.42,0.42,0.42,0.42,0.42,0.42,0.42,0.42,0.42,0.419,0.419,0.418,0.418,0.417,0.417,0.416,0.416,0.416,0.416,0.416,0.416,0.416,0.416,0.416,0,0.415,0.415,0.415,0.415,0.414,0.414,0.413,0.412,0.412,0.412,0.412,0.412,0.412,0.411,0.411,0.412,0.412,0.412,0.412,0.412,0.412,0.413,0.413,0,0.414,0.413,0.413,0.412,0.412,0.411,0.411,0.411,0.41,0.41,0.409,0.409,0.408,0.411,0.41,0.41,0.41,0.41,0.409,0.409,0.409,0.409,0.407,0.407,0.407,0.407,0.406,0.406,0,0.406,0.406,0.406,0.406,0.406,0.406,0.406,0.407,0.407,0.406,0.406,0.406,0.406,0.406,0.405,0.405,0.404,0.404,0.404,0,0,0,0,0.402,0.402,0.402,0.402,0,0.402,0.402,0.402,0.402,0.402,0.402,0.401,0.401,0.401,0.4,0.4,0.399,0.399,0.398,0.398,0.398,0.398,0.398,0.398,0.398,0.398,0.397,0.397,0.397,0.397,0.397,0.397,0.397,0.397,0.397,0.397,0.397,0.396,0,0,0.395,0.395,0.394,0.394,0.394,0.394,0.393,0.393,0.393,0.393,0.393,0.393,0.393,0.393,0.393,0.393,0.392,0.392,0.391,0.391,0.391,0.391,0.391,0.39,0.39,0.39,0.39,0.39,0.39,0.39,0.389,0.389,0.389,0.389,0.389,0.389,0.389,0.389,0.389,0.389,0.389,0.389,0.388,0.388,0.388,0.387,0.386,0.386,0.386,0.385,0.385,0.385,0,0,0,0.385,0.385,0.385,0.385,0.385,0.385,0.385,0.385,0.385,0.384,0.384,0.384,0.384,0.384,0.384,0.384,0.383,0.384,0.383,0.383,0.382,0.382,0.382,0.38,0.38,0.379,0.379,0.378,0.378,0.378,0.378,0.378,0.378,0.378,0.377,0.377,0.377,0.377,0.377,0.377,0.377,0.377,0.377,0,0,0,0,0.375,0.376,0.376,0.375,0.375,0.375,0.374,0.374,0.374,0.374,0.374,0.374,0,0,0,0.373,0.373,0.373,0.373,0.373,0.373,0.373,0.373,0.373,0.372,0.372,0.372,0.372,0.372,0,0.372,0,0.371,0.371,0.371,0.371,0.371,0.371,0,0,0.371,0.371,0,0.369,0.369,0.369,0.369,0.368,0.368,0.367,0.367,0.367,0.367,0.367,0.367,0.366,0.366,0.366,0,0,0.365,0.365,0.365,0.365,0.365,0.364,0.364,0.364,0.363,0.363,0.363,0.363,0.363,0.363,0.363,0.364,0.364,0.364,0.364,0.364,0.364,0.363,0.363,0.363,0.362,0.362,0.361,0,0,0.356,0.355,0.352,0.351,0.351,0.35,0.35,0.348,0.348,0.347,0.345,0.345,0.342,0.342,0,0,0.342,0.341,0.341,0.342,0.342,0.342,0.342,0.342,0.342,0.342,0.342,0.341,0.341,0.341,0.341,0.34,0.34,0.34,0.34,0.34,0.34,0.34,0.339,0.339,0.339,0.339,0.339,0.339,0.339,0.339,0.339,0,0,0,0,0,0,0,0,0,0,0,0,0,0,0,0,0,0,0,0,0,0,0,0,0,0,0,0,0,0,0,0,0,0,0,0,0,0,0,0,0,0,0,0,0,0,0,0,0,0,0,0,0,0,0,0,0,0,0,0,0,0,0,0,0,0,0,0,0,0,0,0,0,0,0,0,0,0,0
0,0,0,0,0,0.449,0.448,0.447,0.447,0.446,0.446,0.446,0.446,0.445,0.445,0.445,0.444,0.444,0.444,0.443,0.443,0.443,0.443,0.443,0.443,0.443,0.443,0.443,0.443,0.443,0.443,0.444,0.443,0.444,0.443,0.442,0.441,0.441,0.441,0.44,0.44,0.439,0.438,0,0.438,0.437,0.436,0.436,0.436,0.436,0,0,0.435,0.435,0.435,0.434,0.434,0.434,0.434,0.434,0.433,0.433,0.432,0.432,0.435,0.434,0.434,0.433,0.433,0.433,0.432,0.432,0.432,0.432,0.432,0.431,0.431,0.431,0.431,0.431,0.431,0.431,0.431,0.431,0.431,0.431,0.431,0.431,0.43,0.43,0.43,0.43,0.43,0.43,0.43,0.43,0.429,0.429,0.429,0.428,0.428,0.427,0,0,0.427,0.426,0.426,0.426,0.426,0.426,0.426,0.426,0.426,0.425,0.425,0.425,0.425,0.425,0.424,0.424,0.424,0.423,0.423,0.422,0.422,0.422,0.421,0.421,0.421,0.421,0.421,0.421,0.421,0.421,0,0.42,0.42,0.42,0.42,0.42,0.42,0.419,0.419,0.418,0.418,0.418,0.418,0.418,0.418,0.417,0,0.417,0.417,0.417,0.417,0.417,0.416,0.416,0.416,0.416,0.415,0.415,0.415,0.415,0.415,0.414,0.414,0.414,0.414,0.414,0.413,0.413,0.413,0.412,0.411,0.411,0.411,0.411,0.411,0.411,0.411,0.411,0.411,0.411,0.411,0.411,0.411,0.411,0.411,0.41,0.41,0.411,0.411,0.411,0.411,0.411,0,0.411,0.41,0.41,0.409,0.409,0.408,0.407,0.407,0.407,0.407,0.406,0.406,0.406,0.407,0.407,0.407,0.407,0.407,0.406,0.406,0.406,0.406,0.405,0.405,0.404,0.404,0.404,0.404,0.403,0.403,0.404,0.404,0.405,0.406,0.406,0.405,0.405,0.405,0.405,0.405,0.404,0.403,0.403,0.402,0.402,0.402,0,0,0.401,0.401,0.401,0.401,0.4,0.4,0,0,0.399,0.399,0.399,0.399,0.399,0.399,0,0,0,0.398,0.397,0.397,0.397,0.397,0.397,0.397,0.397,0.396,0.396,0.396,0.395,0.395,0.395,0.395,0.394,0.394,0.394,0.394,0.394,0.394,0.394,0.393,0.393,0.393,0.393,0.393,0.393,0.393,0.393,0.393,0.392,0.392,0.392,0.391,0.391,0.391,0.391,0.391,0.391,0.39,0.39,0.389,0.389,0.389,0.389,0.389,0.389,0.389,0.389,0.389,0.389,0.389,0.389,0.389,0.389,0.388,0.388,0.388,0.388,0.388,0.388,0.388,0.387,0.387,0.387,0.386,0.385,0.385,0.385,0.385,0.385,0.385,0.385,0.384,0.384,0.384,0,0.384,0.384,0.383,0.383,0.383,0.383,0.383,0.383,0.383,0.383,0.382,0.383,0.382,0.383,0.382,0.383,0.383,0.383,0.383,0.382,0.382,0.38,0.38,0.379,0.378,0.378,0.377,0.377,0.377,0.377,0.376,0.376,0.376,0.376,0.376,0.376,0.376,0.376,0.376,0.376,0.376,0.376,0.375,0.375,0.374,0.374,0.374,0.373,0.373,0.373,0.373,0.374,0.373,0.373,0.373,0.373,0.373,0.373,0.373,0.373,0.373,0,0,0,0.372,0.372,0.372,0.372,0,0.371,0.371,0.371,0.371,0.371,0.37,0.37,0.37,0.37,0.37,0.369,0.369,0,0,0.369,0.369,0,0,0.369,0.369,0.369,0.368,0,0,0.367,0.367,0.366,0.366,0.366,0.366,0.366,0.366,0.366,0.366,0.365,0.365,0.365,0.364,0.364,0.363,0.363,0.363,0.363,0.363,0.363,0.363,0.363,0.362,0.362,0.362,0.362,0.362,0.362,0.362,0.362,0,0.363,0.363,0.363,0.363,0.363,0.363,0.362,0.362,0.362,0.362,0.36,0,0,0.355,0.355,0.352,0.351,0.351,0.35,0.35,0.348,0.347,0,0.343,0.342,0.341,0.341,0.341,0.34,0.34,0.34,0.34,0.34,0.341,0.341,0.341,0.341,0.341,0.341,0.34,0.339,0.339,0.339,0.339,0.339,0.339,0.339,0.339,0.339,0.338,0.339,0.338,0.338,0.338,0.338,0.338,0.338,0.338,0.337,0.337,0.337,0.337,0,0,0,0,0,0,0,0,0,0,0,0,0,0,0,0,0,0,0,0,0,0,0,0,0,0,0,0,0,0,0,0,0,0,0,0,0,0,0,0,0,0,0,0,0,0,0,0,0,0,0,0,0,0,0,0,0,0,0,0,0,0,0,0,0,0,0,0,0,0,0,0,0,0,0,0,0
