3.549,3.56,3.56,3.582,3.582,3.582,3.593,3.593,3.593,3.593,3.593,3.615,3.615,3.627,3.627,3.649,3.649,3.661,3.672,3.672,3.696,3.696,3.696,3.696,3.707,3.707,3.707,3.707,3.731,3.731,3.731,3.731,3.731,3.731,3.707,3.707,3.707,3.707,3.696,3.696,3.696,3.672,3.672,3.672,3.661,3.661,3.661,3.661,3.649,3.649,3.649,3.649,3.649,3.649,3.627,3.627,3.615,3.627,3.627,3.627,3.615,3.627,3.649,3.661,3.661,3.672,3.696,3.707,3.743,3.755,3.78,3.792,3.804,3.804,3.817,3.842,3.868,0.0,0.0,0.0,4.376,4.657,4.851,4.912,4.996,5.018,4.975,4.912,4.871,4.83,4.81,4.53,4.426,4.312,4.233,4.07,3.817,3.731,3.627,3.593,3.549,3.528,3.517,3.496,3.496,3.496,3.496,3.506,3.549,3.615,3.661,3.707,3.755,3.792,3.817,3.842,3.855,3.868,3.855,3.855,3.855,3.842,3.842,3.829,3.829,3.829,3.817,3.817,3.817,3.817,3.817,3.817,3.817,3.829,3.829,3.842,3.842,3.855,3.842,3.855,3.855,3.855,3.855,3.855,3.855,3.855,3.855,3.868,3.868,3.868,3.868,3.868,3.868,3.868,3.868,3.868,3.868,3.868,3.868,3.868,3.868,3.868,3.868,3.868,3.868,3.868,3.855,3.855,3.868,3.868,3.868,3.868,3.868,3.868,3.868,3.88,3.88,3.893,3.893,3.893,3.893,3.893,3.906,3.906,3.906,3.906,3.92,3.92,3.933,3.946,3.946,3.973,3.973,3.987,4.014,4.014,4.014,4.028,4.014,4.028,4.056,4.056,4.056,4.056,4.07,4.07,4.085,4.114,4.114,4.114,4.114,4.114,4.114,4.114,4.114,4.085,4.085,4.07,4.07,4.056,4.056,4.028,4.014,4.028,4.028,4.028,4.028,4.028,4.056,4.056,4.07,4.085,4.114,4.114,4.114,4.128,4.114,4.114,4.114,4.085,4.07,4.056,4.056,4.056,4.028,4.056,4.056,4.07,4.085,4.114,4.114,4.128,4.158,4.173,4.188,4.203,4.218,4.218,4.233,4.233,4.233,4.249,4.249,4.249,4.249,4.249,4.249,4.249,4.249,4.249,4.249,4.249,4.249,4.249,4.249,4.249,4.249,4.233,4.233,4.233,4.233,4.233,4.233,4.249,4.249,4.264,4.264,4.28,4.28,4.28,4.296,4.296,4.296,4.296,4.296,4.296,4.312,4.312,4.312,4.296,4.296,4.296,4.28,4.28,4.28,4.28,4.28,4.28,4.28,4.28,4.28,4.28,4.28,4.296,4.296,4.312,4.312,4.312,4.312,4.312,4.312,4.312,4.312,4.312,4.312,4.312,4.312,4.312,4.296,4.296,4.28,4.28,4.264,4.264,4.264,4.264,4.264,4.264,4.264,4.249,4.249,4.249,4.264,4.264,4.264,4.249,4.249,4.249,4.249,4.249,4.249,4.249,4.249,4.249,4.249,4.264,4.264,4.264,4.264,4.264,4.264,4.28,4.28,4.28,4.28,4.28,4.296,4.312,4.312,4.328,4.328,4.328,4.344,4.36,4.36,4.376,4.376,4.393,4.393,4.393,4.41,4.41,4.41,4.41,4.393,4.41,4.393,4.393,4.376,4.344,4.328,4.296,4.249,4.158,3.933,3.88,3.855,3.829,3.804,3.804,3.804,3.804,3.804,3.804,3.817,3.829,3.855,3.893,3.973,4.085,4.188,4.226,4.264,4.328,4.393,4.512,4.601,4.657,4.713,4.732,4.771,4.791,4.81,4.791,4.81,4.81,4.81,4.81,4.81,4.791,4.791,4.791,4.791,4.791,4.791,4.791,4.791,4.791,4.791,4.791,4.791,4.771,4.771,4.771,4.771,4.752,4.752,4.752,4.771,4.752,4.771,4.771,4.771,4.791,4.81,4.81,4.81,4.83,4.851,4.851,4.851,4.851,4.851,4.871,4.871,4.871,4.871,4.851,4.851,4.851,4.851,4.851,4.851,4.83,4.83,4.83,4.83,4.83,4.83,4.83,4.851,4.851,4.851,4.851,4.871,4.891,4.891,4.891,4.891,4.891,4.891,4.891,4.871,4.851,4.851,4.83,4.81,4.791,4.752,4.694,4.601,4.583,4.53,4.477,4.46,4.426,4.41,4.393,4.393,4.376,4.36,4.344,4.344,4.328,4.328,4.312,4.312,4.296,4.296,4.312,4.312,4.312,4.312,4.312,4.312,4.328,4.328,4.328,4.328,4.328,4.328,4.328,4.328,4.312,4.312,4.296,4.28,4.264,4.249,4.249,4.188,4.085,4.028,3.973,3.92,3.893,3.855,3.829,3.817,3.804,3.78,3.767
3.582,3.593,3.593,3.593,3.615,3.615,3.615,3.627,3.627,3.627,3.627,3.649,3.649,3.649,3.661,3.661,3.672,3.672,3.696,3.696,3.696,3.707,3.707,3.707,3.707,3.731,3.731,3.731,3.731,3.743,3.743,3.755,3.755,3.743,3.743,3.743,3.743,3.743,3.731,3.731,3.731,3.731,3.707,3.696,3.696,3.696,3.696,3.672,3.672,3.672,3.672,3.672,3.672,3.661,3.661,3.661,3.661,3.649,3.649,3.649,3.661,3.661,3.661,3.672,3.696,3.707,3.731,3.743,3.755,3.78,3.792,3.804,3.804,3.817,3.817,3.842,3.868,4.014,0.0,0.0,0.0,4.477,4.752,4.871,4.954,5.018,5.04,5.018,4.975,4.912,4.891,4.83,4.771,4.46,4.312,4.09,3.868,3.792,3.731,3.672,3.649,3.593,3.56,3.538,3.517,3.517,3.517,3.538,3.56,3.649,3.696,3.755,3.792,3.817,3.829,3.855,3.868,3.8804999999999996,3.8674999999999997,0.0,0.0,3.855,3.855,3.842,3.842,3.842,3.829,3.829,3.829,3.829,3.8357500000000004,3.842,3.842,3.842,3.855,3.855,3.855,3.855,3.855,3.855,3.855,3.868,3.868,3.868,3.868,3.868,3.868,3.868,3.868,3.868,3.868,3.868,3.868,3.868,3.868,3.868,3.868,3.868,3.868,3.868,3.868,3.868,3.868,3.868,3.868,3.868,3.868,3.868,3.868,3.868,3.88,3.88,3.893,3.893,3.906,3.906,3.92,3.92,3.92,3.92,3.92,3.933,3.933,3.933,3.946,3.946,3.946,3.973,3.987,3.987,4.014,4.014,4.028,4.028,4.056,4.056,4.056,4.056,4.056,4.07,4.07,4.07,4.085,4.085,4.114,4.114,4.114,4.128,4.128,4.158,4.158,4.158,4.158,4.158,4.158,4.128,4.128,4.114,4.085,4.085,4.07,4.07,4.056,4.056,4.056,4.07,4.07,4.07,4.07,4.085,4.114,4.114,4.128,4.158,4.158,4.158,4.158,4.158,4.128,4.114,4.114,4.085,4.07,4.07,4.07,4.07,4.07,4.085,4.114,4.114,4.128,4.158,4.173,4.188,4.203,4.218,4.233,4.233,4.249,4.249,4.249,4.249,4.249,4.249,4.264,4.264,4.264,4.264,4.264,4.249,4.264,4.264,4.264,4.264,4.264,4.249,4.249,4.249,4.249,4.249,4.249,4.249,4.249,4.249,4.264,4.264,4.28,4.296,4.296,4.312,4.312,4.312,4.312,4.312,4.312,4.312,4.312,4.312,4.312,4.312,4.312,4.296,4.296,4.296,4.296,4.296,4.296,4.296,4.296,4.296,4.296,4.296,4.296,4.312,4.312,4.312,4.312,4.312,4.312,4.328,4.328,4.328,4.328,4.312,4.312,4.312,4.312,4.312,4.296,4.296,4.28,4.28,4.264,4.264,4.264,4.264,4.249,4.249,4.249,4.249,4.249,4.249,4.249,4.249,4.249,4.249,4.249,4.249,4.249,4.249,4.249,4.249,4.249,4.249,4.264,4.264,4.264,4.264,4.28,4.28,4.28,4.28,4.28,4.28,4.296,4.296,4.296,4.312,4.312,4.328,4.344,4.344,4.36,4.376,4.393,4.41,4.41,4.426,4.426,4.46,4.46,4.46,4.46,4.46,4.46,4.426,4.426,4.41,4.41,4.393,4.344,4.312,4.264,4.203,4.085,3.893,3.855,3.829,3.817,3.804,3.804,3.804,3.804,3.817,3.817,3.829,3.868,3.92,4.014,4.114,4.218,4.23925,4.28,4.328,4.426,4.565,4.638,4.694,4.732,4.771,4.791,4.81,4.81,4.81,4.81,4.81,4.81,4.81,4.81,4.81,4.81,4.81,4.81,4.81,4.81,4.81,4.81,4.81,4.81,4.81,4.81,4.81,4.81,4.81,4.81,4.81,4.81,4.81,4.81,4.791,4.791,4.81,4.81,4.81,4.83,4.83,4.83,4.851,4.851,4.871,4.871,4.871,4.871,4.871,4.891,4.891,4.891,4.891,4.871,4.871,4.871,4.871,4.851,4.851,4.851,4.851,4.851,4.851,4.851,4.851,4.851,4.871,4.871,4.871,4.891,4.891,4.891,4.891,4.891,4.891,4.891,4.891,4.891,4.851,4.851,4.83,4.83,4.81,4.771,4.657,4.601,4.565,4.53,4.477,4.426,4.41,4.41,4.41,4.393,4.393,4.376,4.376,4.36,4.36,4.344,4.328,4.328,4.312,4.312,4.312,4.312,4.312,4.312,4.328,4.328,4.328,4.344,4.328,4.344,4.344,4.344,4.328,4.328,4.328,4.312,4.312,4.28,4.28,4.264,4.249,4.203,4.173,4.07,4.014,3.946,3.906,3.868,3.842,3.829,3.817,3.804,3.804
3.615,3.615,3.627,3.627,3.627,3.649,3.649,3.649,3.661,3.661,3.661,3.672,3.672,3.672,3.672,3.696,3.696,3.707,3.707,3.707,3.707,3.707,3.731,3.731,3.731,3.743,3.743,3.743,3.743,3.743,3.755,3.755,3.767,3.767,3.767,3.767,3.767,3.755,3.755,3.755,3.743,3.743,3.743,3.731,3.731,3.731,3.707,3.707,3.707,3.707,3.696,3.696,3.707,3.696,3.696,3.696,3.672,3.672,3.696,3.696,3.696,3.696,3.696,3.707,3.731,3.731,3.743,3.767,3.78,3.792,3.804,3.804,3.817,3.817,3.829,3.842,3.868,3.973,4.114,0.0,0.0,0.0,4.583,4.791,4.871,4.912,4.996,5.018,4.996,4.975,4.933,4.912,4.851,4.791,4.638,0.0,0.0,3.842,3.804,3.78,3.731,3.696,3.649,3.615,3.582,3.582,3.582,3.615,3.649,3.696,3.755,3.792,3.804,3.829,3.855,3.868,3.893,3.893,3.88,0.0,0.0,3.868,3.855,3.855,3.855,3.855,3.855,3.855,3.842,3.855,3.855,3.855,3.855,3.855,3.855,3.868,3.868,3.868,3.868,3.868,3.868,3.868,3.868,3.868,3.868,3.868,3.868,3.868,3.868,3.868,3.868,3.868,3.868,3.868,3.868,3.88,3.868,3.868,3.868,3.868,3.868,3.868,3.868,3.868,3.868,3.868,3.88,3.88,3.88,3.893,3.893,3.906,3.92,3.92,3.933,3.933,3.946,3.973,3.973,3.973,3.973,3.987,3.987,3.987,3.987,3.987,3.987,4.014,4.028,4.028,4.056,4.056,4.056,4.07,4.07,4.085,4.085,4.07,4.085,4.085,4.085,4.085,4.114,4.114,4.128,4.128,4.158,4.158,4.173,4.173,4.173,4.173,4.188,4.188,4.188,4.173,4.173,4.158,4.158,4.128,4.114,4.114,4.114,4.114,4.085,4.114,4.114,4.114,4.114,4.114,4.128,4.14325,4.158,4.173,4.173,4.188,4.188,4.173,4.158,4.158,4.128,4.114,4.085,4.085,4.085,4.085,4.114,4.114,4.128,4.158,4.173,4.173,4.188,4.218,4.218,4.233,4.249,4.249,4.264,4.264,4.264,4.264,4.264,4.264,4.264,4.264,4.28,4.264,4.264,4.264,4.264,4.264,4.264,4.264,4.264,4.264,4.249,4.249,4.249,4.249,4.249,4.249,4.264,4.264,4.264,4.28,4.296,4.312,4.312,4.312,4.328,4.312,4.328,4.328,4.328,4.312,4.312,4.312,4.312,4.312,4.312,4.312,4.296,4.296,4.296,4.296,4.296,4.296,4.296,4.296,4.296,4.312,4.312,4.312,4.312,4.328,4.328,4.328,4.328,4.328,4.328,4.328,4.328,4.328,4.312,4.312,4.312,4.312,4.312,4.296,4.28,4.28,4.264,4.264,4.264,4.264,4.249,4.249,4.249,4.249,4.249,4.249,4.249,4.249,4.249,4.249,4.249,4.249,4.249,4.249,4.249,4.249,4.249,4.264,4.264,4.264,4.28,4.28,4.28,4.28,4.28,4.296,4.296,4.296,4.312,4.312,4.312,4.312,4.328,4.328,4.348,4.36,4.376,4.393,4.41,4.426,4.46,4.46,4.477,4.5035,4.512,4.512,4.512,4.512,4.512,4.477,4.477,4.46,4.46,4.41,4.376,4.328,4.28,4.218,4.114,3.92,3.868,3.842,3.829,3.817,3.817,3.817,3.817,3.817,3.817,3.842,3.868,3.92,4.028,4.128,4.1805,4.233,4.296,4.36,4.477,4.583,4.657,4.732,4.752,4.791,4.81,4.81,4.83,4.81,4.83,4.83,4.83,4.83,4.83,4.81,4.83,4.83,4.83,4.83,4.83,4.83,4.83,4.83,4.83,4.83,4.83,4.83,4.83,4.83,4.83,4.83,4.83,4.83,4.83,4.81,4.81,4.83,4.83,4.83,4.83,4.851,4.851,4.851,4.871,4.871,4.891,4.891,4.891,4.891,4.891,4.891,4.891,4.891,4.891,4.891,4.891,4.891,4.871,4.871,4.871,4.871,4.871,4.871,4.871,4.871,4.891,4.891,4.891,4.891,4.891,4.891,4.912,4.912,4.912,4.912,4.891,4.891,4.891,4.871,4.851,4.851,4.83,4.81,4.771,4.694,4.638,4.583,4.53,4.477,4.46,4.46,4.426,4.426,4.426,4.41,4.41,4.393,4.393,4.393,4.376,4.36,4.344,4.328,4.328,4.328,4.328,4.328,4.328,4.328,4.328,4.344,4.344,4.344,4.344,4.344,4.344,4.344,4.328,4.328,4.312,4.312,4.296,4.28,4.264,4.249,4.203,4.173,4.07,4.014,3.973,3.92,3.88,3.855,3.855,3.829,3.829,3.817
3.627,3.649,3.649,3.661,3.661,3.672,3.672,3.672,3.672,3.696,3.696,3.696,3.696,3.696,3.707,3.707,3.707,3.707,3.731,3.731,3.731,3.731,3.731,3.743,3.743,3.743,3.743,3.743,3.755,3.755,3.755,3.767,3.767,3.78,3.78,3.78,3.767,3.767,3.767,3.767,3.767,3.755,3.755,3.755,3.743,3.743,3.743,3.743,3.731,3.731,3.731,3.731,3.731,3.731,3.731,3.731,3.731,3.731,3.731,3.731,3.731,3.731,3.743,3.755,3.755,3.767,3.78,3.78,3.792,3.804,3.804,3.817,3.817,3.817,3.829,3.842,3.855,3.933,4.028,4.203,0.0,0.0,4.41,4.6005,4.791,4.871,4.912,4.975,4.975,4.975,4.954,4.912,4.891,4.83,4.565,0.0,0.0,4.07,3.855,3.817,3.792,3.78,3.743,3.696,3.661,3.661,3.661,3.672,3.707,3.755,3.804,3.817,3.829,3.855,3.868,3.906,3.92,3.933,3.906,3.893,3.893,3.893,3.88,3.868,3.868,3.855,3.855,3.868,3.855,3.855,3.868,3.868,3.868,3.868,3.868,3.868,3.88,3.88,3.88,3.88,3.88,3.88,3.88,3.893,3.893,3.893,3.88,3.88,3.88,3.88,3.88,3.88,3.88,3.88,3.88,3.88,3.88,3.88,3.88,3.88,3.88,3.88,3.88,3.88,3.88,3.88,3.893,3.893,3.906,3.92,3.92,3.933,3.946,3.973,3.973,3.987,4.014,4.014,4.028,4.028,4.028,4.028,4.028,4.056,4.028,4.028,4.056,4.056,4.07,4.07,4.07,4.07,4.085,4.085,4.085,4.085,4.114,4.114,4.085,4.114,4.114,4.128,4.128,4.158,4.158,4.173,4.173,4.188,4.188,4.203,4.203,4.203,4.203,4.218,4.203,4.203,4.188,4.188,4.173,4.173,4.158,4.158,4.158,4.158,4.128,4.128,4.158,4.158,4.158,4.158,4.158,4.173,4.173,4.188,4.203,4.203,4.203,4.188,4.188,4.173,4.158,4.158,4.128,4.128,4.128,4.128,4.128,4.158,4.173,4.173,4.173,4.188,4.203,4.218,4.233,4.233,4.249,4.249,4.264,4.264,4.264,4.28,4.28,4.28,4.28,4.28,4.28,4.28,4.28,4.28,4.28,4.28,4.28,4.264,4.264,4.264,4.264,4.249,4.249,4.249,4.249,4.264,4.264,4.264,4.28,4.312,4.312,4.328,4.328,4.328,4.328,4.328,4.328,4.328,4.328,4.328,4.328,4.328,4.312,4.312,4.312,4.312,4.296,4.296,4.296,4.296,4.312,4.312,4.312,4.312,4.312,4.312,4.328,4.328,4.328,4.328,4.344,4.344,4.344,4.344,4.344,4.328,4.328,4.328,4.328,4.328,4.312,4.312,4.312,4.296,4.296,4.28,4.28,4.264,4.264,4.264,4.249,4.249,4.249,4.249,4.249,4.249,4.249,4.249,4.249,4.249,4.249,4.249,4.249,4.249,4.249,4.249,4.264,4.264,4.264,4.28,4.28,4.28,4.296,4.296,4.296,4.312,4.312,4.312,4.312,4.312,4.328,4.328,4.328,4.344,4.36,4.376,4.393,4.41,4.426,4.46,4.512,4.512,4.53,4.565,4.565,4.565,4.565,4.565,4.565,4.53,4.53,4.512,4.477,4.46,4.41,4.344,4.296,4.249,4.158,3.946,3.88,3.855,3.829,3.817,3.817,3.817,3.817,3.817,3.829,3.842,3.868,3.933,4.056,4.158,4.2035,4.249,4.312,4.393,4.53,4.638,4.713,4.752,4.791,4.81,4.81,4.83,4.83,4.83,4.83,4.83,4.83,4.83,4.83,4.83,4.83,4.83,4.851,4.851,4.851,4.851,4.851,4.851,4.851,4.851,4.851,4.871,4.871,4.871,4.851,4.851,4.851,4.851,4.851,4.83,4.83,4.83,4.83,4.851,4.851,4.851,4.851,4.871,4.871,4.891,4.891,4.891,4.891,4.891,4.891,4.891,4.891,4.891,4.891,4.891,4.891,4.891,4.891,4.891,4.891,4.891,4.891,4.891,4.891,4.891,4.891,4.891,4.891,4.891,4.891,4.891,4.912,4.912,4.912,4.891,4.891,4.891,4.891,4.871,4.851,4.851,4.83,4.81,4.791,4.694,4.638,4.583,4.53,4.512,4.477,4.46,4.46,4.46,4.46,4.46,4.426,4.426,4.426,4.426,4.41,4.393,4.36,4.36,4.344,4.328,4.328,4.328,4.328,4.328,4.344,4.344,4.36,4.36,4.36,4.344,4.344,4.344,4.328,4.328,4.312,4.296,4.28,4.264,4.264,4.249,4.203,4.114,4.056,3.987,3.946,3.92,3.88,3.855,3.855,3.829,3.829,3.817
3.649,3.661,3.661,3.672,3.672,3.696,3.696,3.707,3.707,3.707,3.707,3.707,3.707,3.731,3.731,3.731,3.731,3.731,3.731,3.731,3.743,3.743,3.743,3.743,3.743,3.743,3.743,3.743,3.755,3.755,3.767,3.767,3.78,3.78,3.78,3.78,3.78,3.78,3.78,3.78,3.78,3.78,3.767,3.767,3.767,3.755,3.755,3.755,3.755,3.755,3.755,3.755,3.755,3.755,3.755,3.755,3.755,3.767,3.767,3.767,3.767,3.767,3.78,3.78,3.792,3.804,3.804,3.804,3.804,3.804,3.817,3.817,3.829,3.829,3.829,3.842,3.868,3.933,4.014,4.158,4.249,0.0,4.361000000000001,0.0,0.0,4.791,4.851,4.891,4.912,4.912,4.912,4.891,4.851,4.83,4.565,4.376,4.28,4.158,3.893,3.855,3.829,3.817,3.804,3.767,3.743,3.743,3.743,3.755,3.767,3.804,3.817,3.829,3.855,3.868,3.88,3.92,3.946,3.933,3.92,3.906,3.906,3.893,3.88,3.868,3.868,3.868,3.868,3.868,3.868,3.868,3.868,3.868,3.88,3.88,3.88,3.893,3.893,3.893,3.893,3.906,3.906,3.906,3.906,3.906,3.906,3.906,3.906,3.893,3.893,3.893,3.893,3.893,3.893,3.893,3.893,3.893,3.893,3.893,3.893,3.893,3.893,3.88,3.88,3.893,3.893,3.893,3.906,3.92,3.92,3.933,3.973,3.973,3.987,4.014,4.028,4.056,4.07,4.07,4.085,4.085,4.085,4.07,4.085,4.085,4.085,4.07,4.085,4.085,4.085,4.085,4.085,4.085,4.085,4.114,4.114,4.114,4.114,4.114,4.128,4.128,4.158,4.158,4.173,4.173,4.173,4.188,4.188,4.203,4.203,4.218,4.218,4.218,4.233,4.233,4.233,4.218,4.218,4.203,4.203,4.188,4.188,4.188,4.173,4.173,4.173,4.173,4.173,4.173,4.173,4.173,4.188,4.188,4.188,4.203,4.218,4.218,4.218,4.203,4.203,4.218,4.218,4.218,4.203,4.203,4.203,4.203,4.218,4.218,4.218,4.188,4.203,4.203,4.203,4.218,4.233,4.249,4.249,4.264,4.264,4.264,4.28,4.28,4.28,4.28,4.296,4.296,4.296,4.296,4.28,4.28,4.28,4.28,4.28,4.28,4.264,4.264,4.264,4.264,4.264,4.264,4.264,4.264,4.28,4.28,4.296,4.312,4.328,4.328,4.328,4.344,4.344,4.344,4.344,4.344,4.344,4.328,4.328,4.328,4.328,4.328,4.312,4.312,4.312,4.312,4.312,4.312,4.312,4.312,4.312,4.312,4.328,4.328,4.328,4.344,4.344,4.36,4.36,4.376,4.36,4.36,4.36,4.344,4.344,4.344,4.328,4.328,4.328,4.328,4.312,4.312,4.296,4.296,4.28,4.28,4.264,4.264,4.264,4.249,4.249,4.249,4.249,4.249,4.249,4.249,4.249,4.233,4.233,4.233,4.249,4.249,4.249,4.264,4.264,4.28,4.28,4.296,4.312,4.312,4.312,4.312,4.312,4.312,4.312,4.328,4.328,4.328,4.328,4.344,4.36,4.376,4.393,4.393,4.426,4.46,4.477,4.512,4.53,4.565,4.583,4.583,4.601,4.601,4.601,4.601,4.601,4.583,4.565,4.565,4.53,4.477,4.426,4.376,4.312,4.264,4.203,4.085,3.906,3.868,3.842,3.829,3.817,3.817,3.817,3.817,3.829,3.842,3.88,3.946,4.07,4.188,4.214625,4.264,4.328,4.426,4.583,4.694,4.752,4.771,4.81,4.81,4.83,4.83,4.83,4.851,4.851,4.851,4.851,4.851,4.851,4.851,4.851,4.851,4.851,4.851,4.851,4.871,4.871,4.891,4.891,4.891,4.891,4.891,4.891,4.891,4.891,4.891,4.871,4.871,4.851,4.851,4.851,4.851,4.851,4.851,4.851,4.871,4.871,4.891,4.891,4.891,4.891,4.891,4.891,4.891,4.891,4.912,4.912,4.912,4.912,4.912,4.912,4.912,4.912,4.912,4.891,4.891,4.891,4.891,4.891,4.912,4.912,4.912,4.891,4.891,4.912,4.912,4.912,4.912,4.912,4.912,4.891,4.891,4.891,4.871,4.851,4.851,4.83,4.81,4.791,4.694,4.638,4.583,4.565,4.477,4.477,4.46,4.46,4.46,4.477,4.46,4.46,4.477,4.477,4.46,4.426,4.41,4.393,4.376,4.36,4.36,4.344,4.344,4.344,4.344,4.344,4.344,4.344,4.344,4.344,4.344,4.328,4.328,4.328,4.312,4.296,4.28,4.264,4.249,4.249,4.218,4.173,4.07,4.014,3.946,3.933,3.893,3.868,3.855,3.829,3.829,3.817,3.817
3.672,3.672,3.696,3.696,3.696,3.707,3.707,3.731,3.731,3.731,3.731,3.743,3.743,3.743,3.743,3.743,3.743,3.743,3.743,3.743,3.743,3.743,3.743,3.743,3.743,3.743,3.743,3.743,3.755,3.767,3.767,3.767,3.78,3.78,3.792,3.792,3.792,3.792,3.792,3.792,3.792,3.792,3.792,3.78,3.767,3.767,3.767,3.767,3.767,3.767,3.78,3.78,3.78,3.792,3.792,3.792,3.792,3.804,3.804,3.804,3.804,3.804,3.804,3.804,3.804,3.817,3.817,3.817,3.817,3.817,3.817,3.829,3.829,3.829,3.842,3.855,3.868,3.893,3.946,4.056,4.173,4.249,4.312,0.0,0.0,4.625500000000001,4.694,4.771,4.81,4.83,4.83,4.83,4.81,4.752,4.657,4.36,4.28,4.173,4.028,3.893,3.868,3.842,3.817,3.804,3.804,3.792,3.792,3.804,3.804,3.829,3.842,3.855,3.868,3.893,3.906,3.946,3.973,3.973,3.933,3.933,3.92,3.906,3.893,3.88,3.88,3.88,3.868,3.88,3.88,3.88,3.88,3.893,3.906,3.906,3.92,3.906,3.92,3.92,3.92,3.92,3.92,3.92,3.92,3.92,3.92,3.92,3.92,3.92,3.92,3.92,3.92,3.92,3.92,3.92,3.92,3.906,3.906,3.906,3.906,3.906,3.893,3.893,3.893,3.893,3.893,3.906,3.92,3.933,3.946,3.973,3.987,4.014,4.056,4.056,4.085,4.085,4.114,4.128,4.128,4.128,4.128,4.128,4.128,4.128,4.114,4.114,4.114,4.114,4.114,4.114,4.114,4.114,4.114,4.114,4.128,4.128,4.128,4.158,4.158,4.158,4.173,4.173,4.188,4.188,4.203,4.203,4.203,4.218,4.233,4.233,4.233,4.233,4.249,4.249,4.249,4.249,4.233,4.233,4.233,4.233,4.218,4.218,4.218,4.218,4.218,4.218,4.218,4.203,4.203,4.203,4.218,4.218,4.233,4.233,4.233,4.249,4.249,4.249,4.249,4.249,4.249,4.233,4.233,4.249,4.249,4.249,4.249,4.249,4.249,4.249,4.249,4.233,4.233,4.233,4.249,4.249,4.249,4.264,4.264,4.28,4.296,4.296,4.312,4.312,4.312,4.312,4.312,4.312,4.312,4.312,4.312,4.296,4.296,4.296,4.28,4.28,4.264,4.264,4.264,4.264,4.264,4.28,4.28,4.296,4.312,4.328,4.344,4.36,4.344,4.36,4.36,4.36,4.36,4.36,4.36,4.344,4.344,4.328,4.328,4.328,4.328,4.312,4.312,4.312,4.312,4.312,4.328,4.328,4.328,4.328,4.344,4.36,4.376,4.376,4.393,4.393,4.41,4.41,4.41,4.393,4.376,4.36,4.36,4.36,4.344,4.328,4.328,4.328,4.328,4.312,4.312,4.296,4.296,4.28,4.28,4.264,4.264,4.264,4.249,4.249,4.249,4.249,4.249,4.249,4.233,4.233,4.233,4.249,4.249,4.249,4.264,4.264,4.28,4.28,4.296,4.312,4.312,4.328,4.328,4.328,4.328,4.328,4.328,4.328,4.344,4.344,4.36,4.376,4.393,4.41,4.41,4.426,4.46,4.477,4.53,4.565,4.565,4.583,4.601,4.638,4.638,4.638,4.657,4.638,4.638,4.638,4.601,4.583,4.565,4.53,4.46,4.393,4.328,4.28,4.233,4.128,3.933,3.868,3.842,3.829,3.829,3.817,3.817,3.817,3.829,3.842,3.868,3.946,4.07,4.1365,4.203,4.264,4.328,4.46,4.638,4.732,4.791,4.81,4.83,4.83,4.851,4.851,4.851,4.851,4.851,4.851,4.851,4.851,4.851,4.851,4.851,4.851,4.871,4.891,4.891,4.891,4.891,4.891,4.891,4.912,4.912,4.912,4.912,4.912,4.912,4.912,4.891,4.891,4.891,4.871,4.871,4.871,4.871,4.871,4.871,4.871,4.891,4.891,4.891,4.891,4.891,4.891,4.912,4.912,4.912,4.912,4.912,4.912,4.912,4.912,4.912,4.912,4.912,4.912,4.912,4.912,4.912,4.912,4.912,4.912,4.912,4.912,4.912,4.912,4.912,4.912,4.912,4.912,4.891,4.891,4.891,4.891,4.891,4.871,4.851,4.851,4.83,4.81,4.791,4.694,4.638,4.583,4.53,4.477,4.477,4.477,4.477,4.477,4.512,4.477,4.512,4.512,4.512,4.512,4.477,4.46,4.426,4.41,4.393,4.376,4.36,4.36,4.344,4.344,4.344,4.344,4.344,4.328,4.328,4.328,4.328,4.312,4.312,4.296,4.28,4.264,4.249,4.233,4.218,4.173,4.07,4.028,3.973,3.933,3.906,3.88,3.855,3.855,3.829,3.817,3.804,3.804
3.696,3.696,3.707,3.707,3.707,3.731,3.731,3.743,3.743,3.743,3.743,3.755,3.755,3.743,3.743,3.755,3.755,3.755,3.755,3.755,3.755,3.755,3.755,3.743,3.743,3.755,3.755,3.755,3.755,3.767,3.78,3.78,3.78,3.792,3.792,3.792,3.804,3.804,3.804,3.804,3.804,3.804,3.804,3.792,3.792,3.792,3.78,3.78,3.78,3.792,3.792,3.804,3.804,3.804,3.804,3.817,3.817,3.817,3.817,3.829,3.829,3.829,3.829,3.829,3.829,3.829,3.829,3.829,3.829,3.829,3.829,3.829,3.829,3.842,3.842,3.855,3.855,3.868,3.906,3.946,4.028,4.158,4.233,4.28,4.344,4.46,4.527,4.5825,4.638,4.694,4.694,4.694,4.583,4.512,4.393,4.328,4.264,4.203,4.07,3.933,3.893,3.868,3.855,3.829,3.829,3.817,3.817,3.829,3.842,3.855,3.868,3.88,3.893,3.92,3.933,3.973,3.987,3.987,3.973,3.933,3.933,3.92,3.906,3.906,3.906,3.906,3.893,3.906,3.906,3.906,3.906,3.92,3.92,3.933,3.933,3.933,3.933,3.933,3.933,3.946,3.946,3.946,3.946,3.946,3.946,3.946,3.946,3.946,3.946,3.946,3.946,3.946,3.946,3.946,3.946,3.946,3.933,3.933,3.92,3.92,3.92,3.92,3.906,3.906,3.92,3.92,3.933,3.933,3.973,3.987,4.014,4.056,4.07,4.085,4.128,4.128,4.158,4.173,4.173,4.173,4.173,4.158,4.173,4.158,4.158,4.158,4.158,4.158,4.158,4.128,4.128,4.128,4.128,4.128,4.158,4.158,4.158,4.158,4.173,4.188,4.188,4.203,4.203,4.218,4.233,4.233,4.249,4.249,4.249,4.249,4.249,4.249,4.249,4.249,4.249,4.249,4.249,4.249,4.249,4.249,4.249,4.233,4.233,4.233,4.233,4.233,4.218,4.218,4.218,4.218,4.233,4.233,4.249,4.249,4.249,4.249,4.249,4.264,4.264,4.264,4.264,4.264,4.264,4.264,4.264,4.264,4.264,4.264,4.249,4.249,4.249,4.249,4.249,4.249,4.249,4.249,4.264,4.264,4.28,4.28,4.296,4.312,4.312,4.312,4.328,4.328,4.328,4.328,4.328,4.312,4.312,4.312,4.312,4.312,4.296,4.296,4.28,4.28,4.28,4.28,4.296,4.312,4.312,4.328,4.328,4.36,4.36,4.376,4.376,4.376,4.376,4.376,4.393,4.393,4.376,4.376,4.36,4.344,4.344,4.328,4.328,4.328,4.328,4.328,4.328,4.328,4.328,4.328,4.344,4.36,4.376,4.393,4.41,4.426,4.426,4.426,4.426,4.46,4.426,4.426,4.393,4.393,4.376,4.376,4.36,4.344,4.328,4.328,4.328,4.328,4.328,4.312,4.312,4.296,4.28,4.28,4.28,4.264,4.264,4.249,4.249,4.249,4.249,4.249,4.249,4.249,4.249,4.249,4.249,4.264,4.28,4.28,4.296,4.312,4.328,4.328,4.328,4.344,4.344,4.344,4.344,4.36,4.36,4.36,4.376,4.376,4.393,4.41,4.426,4.46,4.477,4.477,4.512,4.53,4.583,4.601,4.601,4.638,4.657,4.657,4.694,4.657,4.694,4.694,4.657,4.657,4.638,4.601,4.583,4.53,4.512,4.426,4.36,4.296,4.249,4.173,3.973,3.893,3.855,3.829,3.829,3.817,3.817,3.817,3.817,3.829,3.868,3.946,4.07,4.1365,4.203,4.28,4.36,4.512,4.694,4.771,4.81,4.83,4.83,4.851,4.851,4.871,4.871,4.871,4.871,4.851,4.851,4.851,4.871,4.871,4.871,4.871,4.891,4.891,4.891,4.891,4.891,4.891,4.912,4.912,4.912,4.912,4.912,4.912,4.912,4.912,4.912,4.912,4.891,4.891,4.891,4.891,4.871,4.871,4.871,4.891,4.891,4.891,4.891,4.891,4.891,4.891,4.891,4.912,4.912,4.912,4.912,4.912,4.912,4.912,4.912,4.912,4.912,4.912,4.912,4.912,4.912,4.912,4.912,4.912,4.912,4.912,4.912,4.912,4.912,4.912,4.912,4.912,4.912,4.891,4.891,4.891,4.891,4.871,4.851,4.851,4.83,4.81,4.771,4.657,4.601,4.565,4.53,4.512,4.477,4.477,4.512,4.512,4.53,4.53,4.53,4.53,4.565,4.565,4.53,4.512,4.46,4.426,4.41,4.393,4.376,4.36,4.344,4.344,4.344,4.344,4.328,4.328,4.312,4.312,4.312,4.312,4.28,4.264,4.264,4.249,4.233,4.203,4.173,4.07,4.028,3.987,3.933,3.893,3.88,3.868,3.855,3.829,3.817,3.804,3.804,3.804
3.707,3.707,3.707,3.731,3.731,3.731,3.743,3.743,3.743,3.755,3.755,3.755,3.755,3.755,3.755,3.755,3.755,3.755,3.767,3.767,3.767,3.755,3.755,3.755,3.755,3.755,3.755,3.767,3.767,3.767,3.78,3.792,3.792,3.792,3.804,3.804,3.804,3.804,3.804,3.804,3.804,3.804,3.804,3.804,3.804,3.804,3.792,3.792,3.792,3.804,3.804,3.804,3.817,3.817,3.829,3.829,3.829,3.829,3.842,3.842,3.855,3.855,3.855,3.855,3.855,3.855,3.855,3.855,3.855,3.842,3.842,3.855,3.842,3.855,3.855,3.855,3.868,3.868,3.88,3.906,3.973,4.056,4.128,4.218,4.264,4.312,4.36,4.436875,4.477,4.512,4.512,4.477,4.46,4.393,4.328,4.296,4.264,4.203,4.114,4.056,3.946,3.92,3.893,3.868,3.868,3.868,3.868,3.868,3.868,3.88,3.906,3.933,3.946,3.973,3.987,4.014,4.014,4.014,3.973,3.946,3.946,3.933,3.933,3.92,3.92,3.92,3.92,3.933,3.933,3.933,3.946,3.946,3.946,3.973,3.973,3.973,3.973,3.987,3.973,3.973,3.987,3.987,3.973,3.973,3.973,3.973,3.973,3.973,3.973,3.973,3.973,3.973,3.973,3.973,3.973,3.973,3.973,3.973,3.946,3.933,3.933,3.933,3.933,3.933,3.933,3.933,3.933,3.946,3.973,4.014,4.028,4.07,4.085,4.114,4.128,4.173,4.173,4.188,4.188,4.188,4.188,4.188,4.188,4.173,4.173,4.173,4.173,4.173,4.158,4.158,4.158,4.158,4.158,4.158,4.173,4.173,4.188,4.188,4.203,4.218,4.218,4.233,4.233,4.233,4.249,4.249,4.249,4.264,4.264,4.264,4.264,4.264,4.264,4.264,4.264,4.264,4.249,4.249,4.249,4.249,4.249,4.249,4.249,4.249,4.233,4.233,4.233,4.233,4.233,4.233,4.233,4.249,4.249,4.249,4.249,4.264,4.264,4.264,4.264,4.264,4.264,4.264,4.264,4.264,4.28,4.28,4.28,4.264,4.264,4.264,4.264,4.249,4.249,4.249,4.249,4.249,4.264,4.264,4.28,4.28,4.296,4.312,4.312,4.328,4.328,4.328,4.328,4.328,4.328,4.328,4.328,4.328,4.312,4.312,4.312,4.312,4.296,4.296,4.296,4.312,4.312,4.328,4.328,4.344,4.36,4.393,4.41,4.41,4.426,4.46,4.426,4.46,4.46,4.46,4.426,4.393,4.393,4.376,4.376,4.36,4.36,4.344,4.328,4.328,4.328,4.328,4.36,4.36,4.376,4.376,4.41,4.426,4.46,4.477,4.477,4.477,4.512,4.512,4.512,4.477,4.46,4.426,4.41,4.393,4.376,4.36,4.36,4.344,4.344,4.344,4.344,4.328,4.328,4.312,4.312,4.312,4.28,4.28,4.28,4.264,4.264,4.249,4.249,4.249,4.249,4.249,4.249,4.264,4.264,4.28,4.296,4.312,4.328,4.328,4.344,4.36,4.376,4.376,4.376,4.393,4.393,4.393,4.393,4.41,4.41,4.426,4.426,4.46,4.477,4.512,4.53,4.565,4.583,4.601,4.638,4.638,4.657,4.657,4.694,4.694,4.713,4.713,4.694,4.694,4.694,4.657,4.657,4.657,4.601,4.565,4.512,4.426,4.376,4.312,4.249,4.173,3.946,3.88,3.855,3.829,3.817,3.817,3.804,3.804,3.817,3.829,3.855,3.933,4.056,4.1295,4.203,4.28,4.36,4.53,4.732,4.791,4.83,4.83,4.851,4.871,4.871,4.891,4.891,4.891,4.891,4.871,4.871,4.871,4.871,4.871,4.871,4.891,4.891,4.891,4.891,4.891,4.891,4.912,4.912,4.912,4.912,4.912,4.933,4.933,4.933,4.933,4.912,4.912,4.891,4.891,4.891,4.891,4.891,4.891,4.891,4.891,4.891,4.891,4.891,4.891,4.891,4.912,4.912,4.912,4.912,4.912,4.912,4.912,4.912,4.912,4.933,4.933,4.933,4.933,4.933,4.933,4.933,4.933,4.933,4.933,4.933,4.933,4.933,4.933,4.912,4.912,4.912,4.912,4.912,4.912,4.891,4.891,4.891,4.871,4.851,4.851,4.83,4.81,4.771,4.657,4.638,4.583,4.565,4.512,4.512,4.512,4.53,4.53,4.565,4.565,4.565,4.583,4.583,4.583,4.565,4.53,4.477,4.477,4.426,4.41,4.376,4.36,4.344,4.344,4.344,4.328,4.328,4.312,4.312,4.296,4.28,4.28,4.264,4.249,4.233,4.218,4.188,4.114,4.07,4.028,3.973,3.933,3.906,3.868,3.868,3.855,3.842,3.829,3.817,3.804,3.792,3.78
3.731,3.731,3.731,3.743,3.743,3.743,3.743,3.755,3.755,3.755,3.755,3.755,3.755,3.767,3.767,3.767,3.767,3.767,3.767,3.767,3.767,3.767,3.767,3.767,3.767,3.767,3.767,3.78,3.78,3.78,3.792,3.792,3.804,3.804,3.804,3.804,3.804,3.804,3.804,3.804,3.817,3.817,3.804,3.804,3.804,3.804,3.804,3.804,3.804,3.804,3.817,3.817,3.829,3.829,3.842,3.842,3.855,3.855,3.868,3.868,3.868,3.868,3.868,3.868,3.868,3.868,3.868,3.868,3.868,3.855,3.855,3.855,3.855,3.855,3.868,3.868,3.868,3.868,3.88,3.893,3.933,3.987,4.056,4.114,4.203,4.249,4.28,4.328,4.36125,4.36,4.376,4.36,4.344,4.328,4.312,4.28,4.249,4.203,4.158,4.114,4.07,4.028,3.973,3.946,3.933,3.933,3.933,3.933,3.946,3.946,3.973,3.987,3.987,4.014,4.014,4.014,4.014,3.987,3.973,3.946,3.946,3.933,3.92,3.92,3.92,3.92,3.92,3.933,3.933,3.946,3.973,3.987,3.987,4.014,4.014,4.014,4.014,4.014,4.028,4.014,4.014,4.028,4.014,4.014,4.028,4.028,4.028,4.014,4.014,4.014,4.028,4.028,4.028,4.028,4.028,4.028,4.014,4.014,3.987,3.987,3.973,3.973,3.946,3.946,3.946,3.946,3.973,3.973,4.014,4.028,4.056,4.07,4.114,4.128,4.173,4.173,4.203,4.203,4.203,4.203,4.203,4.203,4.203,4.188,4.188,4.203,4.188,4.188,4.188,4.188,4.188,4.188,4.173,4.173,4.188,4.188,4.188,4.203,4.218,4.218,4.233,4.233,4.249,4.249,4.249,4.264,4.264,4.264,4.264,4.264,4.264,4.264,4.28,4.264,4.264,4.264,4.264,4.264,4.264,4.264,4.264,4.249,4.249,4.249,4.249,4.249,4.249,4.249,4.249,4.249,4.249,4.249,4.249,4.249,4.264,4.264,4.264,4.28,4.28,4.28,4.28,4.28,4.28,4.28,4.28,4.28,4.28,4.28,4.28,4.28,4.264,4.264,4.249,4.249,4.249,4.249,4.264,4.264,4.28,4.28,4.312,4.312,4.328,4.328,4.328,4.344,4.344,4.344,4.344,4.344,4.328,4.328,4.328,4.328,4.312,4.312,4.312,4.312,4.312,4.312,4.328,4.328,4.344,4.376,4.393,4.41,4.426,4.46,4.46,4.477,4.477,4.512,4.512,4.512,4.477,4.477,4.477,4.46,4.426,4.426,4.41,4.41,4.393,4.36,4.36,4.376,4.376,4.393,4.393,4.426,4.426,4.477,4.512,4.53,4.53,4.565,4.565,4.565,4.53,4.53,4.512,4.477,4.46,4.426,4.41,4.41,4.393,4.376,4.393,4.376,4.376,4.36,4.36,4.344,4.328,4.328,4.312,4.312,4.296,4.28,4.264,4.264,4.264,4.264,4.264,4.264,4.264,4.28,4.28,4.312,4.312,4.328,4.344,4.376,4.393,4.41,4.41,4.426,4.426,4.426,4.426,4.426,4.46,4.46,4.477,4.477,4.512,4.53,4.53,4.565,4.583,4.601,4.638,4.657,4.657,4.694,4.694,4.713,4.713,4.713,4.713,4.732,4.713,4.713,4.713,4.694,4.694,4.657,4.638,4.583,4.53,4.46,4.393,4.328,4.264,4.188,3.946,3.88,3.842,3.817,3.804,3.792,3.792,3.792,3.804,3.817,3.842,3.893,4.028,4.114875,4.188,4.28,4.344,4.53,4.713,4.81,4.83,4.851,4.851,4.891,4.891,4.891,4.891,4.891,4.891,4.891,4.891,4.891,4.891,4.891,4.891,4.891,4.891,4.891,4.891,4.891,4.912,4.912,4.912,4.912,4.933,4.933,4.933,4.933,4.933,4.954,4.933,4.912,4.912,4.912,4.912,4.891,4.891,4.891,4.891,4.891,4.891,4.891,4.891,4.891,4.912,4.912,4.912,4.912,4.912,4.912,4.912,4.912,4.933,4.933,4.933,4.933,4.954,4.954,4.954,4.954,4.954,4.954,4.954,4.975,4.975,4.954,4.954,4.933,4.933,4.933,4.912,4.912,4.912,4.912,4.891,4.891,4.891,4.871,4.851,4.851,4.83,4.81,4.771,4.694,4.601,4.583,4.565,4.53,4.53,4.53,4.565,4.565,4.565,4.583,4.601,4.601,4.583,4.601,4.583,4.53,4.512,4.477,4.426,4.41,4.376,4.36,4.344,4.344,4.344,4.328,4.312,4.296,4.28,4.28,4.264,4.264,4.249,4.233,4.188,4.173,4.114,4.07,4.028,3.973,3.933,3.906,3.88,3.868,3.855,3.855,3.829,3.817,3.804,3.792,3.78,3.78
3.743,3.743,3.743,3.743,3.755,3.755,3.755,3.755,3.755,3.767,3.767,3.767,3.767,3.767,3.767,3.78,3.78,3.78,3.78,3.78,3.792,3.78,3.78,3.78,3.78,3.78,3.792,3.792,3.792,3.792,3.804,3.804,3.804,3.804,3.817,3.817,3.817,3.817,3.817,3.817,3.817,3.817,3.817,3.817,3.817,3.817,3.817,3.817,3.817,3.817,3.829,3.829,3.842,3.842,3.855,3.868,3.868,3.88,3.893,3.893,3.906,3.906,3.906,3.906,3.906,3.893,3.893,3.88,3.88,3.868,3.868,3.868,3.868,3.868,3.868,3.868,3.868,3.88,3.893,3.906,3.92,3.973,4.014,4.07,4.128,4.188,4.249,4.264,4.28,4.296,4.296,4.296,4.28,4.28,4.264,4.249,4.218,4.203,4.173,4.128,4.114,4.085,4.07,4.028,4.014,4.014,4.014,4.014,4.028,4.028,4.056,4.056,4.056,4.056,4.028,4.028,4.028,4.028,4.014,3.987,3.987,3.973,3.973,3.946,3.946,3.946,3.973,3.973,3.973,3.987,3.987,4.014,4.014,4.028,4.028,4.028,4.056,4.056,4.056,4.056,4.056,4.056,4.056,4.056,4.056,4.056,4.056,4.056,4.056,4.056,4.07,4.07,4.07,4.07,4.07,4.07,4.056,4.056,4.028,4.014,4.014,4.014,3.987,3.987,3.987,3.987,3.987,4.014,4.028,4.056,4.07,4.114,4.158,4.173,4.188,4.203,4.218,4.218,4.233,4.218,4.218,4.218,4.218,4.218,4.218,4.203,4.203,4.203,4.203,4.203,4.203,4.203,4.188,4.188,4.203,4.203,4.218,4.218,4.233,4.233,4.249,4.249,4.249,4.249,4.264,4.264,4.264,4.28,4.28,4.28,4.28,4.28,4.28,4.28,4.28,4.28,4.28,4.28,4.264,4.264,4.264,4.264,4.264,4.264,4.264,4.264,4.264,4.264,4.264,4.264,4.264,4.264,4.264,4.264,4.264,4.264,4.28,4.28,4.28,4.28,4.296,4.296,4.296,4.296,4.312,4.312,4.312,4.296,4.28,4.28,4.264,4.264,4.249,4.249,4.249,4.249,4.249,4.264,4.28,4.28,4.312,4.312,4.328,4.328,4.344,4.344,4.36,4.36,4.36,4.36,4.344,4.344,4.328,4.328,4.328,4.328,4.328,4.328,4.328,4.328,4.344,4.36,4.376,4.393,4.41,4.46,4.477,4.512,4.512,4.53,4.53,4.53,4.53,4.53,4.53,4.53,4.512,4.512,4.477,4.477,4.46,4.426,4.426,4.426,4.426,4.46,4.46,4.477,4.512,4.512,4.512,4.53,4.565,4.583,4.583,4.583,4.601,4.601,4.583,4.583,4.565,4.53,4.512,4.477,4.477,4.426,4.426,4.426,4.426,4.426,4.426,4.41,4.393,4.393,4.376,4.36,4.344,4.328,4.312,4.312,4.28,4.28,4.264,4.264,4.28,4.28,4.28,4.312,4.312,4.328,4.344,4.376,4.393,4.426,4.46,4.46,4.477,4.477,4.512,4.512,4.512,4.512,4.512,4.512,4.53,4.565,4.565,4.583,4.601,4.638,4.638,4.657,4.694,4.713,4.713,4.713,4.732,4.732,4.732,4.732,4.732,4.732,4.732,4.732,4.732,4.713,4.713,4.694,4.694,4.601,4.565,4.477,4.41,4.328,4.264,4.188,3.933,3.868,3.829,3.804,3.792,3.767,3.767,3.767,3.767,3.792,3.817,3.868,3.973,4.114,4.1815,4.249,4.328,4.512,4.713,4.81,4.851,4.851,4.871,4.891,4.891,4.912,4.891,4.891,4.891,4.891,4.891,4.891,4.891,4.891,4.891,4.891,4.891,4.891,4.891,4.891,4.891,4.912,4.912,4.912,4.912,4.912,4.933,4.933,4.954,4.954,4.933,4.933,4.933,4.912,4.912,4.912,4.912,4.912,4.891,4.891,4.891,4.891,4.891,4.891,4.912,4.912,4.912,4.912,4.912,4.912,4.912,4.933,4.933,4.933,4.933,4.954,4.954,4.975,4.975,4.975,4.975,4.996,4.975,4.996,4.996,4.975,4.975,4.954,4.954,4.933,4.933,4.912,4.912,4.912,4.891,4.891,4.871,4.851,4.851,4.83,4.83,4.81,4.752,4.657,4.601,4.565,4.565,4.53,4.53,4.53,4.565,4.565,4.583,4.583,4.601,4.601,4.601,4.601,4.583,4.565,4.512,4.512,4.46,4.41,4.393,4.36,4.344,4.328,4.328,4.328,4.312,4.296,4.28,4.264,4.264,4.249,4.218,4.203,4.173,4.085,4.056,4.014,3.946,3.92,3.893,3.88,3.855,3.855,3.842,3.829,3.829,3.817,3.804,3.78,3.767,3.767
3.767,3.767,3.755,3.755,3.755,3.767,3.767,3.767,3.767,3.767,3.78,3.78,3.78,3.78,3.78,3.792,3.792,3.804,3.804,3.804,3.804,3.804,3.804,3.804,3.804,3.804,3.804,3.804,3.804,3.804,3.804,3.817,3.817,3.817,3.817,3.817,3.817,3.817,3.829,3.829,3.829,3.829,3.829,3.829,3.829,3.817,3.817,3.817,3.829,3.829,3.829,3.842,3.855,3.855,3.868,3.868,3.88,3.893,3.906,3.92,3.92,3.933,3.933,3.933,3.92,3.92,3.906,3.906,3.893,3.88,3.88,3.868,3.868,3.868,3.868,3.868,3.88,3.88,3.893,3.906,3.933,3.973,3.987,4.028,4.07,4.128,4.188,4.218,4.249,4.249,4.249,4.264,4.264,4.264,4.249,4.233,4.218,4.188,4.173,4.158,4.128,4.114,4.114,4.085,4.085,4.07,4.085,4.085,4.085,4.085,4.085,4.085,4.085,4.085,4.085,4.085,4.085,4.07,4.056,4.056,4.056,4.028,4.028,4.014,4.014,4.014,4.014,4.014,4.014,4.014,4.028,4.056,4.056,4.056,4.07,4.07,4.07,4.07,4.085,4.085,4.085,4.085,4.07,4.07,4.085,4.085,4.085,4.085,4.085,4.085,4.114,4.114,4.114,4.114,4.114,4.114,4.114,4.114,4.085,4.07,4.056,4.056,4.028,4.028,4.014,4.014,4.028,4.028,4.056,4.07,4.114,4.128,4.173,4.188,4.203,4.218,4.233,4.233,4.249,4.249,4.233,4.233,4.233,4.233,4.218,4.218,4.218,4.218,4.218,4.218,4.218,4.218,4.218,4.218,4.218,4.233,4.233,4.233,4.249,4.249,4.249,4.249,4.264,4.264,4.264,4.264,4.28,4.28,4.28,4.28,4.296,4.296,4.296,4.296,4.28,4.28,4.28,4.28,4.28,4.28,4.28,4.28,4.28,4.28,4.264,4.264,4.264,4.264,4.264,4.264,4.264,4.264,4.264,4.28,4.28,4.28,4.296,4.296,4.296,4.312,4.312,4.312,4.312,4.312,4.312,4.312,4.312,4.312,4.296,4.296,4.28,4.264,4.264,4.264,4.264,4.264,4.264,4.264,4.28,4.28,4.312,4.328,4.328,4.344,4.36,4.376,4.376,4.393,4.393,4.376,4.376,4.36,4.36,4.36,4.344,4.344,4.344,4.344,4.344,4.344,4.376,4.376,4.41,4.426,4.46,4.477,4.512,4.53,4.53,4.565,4.565,4.583,4.583,4.583,4.583,4.565,4.565,4.565,4.565,4.53,4.53,4.512,4.512,4.512,4.512,4.512,4.53,4.53,4.565,4.583,4.601,4.638,4.657,4.694,4.694,4.694,4.657,4.657,4.638,4.638,4.601,4.583,4.565,4.565,4.53,4.53,4.512,4.512,4.477,4.512,4.477,4.477,4.46,4.426,4.426,4.41,4.393,4.36,4.328,4.328,4.312,4.296,4.296,4.28,4.296,4.312,4.312,4.328,4.344,4.376,4.393,4.426,4.46,4.477,4.512,4.53,4.53,4.565,4.565,4.565,4.565,4.583,4.583,4.583,4.601,4.601,4.638,4.657,4.657,4.694,4.713,4.713,4.732,4.732,4.732,4.752,4.752,4.752,4.752,4.752,4.752,4.752,4.732,4.732,4.732,4.713,4.713,4.694,4.694,4.601,4.565,4.477,4.393,4.312,4.264,4.158,3.92,3.855,3.817,3.792,3.767,3.755,3.743,3.743,3.743,3.767,3.804,3.842,3.906,4.056,4.1370000000000005,4.218,4.312,4.426,4.657,4.791,4.83,4.871,4.891,4.891,4.912,4.912,4.912,4.912,4.912,4.891,4.891,4.891,4.891,4.891,4.891,4.891,4.891,4.891,4.891,4.891,4.891,4.891,4.912,4.912,4.912,4.912,4.933,4.933,4.954,4.954,4.954,4.933,4.933,4.933,4.912,4.912,4.912,4.912,4.912,4.891,4.891,4.912,4.912,4.891,4.912,4.912,4.912,4.912,4.912,4.912,4.933,4.933,4.933,4.954,4.954,4.954,4.975,4.975,4.996,4.996,4.996,4.996,4.996,4.996,4.996,4.996,4.975,4.975,4.954,4.933,4.933,4.912,4.912,4.891,4.891,4.871,4.851,4.851,4.851,4.83,4.81,4.81,4.713,4.657,4.601,4.565,4.565,4.53,4.53,4.565,4.565,4.583,4.583,4.583,4.583,4.601,4.601,4.601,4.583,4.53,4.512,4.477,4.46,4.41,4.376,4.36,4.328,4.328,4.328,4.312,4.296,4.28,4.264,4.264,4.249,4.233,4.203,4.173,4.085,4.028,3.987,3.946,3.92,3.893,3.868,3.868,3.842,3.829,3.829,3.829,3.817,3.804,3.792,3.78,3.755,3.743
3.78,3.78,3.78,3.78,3.78,3.78,3.78,3.78,3.78,3.78,3.792,3.792,3.792,3.804,3.804,3.804,3.804,3.804,3.817,3.817,3.817,3.817,3.817,3.817,3.817,3.817,3.817,3.817,3.817,3.817,3.817,3.817,3.829,3.829,3.829,3.829,3.829,3.829,3.842,3.842,3.842,3.842,3.842,3.842,3.829,3.829,3.829,3.829,3.829,3.842,3.855,3.855,3.855,3.868,3.868,3.88,3.906,3.92,3.933,3.946,3.946,3.973,3.973,3.973,3.946,3.933,3.933,3.92,3.906,3.906,3.893,3.893,3.88,3.88,3.88,3.893,3.88,3.893,3.893,3.906,3.933,3.973,3.987,4.028,4.056,4.085,4.128,4.173,4.188,4.203,4.203,4.218,4.218,4.218,4.218,4.203,4.203,4.188,4.173,4.158,4.158,4.128,4.128,4.128,4.114,4.114,4.114,4.114,4.128,4.128,4.128,4.128,4.128,4.128,4.128,4.128,4.128,4.114,4.114,4.085,4.085,4.07,4.07,4.07,4.056,4.056,4.056,4.056,4.07,4.07,4.07,4.085,4.085,4.085,4.114,4.114,4.114,4.114,4.114,4.114,4.128,4.114,4.114,4.114,4.128,4.128,4.128,4.128,4.158,4.158,4.158,4.158,4.158,4.158,4.158,4.158,4.158,4.158,4.158,4.128,4.114,4.085,4.07,4.07,4.07,4.056,4.085,4.114,4.114,4.128,4.158,4.173,4.188,4.203,4.233,4.233,4.249,4.249,4.249,4.249,4.249,4.249,4.249,4.249,4.249,4.249,4.249,4.249,4.249,4.233,4.233,4.249,4.249,4.249,4.249,4.249,4.249,4.249,4.249,4.264,4.264,4.264,4.264,4.264,4.264,4.28,4.28,4.28,4.28,4.296,4.296,4.296,4.296,4.296,4.296,4.296,4.296,4.296,4.296,4.296,4.28,4.28,4.28,4.28,4.28,4.28,4.28,4.28,4.28,4.28,4.28,4.28,4.28,4.28,4.296,4.296,4.312,4.312,4.328,4.328,4.328,4.328,4.328,4.328,4.328,4.328,4.328,4.312,4.312,4.296,4.28,4.28,4.264,4.264,4.264,4.264,4.264,4.28,4.28,4.312,4.328,4.328,4.344,4.36,4.376,4.393,4.41,4.41,4.41,4.41,4.41,4.393,4.393,4.376,4.376,4.376,4.376,4.376,4.376,4.376,4.393,4.41,4.426,4.46,4.477,4.53,4.565,4.583,4.583,4.601,4.601,4.601,4.638,4.638,4.638,4.601,4.601,4.601,4.583,4.583,4.583,4.565,4.565,4.565,4.565,4.565,4.583,4.583,4.601,4.601,4.638,4.657,4.694,4.713,4.732,4.732,4.732,4.732,4.732,4.732,4.713,4.713,4.638,4.601,4.601,4.583,4.583,4.583,4.583,4.583,4.583,4.583,4.565,4.53,4.512,4.477,4.46,4.426,4.393,4.36,4.344,4.328,4.328,4.328,4.328,4.328,4.36,4.376,4.41,4.46,4.477,4.512,4.565,4.583,4.583,4.601,4.601,4.638,4.638,4.638,4.638,4.657,4.657,4.657,4.694,4.694,4.713,4.713,4.732,4.752,4.752,4.752,4.771,4.771,4.771,4.771,4.771,4.771,4.771,4.771,4.771,4.752,4.732,4.732,4.732,4.732,4.713,4.713,4.694,4.601,4.53,4.46,4.376,4.312,4.233,4.085,3.88,3.829,3.804,3.755,3.743,3.731,3.707,3.707,3.707,3.743,3.78,3.829,3.868,3.987,4.0955,4.173,4.28,4.376,4.601,4.771,4.83,4.871,4.891,4.891,4.912,4.912,4.912,4.912,4.912,4.891,4.891,4.891,4.891,4.891,4.891,4.891,4.891,4.891,4.891,4.891,4.891,4.891,4.891,4.912,4.912,4.912,4.912,4.933,4.933,4.933,4.954,4.954,4.954,4.954,4.933,4.933,4.912,4.912,4.912,4.912,4.912,4.912,4.912,4.912,4.912,4.912,4.912,4.912,4.912,4.933,4.933,4.954,4.954,4.954,4.975,4.975,4.975,4.996,4.996,5.018,5.018,5.018,5.018,5.018,5.018,4.996,4.975,4.954,4.954,4.933,4.912,4.912,4.912,4.891,4.891,4.871,4.851,4.851,4.83,4.83,4.81,4.791,4.694,4.638,4.583,4.565,4.53,4.53,4.53,4.512,4.53,4.565,4.583,4.583,4.583,4.583,4.583,4.583,4.565,4.53,4.477,4.477,4.426,4.41,4.376,4.36,4.328,4.328,4.312,4.312,4.296,4.28,4.264,4.249,4.233,4.218,4.188,4.085,4.056,4.014,3.946,3.92,3.893,3.868,3.868,3.855,3.842,3.829,3.829,3.817,3.817,3.804,3.78,3.767,3.743,3.743
3.804,3.804,3.792,3.792,3.792,3.792,3.792,3.792,3.804,3.804,3.804,3.804,3.804,3.817,3.817,3.817,3.829,3.829,3.829,3.829,3.829,3.829,3.829,3.829,3.829,3.829,3.829,3.829,3.829,3.829,3.829,3.842,3.842,3.842,3.855,3.855,3.855,3.855,3.855,3.855,3.855,3.855,3.855,3.855,3.855,3.855,3.855,3.855,3.855,3.855,3.855,3.855,3.868,3.868,3.88,3.893,3.92,3.933,3.946,3.973,3.973,3.987,3.987,3.987,3.973,3.973,3.946,3.933,3.92,3.92,3.906,3.893,3.893,3.893,3.893,3.893,3.893,3.893,3.906,3.92,3.933,3.973,3.987,4.028,4.056,4.07,4.114,4.128,4.158,4.158,4.173,4.173,4.188,4.188,4.188,4.188,4.188,4.173,4.173,4.173,4.158,4.158,4.158,4.158,4.158,4.158,4.158,4.158,4.158,4.173,4.173,4.173,4.188,4.188,4.188,4.188,4.173,4.173,4.158,4.158,4.128,4.128,4.114,4.128,4.114,4.114,4.114,4.114,4.114,4.114,4.128,4.128,4.128,4.158,4.158,4.158,4.158,4.158,4.158,4.158,4.158,4.158,4.158,4.158,4.173,4.173,4.173,4.173,4.188,4.188,4.188,4.188,4.188,4.203,4.203,4.203,4.203,4.203,4.188,4.188,4.173,4.203,4.188,4.188,4.173,4.158,4.158,4.158,4.158,4.173,4.173,4.203,4.218,4.233,4.249,4.249,4.249,4.264,4.264,4.264,4.264,4.249,4.249,4.249,4.249,4.249,4.249,4.249,4.249,4.249,4.249,4.249,4.249,4.249,4.249,4.264,4.264,4.264,4.264,4.264,4.264,4.264,4.264,4.28,4.28,4.28,4.28,4.296,4.296,4.312,4.312,4.312,4.312,4.312,4.312,4.312,4.312,4.312,4.312,4.312,4.312,4.312,4.296,4.296,4.296,4.296,4.28,4.28,4.28,4.28,4.28,4.296,4.296,4.296,4.312,4.312,4.312,4.328,4.328,4.328,4.344,4.344,4.344,4.344,4.344,4.344,4.328,4.328,4.312,4.312,4.296,4.28,4.28,4.28,4.28,4.28,4.28,4.296,4.312,4.328,4.328,4.36,4.36,4.393,4.41,4.41,4.426,4.46,4.46,4.46,4.426,4.426,4.426,4.41,4.41,4.41,4.41,4.41,4.41,4.41,4.426,4.46,4.477,4.512,4.53,4.565,4.583,4.601,4.638,4.638,4.657,4.657,4.694,4.694,4.694,4.694,4.657,4.657,4.638,4.638,4.638,4.638,4.601,4.601,4.601,4.601,4.601,4.601,4.638,4.638,4.657,4.694,4.713,4.732,4.752,4.752,4.771,4.771,4.771,4.771,4.752,4.752,4.752,4.752,4.752,4.732,4.732,4.732,4.657,4.657,4.657,4.657,4.657,4.657,4.638,4.583,4.565,4.53,4.477,4.46,4.426,4.41,4.41,4.393,4.41,4.41,4.46,4.477,4.512,4.565,4.583,4.601,4.638,4.657,4.694,4.694,4.713,4.713,4.713,4.713,4.713,4.732,4.732,4.732,4.732,4.752,4.771,4.771,4.771,4.791,4.791,4.791,4.791,4.791,4.791,4.791,4.791,4.791,4.791,4.771,4.771,4.752,4.752,4.732,4.713,4.713,4.713,4.694,4.657,4.583,4.512,4.393,4.328,4.264,4.173,4.028,3.855,3.817,3.78,3.731,3.707,3.672,3.672,3.661,3.672,3.696,3.743,3.804,3.855,3.92,4.085,4.16625,4.249,4.328,4.512,4.713,4.81,4.851,4.891,4.891,4.912,4.912,4.912,4.912,4.891,4.891,4.891,4.891,4.891,4.891,4.871,4.871,4.871,4.871,4.871,4.871,4.871,4.891,4.891,4.891,4.891,4.891,4.912,4.912,4.933,4.954,4.954,4.954,4.954,4.954,4.954,4.933,4.912,4.912,4.912,4.912,4.912,4.912,4.912,4.912,4.912,4.912,4.912,4.912,4.933,4.933,4.954,4.954,4.975,4.975,4.996,4.996,4.996,5.018,5.018,5.018,5.04,5.04,5.018,5.04,5.018,5.018,4.996,4.975,4.954,4.933,4.933,4.912,4.912,4.891,4.891,4.871,4.851,4.851,4.83,4.83,4.81,4.791,4.713,4.638,4.583,4.565,4.565,4.53,4.512,4.53,4.565,4.583,4.583,4.583,4.601,4.583,4.601,4.601,4.565,4.512,4.477,4.477,4.426,4.41,4.36,4.328,4.328,4.328,4.312,4.296,4.28,4.28,4.249,4.249,4.233,4.203,4.173,4.07,4.028,3.987,3.933,3.906,3.88,3.868,3.855,3.855,3.829,3.829,3.817,3.817,3.817,3.804,3.78,3.767,3.743,3.743
3.817,3.804,3.804,3.804,3.804,3.804,3.804,3.804,3.804,3.804,3.804,3.817,3.817,3.829,3.829,3.829,3.842,3.855,3.855,3.855,3.855,3.855,3.855,3.855,3.855,3.855,3.855,3.855,3.855,3.855,3.855,3.855,3.868,3.868,3.868,3.868,3.868,3.868,3.88,3.88,3.88,3.88,3.868,3.868,3.868,3.868,3.868,3.868,3.868,3.868,3.868,3.868,3.868,3.88,3.893,3.906,3.92,3.933,3.946,3.973,3.987,3.987,4.014,4.014,3.987,3.987,3.973,3.946,3.933,3.933,3.92,3.906,3.906,3.893,3.893,3.893,3.893,3.906,3.906,3.92,3.946,3.973,4.014,4.028,4.07,4.085,4.114,4.128,4.158,4.158,4.158,4.173,4.173,4.188,4.188,4.188,4.188,4.188,4.188,4.188,4.173,4.173,4.173,4.173,4.173,4.173,4.173,4.188,4.188,4.203,4.203,4.218,4.218,4.218,4.218,4.233,4.218,4.218,4.203,4.203,4.203,4.188,4.188,4.173,4.173,4.173,4.173,4.173,4.173,4.173,4.173,4.173,4.173,4.188,4.188,4.188,4.188,4.188,4.188,4.188,4.188,4.188,4.188,4.188,4.188,4.203,4.203,4.203,4.218,4.218,4.218,4.233,4.233,4.233,4.233,4.264,4.264,4.264,4.249,4.249,4.249,4.249,4.233,4.218,4.218,4.203,4.188,4.188,4.203,4.203,4.203,4.218,4.233,4.249,4.249,4.264,4.264,4.264,4.28,4.264,4.264,4.264,4.264,4.264,4.264,4.264,4.264,4.264,4.264,4.264,4.264,4.264,4.264,4.264,4.264,4.264,4.264,4.264,4.264,4.264,4.264,4.264,4.28,4.28,4.28,4.28,4.28,4.296,4.312,4.312,4.312,4.312,4.328,4.328,4.328,4.328,4.328,4.328,4.328,4.312,4.312,4.312,4.312,4.312,4.312,4.312,4.312,4.296,4.296,4.296,4.296,4.312,4.312,4.312,4.312,4.312,4.328,4.328,4.328,4.344,4.36,4.36,4.36,4.36,4.36,4.344,4.344,4.328,4.312,4.312,4.312,4.296,4.296,4.28,4.28,4.28,4.296,4.312,4.328,4.344,4.36,4.376,4.393,4.426,4.46,4.46,4.477,4.477,4.512,4.512,4.477,4.477,4.46,4.46,4.46,4.46,4.46,4.46,4.46,4.46,4.477,4.477,4.512,4.53,4.565,4.583,4.601,4.638,4.657,4.694,4.694,4.713,4.732,4.732,4.732,4.732,4.713,4.713,4.713,4.713,4.713,4.694,4.657,4.657,4.657,4.657,4.657,4.657,4.657,4.694,4.713,4.713,4.732,4.752,4.771,4.771,4.771,4.791,4.791,4.791,4.791,4.791,4.791,4.791,4.791,4.791,4.791,4.81,4.81,4.81,4.81,4.81,4.81,4.732,4.713,4.694,4.694,4.657,4.601,4.583,4.565,4.53,4.512,4.512,4.53,4.565,4.583,4.583,4.638,4.657,4.694,4.713,4.732,4.732,4.752,4.752,4.752,4.752,4.771,4.752,4.771,4.771,4.771,4.791,4.791,4.81,4.81,4.81,4.81,4.81,4.81,4.81,4.81,4.81,4.81,4.81,4.81,4.791,4.791,4.791,4.771,4.752,4.732,4.713,4.713,4.713,4.657,4.583,4.53,4.426,4.36,4.312,4.249,4.158,4.028,3.855,3.817,3.78,3.743,3.672,3.672,3.649,3.649,3.649,3.649,3.672,3.707,3.767,3.817,3.868,3.973,4.158,4.219,4.28,4.376,4.601,4.752,4.83,4.851,4.891,4.891,4.912,4.912,4.891,4.891,4.891,4.891,4.891,4.891,4.871,4.871,4.851,4.851,4.851,4.851,4.851,4.851,4.851,4.871,4.891,4.891,4.891,4.891,4.912,4.912,4.933,4.954,4.954,4.954,4.954,4.954,4.954,4.933,4.933,4.912,4.912,4.912,4.912,4.912,4.912,4.912,4.912,4.912,4.933,4.933,4.954,4.954,4.975,4.996,4.996,5.018,5.018,5.018,5.04,5.04,5.04,5.04,5.04,5.04,5.018,5.018,5.018,4.996,4.975,4.954,4.933,4.912,4.912,4.891,4.891,4.891,4.871,4.871,4.851,4.83,4.83,4.81,4.791,4.713,4.638,4.583,4.53,4.53,4.512,4.512,4.53,4.53,4.565,4.583,4.601,4.601,4.583,4.601,4.583,4.565,4.512,4.477,4.477,4.426,4.393,4.36,4.328,4.312,4.328,4.312,4.312,4.28,4.28,4.264,4.249,4.249,4.233,4.188,4.085,4.056,3.987,3.946,3.906,3.88,3.868,3.855,3.855,3.829,3.829,3.817,3.817,3.804,3.804,3.78,3.767,3.743,3.743
3.829,3.817,3.817,3.817,3.817,3.817,3.817,3.817,3.817,3.817,3.817,3.829,3.829,3.842,3.855,3.855,3.868,3.868,3.868,3.868,3.868,3.868,3.868,3.868,3.868,3.868,3.88,3.88,3.88,3.88,3.88,3.88,3.893,3.893,3.893,3.906,3.906,3.906,3.92,3.92,3.92,3.92,3.906,3.906,3.906,3.893,3.893,3.88,3.88,3.868,3.88,3.88,3.88,3.893,3.893,3.906,3.92,3.933,3.946,3.973,3.987,4.014,4.014,4.014,4.014,3.987,3.987,3.973,3.946,3.933,3.933,3.92,3.92,3.92,3.92,3.92,3.92,3.92,3.933,3.946,3.973,3.987,4.028,4.056,4.07,4.114,4.128,4.158,4.158,4.158,4.173,4.188,4.188,4.188,4.188,4.203,4.203,4.203,4.203,4.203,4.203,4.188,4.188,4.188,4.188,4.203,4.203,4.203,4.203,4.218,4.233,4.249,4.249,4.249,4.249,4.249,4.249,4.249,4.249,4.233,4.233,4.218,4.218,4.218,4.218,4.203,4.218,4.203,4.203,4.203,4.203,4.203,4.203,4.218,4.218,4.218,4.218,4.218,4.218,4.203,4.218,4.218,4.218,4.218,4.218,4.218,4.233,4.233,4.233,4.249,4.264,4.264,4.264,4.28,4.28,4.28,4.28,4.28,4.28,4.264,4.264,4.264,4.264,4.249,4.249,4.249,4.233,4.233,4.233,4.233,4.233,4.249,4.249,4.264,4.264,4.28,4.28,4.28,4.28,4.28,4.28,4.28,4.28,4.28,4.28,4.28,4.28,4.28,4.28,4.28,4.28,4.28,4.28,4.28,4.28,4.28,4.28,4.28,4.28,4.28,4.28,4.28,4.28,4.28,4.28,4.28,4.296,4.296,4.312,4.312,4.312,4.328,4.328,4.328,4.328,4.328,4.344,4.328,4.328,4.328,4.328,4.328,4.328,4.328,4.328,4.312,4.312,4.312,4.312,4.312,4.312,4.312,4.328,4.328,4.328,4.328,4.328,4.36,4.376,4.376,4.393,4.393,4.393,4.376,4.376,4.36,4.36,4.328,4.312,4.312,4.312,4.296,4.296,4.296,4.296,4.312,4.312,4.328,4.344,4.36,4.376,4.41,4.41,4.46,4.477,4.512,4.512,4.53,4.53,4.53,4.53,4.53,4.512,4.512,4.512,4.512,4.477,4.477,4.477,4.477,4.512,4.53,4.53,4.565,4.583,4.601,4.638,4.694,4.713,4.713,4.732,4.732,4.771,4.771,4.771,4.752,4.752,4.752,4.752,4.752,4.752,4.752,4.732,4.713,4.713,4.713,4.713,4.713,4.713,4.713,4.732,4.732,4.752,4.771,4.791,4.791,4.81,4.81,4.81,4.81,4.81,4.81,4.83,4.83,4.83,4.83,4.83,4.83,4.83,4.83,4.83,4.83,4.83,4.83,4.83,4.83,4.81,4.81,4.732,4.713,4.657,4.657,4.638,4.638,4.657,4.694,4.694,4.713,4.732,4.752,4.771,4.791,4.791,4.791,4.791,4.81,4.791,4.81,4.81,4.81,4.81,4.81,4.81,4.81,4.83,4.83,4.83,4.83,4.83,4.83,4.83,4.83,4.83,4.83,4.81,4.81,4.81,4.81,4.791,4.771,4.771,4.713,4.657,4.638,4.583,4.46,4.393,4.344,4.328,4.28,4.249,4.188,4.085,3.893,3.855,3.817,3.78,3.743,3.696,3.661,3.649,3.627,3.615,3.615,3.627,3.649,3.661,3.731,3.792,3.829,3.893,4.014,4.123,4.203,4.296,4.426,4.601,4.752,4.81,4.851,4.891,4.891,4.912,4.891,4.891,4.891,4.891,4.891,4.871,4.871,4.851,4.851,4.851,4.851,4.851,4.851,4.851,4.851,4.871,4.871,4.891,4.891,4.891,4.912,4.912,4.933,4.954,4.975,4.975,4.975,4.975,4.975,4.954,4.954,4.933,4.933,4.933,4.912,4.912,4.912,4.912,4.933,4.933,4.933,4.954,4.954,4.975,4.996,4.996,5.018,5.018,5.04,5.04,5.04,5.084,5.084,5.084,5.04,5.04,5.04,5.018,4.996,4.975,4.954,4.954,4.933,4.912,4.912,4.891,4.891,4.891,4.871,4.871,4.851,4.851,4.83,4.81,4.81,4.713,4.657,4.583,4.53,4.53,4.477,4.512,4.512,4.512,4.53,4.53,4.565,4.583,4.565,4.565,4.565,4.53,4.512,4.46,4.426,4.393,4.376,4.344,4.328,4.328,4.328,4.312,4.312,4.296,4.296,4.28,4.264,4.249,4.249,4.218,4.114,4.07,4.014,3.946,3.906,3.88,3.868,3.855,3.855,3.829,3.829,3.817,3.817,3.804,3.804,3.78,3.767,3.743,3.743
3.842,3.842,3.842,3.829,3.829,3.829,3.817,3.817,3.829,3.829,3.829,3.842,3.855,3.855,3.868,3.868,3.88,3.893,3.893,3.893,3.893,3.906,3.906,3.906,3.906,3.906,3.906,3.906,3.92,3.92,3.92,3.933,3.933,3.933,3.946,3.946,3.946,3.946,3.946,3.946,3.946,3.946,3.946,3.946,3.933,3.933,3.933,3.92,3.92,3.893,3.893,3.893,3.893,3.893,3.906,3.906,3.92,3.933,3.946,3.973,3.987,4.014,4.014,4.014,4.014,4.014,3.987,3.987,3.973,3.973,3.946,3.946,3.946,3.946,3.946,3.946,3.946,3.946,3.973,3.987,4.014,4.028,4.056,4.085,4.114,4.128,4.158,4.173,4.173,4.188,4.203,4.203,4.203,4.218,4.218,4.218,4.218,4.218,4.218,4.218,4.218,4.203,4.203,4.203,4.218,4.218,4.218,4.233,4.233,4.249,4.249,4.264,4.264,4.264,4.264,4.264,4.264,4.264,4.264,4.264,4.249,4.249,4.249,4.249,4.249,4.249,4.233,4.233,4.233,4.233,4.233,4.233,4.233,4.233,4.233,4.233,4.233,4.233,4.233,4.233,4.233,4.233,4.233,4.249,4.249,4.264,4.264,4.264,4.264,4.28,4.28,4.28,4.28,4.28,4.296,4.296,4.296,4.296,4.28,4.28,4.28,4.28,4.28,4.264,4.264,4.264,4.249,4.249,4.249,4.249,4.249,4.264,4.264,4.28,4.28,4.296,4.296,4.296,4.312,4.312,4.312,4.312,4.312,4.312,4.296,4.296,4.296,4.296,4.296,4.296,4.296,4.296,4.296,4.296,4.296,4.296,4.296,4.296,4.28,4.28,4.28,4.28,4.28,4.28,4.296,4.296,4.312,4.312,4.312,4.328,4.328,4.328,4.328,4.344,4.344,4.36,4.36,4.36,4.36,4.36,4.344,4.344,4.344,4.328,4.328,4.328,4.328,4.328,4.328,4.328,4.328,4.328,4.328,4.344,4.344,4.36,4.376,4.393,4.41,4.41,4.41,4.41,4.41,4.41,4.393,4.393,4.376,4.344,4.328,4.328,4.312,4.312,4.312,4.312,4.312,4.328,4.328,4.344,4.376,4.393,4.41,4.426,4.477,4.49025,4.512,4.53,4.53,4.565,4.583,4.583,4.583,4.583,4.565,4.565,4.565,4.565,4.53,4.53,4.53,4.53,4.53,4.565,4.565,4.583,4.601,4.638,4.657,4.694,4.732,4.752,4.752,4.771,4.791,4.791,4.791,4.791,4.791,4.791,4.791,4.791,4.791,4.771,4.771,4.771,4.752,4.752,4.752,4.752,4.752,4.752,4.752,4.771,4.791,4.791,4.81,4.81,4.81,4.83,4.83,4.83,4.83,4.851,4.851,4.851,4.851,4.851,4.871,4.871,4.871,4.871,4.871,4.871,4.871,4.871,4.851,4.851,4.851,4.851,4.851,4.83,4.83,4.83,4.83,4.771,4.771,4.771,4.771,4.791,4.81,4.81,4.81,4.81,4.83,4.81,4.83,4.83,4.83,4.83,4.83,4.83,4.83,4.83,4.83,4.83,4.851,4.851,4.851,4.851,4.851,4.851,4.851,4.83,4.83,4.83,4.83,4.81,4.81,4.81,4.791,4.752,4.713,4.638,4.46,4.393,4.344,4.296,4.264,4.233,4.188,4.128,4.07,3.987,3.92625,3.829,3.804,3.767,3.731,3.696,3.661,3.627,3.615,3.593,3.593,3.593,3.593,3.615,3.649,3.672,3.743,3.804,3.842,3.906,4.056,4.1225,4.203,4.296,4.393,4.565,4.713,4.81,4.83,4.851,4.891,4.891,4.891,4.891,4.891,4.891,4.871,4.851,4.851,4.851,4.851,4.851,4.851,4.851,4.851,4.851,4.851,4.871,4.871,4.891,4.891,4.912,4.912,4.954,4.954,4.975,4.975,4.996,4.996,4.996,4.996,4.954,4.954,4.954,4.933,4.933,4.933,4.933,4.933,4.933,4.933,4.954,4.954,4.975,4.996,4.996,5.018,5.04,5.04,5.04,5.084,5.084,5.084,5.084,5.084,5.04,5.04,5.018,5.018,4.996,4.975,4.954,4.933,4.912,4.912,4.912,4.891,4.891,4.891,4.871,4.871,4.871,4.851,4.851,4.83,4.81,4.791,4.694,4.583,4.565,4.53,4.477,4.477,4.477,4.53,4.53,4.53,4.565,4.565,4.53,4.53,4.53,4.512,4.46,4.426,4.393,4.36,4.36,4.328,4.328,4.312,4.312,4.312,4.312,4.296,4.296,4.28,4.28,4.264,4.249,4.233,4.188,4.085,4.028,3.973,3.92,3.893,3.868,3.855,3.855,3.842,3.829,3.817,3.817,3.804,3.804,3.792,3.78,3.755,3.755
3.868,3.868,3.855,3.855,3.855,3.842,3.842,3.842,3.842,3.855,3.855,3.855,3.868,3.88,3.88,3.893,3.906,3.92,3.92,3.92,3.933,3.933,3.933,3.933,3.933,3.946,3.946,3.946,3.973,3.973,3.987,3.987,3.987,3.987,4.014,4.014,4.014,4.028,4.028,4.028,4.028,4.028,4.014,4.014,3.987,3.987,3.973,3.973,3.946,3.933,3.92,3.906,3.906,3.906,3.906,3.92,3.933,3.933,3.946,3.973,3.973,3.987,4.014,4.014,4.014,4.014,4.014,4.014,4.014,3.987,3.987,3.987,3.987,3.987,4.014,4.014,4.014,4.014,4.014,4.028,4.056,4.07,4.085,4.114,4.128,4.158,4.173,4.188,4.203,4.203,4.203,4.203,4.218,4.218,4.218,4.218,4.233,4.218,4.218,4.218,4.218,4.218,4.218,4.218,4.218,4.233,4.233,4.249,4.249,4.249,4.264,4.264,4.28,4.28,4.28,4.28,4.28,4.28,4.28,4.264,4.264,4.264,4.264,4.249,4.264,4.249,4.249,4.249,4.249,4.249,4.249,4.249,4.249,4.249,4.249,4.249,4.249,4.249,4.249,4.249,4.264,4.264,4.264,4.264,4.264,4.28,4.28,4.28,4.28,4.296,4.296,4.312,4.312,4.312,4.312,4.312,4.312,4.312,4.312,4.312,4.312,4.296,4.296,4.28,4.28,4.28,4.264,4.264,4.264,4.264,4.264,4.28,4.28,4.28,4.296,4.312,4.312,4.312,4.312,4.328,4.328,4.328,4.328,4.312,4.312,4.312,4.312,4.312,4.312,4.312,4.312,4.312,4.312,4.312,4.312,4.312,4.312,4.312,4.296,4.296,4.296,4.296,4.296,4.296,4.296,4.312,4.312,4.312,4.328,4.328,4.344,4.344,4.36,4.376,4.376,4.376,4.393,4.393,4.393,4.376,4.376,4.36,4.36,4.36,4.36,4.344,4.344,4.344,4.344,4.344,4.344,4.36,4.376,4.376,4.393,4.41,4.426,4.46,4.477,4.477,4.477,4.477,4.477,4.46,4.46,4.426,4.393,4.376,4.344,4.328,4.328,4.328,4.328,4.328,4.328,4.344,4.344,4.376,4.393,4.41,4.43925,4.46,4.477,4.512,4.53,4.583,4.583,4.601,4.601,4.638,4.638,4.601,4.601,4.601,4.601,4.583,4.583,4.583,4.565,4.565,4.565,4.583,4.583,4.583,4.601,4.638,4.657,4.713,4.732,4.771,4.771,4.791,4.81,4.81,4.81,4.81,4.81,4.81,4.81,4.81,4.81,4.81,4.81,4.81,4.791,4.791,4.791,4.771,4.771,4.791,4.791,4.791,4.81,4.81,4.81,4.83,4.83,4.83,4.851,4.851,4.851,4.871,4.871,4.891,4.891,4.891,4.891,4.891,4.891,4.891,4.891,4.891,4.891,4.891,4.891,4.891,4.871,4.871,4.871,4.871,4.851,4.851,4.851,4.851,4.851,4.851,4.871,4.851,4.851,4.83,4.83,4.83,4.851,4.83,4.851,4.83,4.83,4.851,4.851,4.851,4.851,4.851,4.851,4.851,4.851,4.851,4.871,4.871,4.851,4.851,4.851,4.851,4.851,4.83,4.83,4.83,4.81,4.791,4.752,4.694,4.601,4.36,4.312,4.264,4.218,4.128,0.0,0.0,0.0,3.966,3.9185,3.863125,3.804,3.767,3.743,3.696,3.661,3.649,3.627,3.593,3.593,3.593,3.582,3.582,3.582,3.593,3.627,3.649,3.696,3.743,3.792,3.842,3.906,4.028,4.188,4.2155,4.264,4.344,4.46,4.601,4.713,4.81,4.83,4.851,4.871,4.891,4.891,4.871,4.871,4.871,4.851,4.851,4.851,4.851,4.83,4.83,4.83,4.851,4.851,4.871,4.871,4.891,4.891,4.912,4.933,4.954,4.975,4.975,4.996,4.996,5.018,5.018,4.996,4.975,4.975,4.975,4.954,4.933,4.933,4.933,4.954,4.954,4.954,4.975,4.975,4.996,4.996,5.018,5.04,5.04,5.084,5.084,5.084,5.106,5.106,5.084,5.084,5.04,5.018,5.018,4.996,4.975,4.954,4.933,4.933,4.912,4.912,4.912,4.891,4.891,4.891,4.891,4.891,4.871,4.871,4.851,4.851,4.83,4.81,4.713,4.601,4.583,4.53,4.512,4.477,4.512,4.512,4.512,4.53,4.53,4.512,4.477,4.477,4.477,4.46,4.41,4.376,4.36,4.344,4.328,4.328,4.312,4.312,4.312,4.312,4.296,4.296,4.296,4.28,4.28,4.28,4.264,4.249,4.218,4.085,4.056,3.987,3.933,3.893,3.868,3.855,3.855,3.829,3.829,3.817,3.817,3.817,3.804,3.804,3.78,3.767,3.767
3.893,3.88,3.868,3.868,3.868,3.868,3.855,3.855,3.868,3.868,3.868,3.868,3.893,3.906,3.92,3.933,3.933,3.933,3.946,3.946,3.973,3.973,3.987,3.987,3.987,3.987,4.014,4.014,4.028,4.028,4.056,4.056,4.056,4.07,4.07,4.07,4.07,4.085,4.085,4.085,4.085,4.085,4.07,4.07,4.056,4.056,4.028,4.014,4.014,3.987,3.973,3.933,3.933,3.92,3.92,3.933,3.933,3.933,3.946,3.973,3.973,3.987,3.987,4.014,4.014,4.014,4.028,4.028,4.028,4.028,4.028,4.028,4.056,4.056,4.056,4.07,4.07,4.07,4.07,4.085,4.114,4.114,4.128,4.158,4.173,4.188,4.188,4.203,4.203,4.218,4.203,4.218,4.218,4.218,4.218,4.233,4.233,4.218,4.218,4.218,4.218,4.233,4.233,4.233,4.233,4.233,4.249,4.249,4.249,4.264,4.264,4.28,4.28,4.296,4.296,4.296,4.296,4.296,4.28,4.28,4.28,4.28,4.264,4.264,4.264,4.264,4.264,4.264,4.264,4.264,4.264,4.264,4.264,4.264,4.264,4.264,4.264,4.264,4.264,4.264,4.264,4.264,4.28,4.28,4.28,4.28,4.296,4.296,4.312,4.312,4.312,4.328,4.328,4.328,4.328,4.328,4.328,4.328,4.328,4.328,4.312,4.312,4.312,4.296,4.296,4.28,4.28,4.28,4.28,4.28,4.28,4.28,4.28,4.296,4.312,4.312,4.328,4.328,4.328,4.328,4.328,4.328,4.328,4.328,4.328,4.328,4.328,4.328,4.328,4.328,4.328,4.328,4.328,4.328,4.328,4.328,4.312,4.312,4.312,4.312,4.312,4.312,4.312,4.312,4.312,4.312,4.312,4.328,4.328,4.344,4.36,4.376,4.393,4.393,4.41,4.41,4.41,4.41,4.41,4.41,4.393,4.393,4.376,4.376,4.376,4.376,4.36,4.36,4.36,4.36,4.376,4.393,4.393,4.426,4.46,4.477,4.512,4.53,4.565,4.565,4.565,4.565,4.53,4.512,4.512,4.477,4.46,4.41,4.393,4.376,4.376,4.36,4.36,4.36,4.36,4.376,4.393,4.41,4.426,4.4475,4.477,4.512,4.512,4.565,4.583,4.601,4.638,4.657,4.657,4.657,4.657,4.657,4.657,4.657,4.657,4.638,4.638,4.601,4.601,4.601,4.601,4.583,4.583,4.601,4.601,4.638,4.657,4.713,4.732,4.771,4.791,4.81,4.81,4.81,4.81,4.83,4.83,4.83,4.83,4.83,4.83,4.83,4.83,4.81,4.81,4.81,4.81,4.81,4.81,4.81,4.81,4.81,4.83,4.83,4.83,4.83,4.851,4.851,4.871,4.871,4.891,4.891,4.891,4.912,4.912,4.912,4.912,4.912,4.912,4.912,4.912,4.912,4.912,4.912,4.912,4.912,4.912,4.891,4.891,4.891,4.891,4.891,4.891,4.891,4.891,4.891,4.891,4.891,4.891,4.891,4.891,4.891,4.871,4.851,4.851,4.851,4.851,4.851,4.851,4.851,4.851,4.871,4.871,4.871,4.891,4.891,4.891,4.891,4.891,4.891,4.871,4.871,4.851,4.851,4.83,4.81,4.771,4.732,4.657,4.41,4.328,4.264,4.203,0.0,4.03,3.966,0.0,0.0,0.0,3.804,3.767,3.743,3.696,3.672,3.649,3.627,3.615,3.615,3.593,3.593,3.593,3.582,3.582,3.582,3.582,3.582,3.593,3.615,3.649,3.672,3.731,3.804,3.829,3.88,3.987,4.114,4.233,4.25375,4.28,4.36,4.46,4.638,4.732,4.81,4.83,4.851,4.851,4.871,4.871,4.851,4.851,4.851,4.851,4.851,4.83,4.83,4.851,4.851,4.851,4.851,4.871,4.891,4.891,4.912,4.912,4.933,4.975,4.975,4.996,5.018,5.018,5.018,5.018,4.996,4.975,4.975,4.954,4.954,4.933,4.954,4.954,4.954,4.975,4.975,4.996,4.996,5.018,5.018,5.04,5.084,5.084,5.106,5.106,5.106,5.106,5.106,5.084,5.04,5.018,4.996,4.975,4.954,4.933,4.912,4.912,4.912,4.912,4.912,4.891,4.891,4.891,4.891,4.891,4.891,4.891,4.871,4.851,4.83,4.81,4.732,4.657,4.601,4.565,4.53,4.512,4.512,4.512,4.512,4.512,4.53,4.512,4.46,4.477,4.46,4.426,4.393,4.376,4.344,4.328,4.312,4.312,4.296,4.296,4.296,4.296,4.296,4.296,4.296,4.296,4.28,4.28,4.28,4.264,4.233,4.188,4.07,4.028,3.946,3.906,3.88,3.868,3.855,3.842,3.829,3.817,3.817,3.817,3.804,3.804,3.792,3.78,3.78
3.92,3.906,3.906,3.893,3.893,3.88,3.88,3.88,3.88,3.893,3.893,3.906,3.92,3.933,3.946,3.973,3.973,3.973,3.987,3.987,4.014,4.014,4.014,4.028,4.028,4.056,4.056,4.07,4.085,4.085,4.114,4.114,4.114,4.128,4.128,4.128,4.128,4.158,4.158,4.158,4.128,4.128,4.128,4.114,4.114,4.085,4.085,4.07,4.056,4.028,4.014,3.987,3.946,3.946,3.933,3.933,3.933,3.946,3.946,3.946,3.973,3.987,4.014,4.028,4.028,4.028,4.056,4.07,4.07,4.07,4.07,4.085,4.085,4.085,4.114,4.114,4.128,4.128,4.158,4.158,4.158,4.173,4.188,4.188,4.188,4.203,4.218,4.218,4.218,4.233,4.218,4.218,4.218,4.233,4.233,4.233,4.233,4.218,4.233,4.233,4.233,4.233,4.233,4.233,4.233,4.249,4.249,4.249,4.264,4.264,4.28,4.28,4.296,4.296,4.312,4.312,4.312,4.312,4.296,4.296,4.28,4.28,4.28,4.28,4.28,4.264,4.264,4.264,4.264,4.264,4.264,4.28,4.264,4.264,4.264,4.264,4.264,4.264,4.264,4.264,4.28,4.28,4.28,4.28,4.296,4.296,4.312,4.312,4.312,4.328,4.328,4.328,4.344,4.344,4.344,4.344,4.344,4.344,4.328,4.328,4.328,4.328,4.312,4.312,4.312,4.296,4.296,4.296,4.296,4.296,4.296,4.296,4.296,4.312,4.312,4.328,4.328,4.328,4.344,4.36,4.36,4.36,4.344,4.344,4.344,4.344,4.344,4.344,4.344,4.344,4.344,4.344,4.344,4.344,4.344,4.344,4.328,4.328,4.328,4.328,4.328,4.328,4.328,4.328,4.328,4.328,4.328,4.344,4.36,4.36,4.376,4.393,4.41,4.426,4.426,4.426,4.46,4.46,4.46,4.426,4.426,4.41,4.393,4.393,4.376,4.376,4.376,4.376,4.376,4.376,4.393,4.41,4.426,4.46,4.512,4.53,4.565,4.583,4.601,4.638,4.638,4.601,4.601,4.583,4.565,4.565,4.53,4.46,4.426,4.41,4.41,4.41,4.41,4.393,4.393,4.41,4.41,4.426,4.46,4.477,4.512,4.53,4.565,4.583,4.601,4.638,4.657,4.694,4.694,4.713,4.713,4.694,4.694,4.694,4.694,4.694,4.694,4.657,4.638,4.638,4.601,4.601,4.583,4.601,4.601,4.638,4.657,4.713,4.732,4.752,4.791,4.81,4.81,4.81,4.83,4.83,4.83,4.83,4.851,4.851,4.851,4.851,4.83,4.83,4.83,4.83,4.83,4.83,4.83,4.83,4.83,4.83,4.83,4.851,4.851,4.851,4.871,4.871,4.891,4.891,4.912,4.912,4.912,4.933,4.933,4.954,4.954,4.954,4.954,4.954,4.954,4.954,4.954,4.933,4.933,4.933,4.912,4.912,4.912,4.912,4.912,4.912,4.912,4.912,4.912,4.912,4.912,4.912,4.912,4.912,4.912,4.912,4.912,4.912,4.912,4.891,4.891,4.891,4.891,4.891,4.891,4.891,4.891,4.891,4.891,4.891,4.912,4.891,4.891,4.891,4.891,4.891,4.871,4.851,4.83,4.81,4.752,4.694,4.565,4.328,4.249,0.0,4.029,3.9355,3.842,3.804,3.743,3.707,3.672,3.661,3.615,3.593,3.593,3.582,3.582,3.582,3.582,3.582,3.582,3.582,3.582,3.582,3.56,3.56,3.56,3.56,3.582,3.582,3.615,3.627,3.661,3.731,3.792,3.817,3.868,3.92,4.04475,4.158,0.0,0.0,4.312,4.393,4.565,4.713,4.771,4.83,4.851,4.891,4.871,4.871,4.851,4.851,4.851,4.851,4.851,4.851,4.851,4.851,4.851,4.871,4.871,4.891,4.891,4.912,4.933,4.954,4.975,4.996,5.018,5.018,5.018,5.018,4.996,4.996,4.996,4.975,4.975,4.954,4.954,4.954,4.954,4.975,4.975,4.996,4.996,5.018,5.018,5.04,5.084,5.106,5.106,5.106,5.106,5.106,5.106,5.106,5.084,5.04,5.018,4.996,4.975,4.954,4.933,4.912,4.912,4.912,4.912,4.912,4.912,4.891,4.912,4.891,4.891,4.891,4.891,4.891,4.871,4.851,4.83,4.81,4.694,4.657,4.601,4.583,4.53,4.53,4.53,4.53,4.512,4.512,4.477,4.46,4.46,4.426,4.41,4.376,4.344,4.328,4.312,4.312,4.312,4.296,4.28,4.28,4.28,4.296,4.296,4.28,4.28,4.28,4.28,4.28,4.264,4.249,4.203,4.114,4.056,3.987,3.933,3.906,3.868,3.868,3.855,3.842,3.829,3.829,3.817,3.817,3.804,3.804,3.792,3.792
3.973,3.946,3.933,3.933,3.92,3.92,3.92,3.92,3.92,3.92,3.92,3.933,3.946,3.973,3.987,4.014,4.014,4.014,4.028,4.028,4.056,4.056,4.056,4.07,4.085,4.085,4.114,4.128,4.128,4.158,4.158,4.173,4.173,4.188,4.188,4.188,4.188,4.188,4.188,4.188,4.188,4.173,4.173,4.173,4.158,4.158,4.128,4.128,4.085,4.085,4.07,4.028,4.014,3.987,3.973,3.946,3.946,3.946,3.973,3.973,3.987,4.014,4.014,4.028,4.056,4.07,4.085,4.085,4.114,4.128,4.128,4.128,4.158,4.158,4.173,4.188,4.188,4.188,4.188,4.203,4.203,4.203,4.218,4.218,4.218,4.233,4.233,4.233,4.233,4.233,4.233,4.233,4.233,4.233,4.233,4.233,4.233,4.233,4.233,4.233,4.233,4.233,4.233,4.233,4.249,4.249,4.249,4.264,4.264,4.264,4.28,4.296,4.296,4.312,4.312,4.312,4.312,4.312,4.312,4.296,4.296,4.28,4.28,4.28,4.28,4.28,4.28,4.28,4.28,4.28,4.28,4.28,4.28,4.264,4.264,4.264,4.264,4.28,4.28,4.28,4.28,4.28,4.296,4.296,4.312,4.312,4.312,4.328,4.328,4.328,4.344,4.344,4.344,4.36,4.36,4.36,4.36,4.36,4.344,4.344,4.328,4.328,4.328,4.312,4.312,4.312,4.312,4.296,4.296,4.296,4.296,4.312,4.312,4.312,4.312,4.328,4.328,4.344,4.36,4.36,4.376,4.376,4.376,4.376,4.376,4.376,4.393,4.393,4.376,4.376,4.376,4.376,4.376,4.376,4.376,4.36,4.36,4.36,4.36,4.344,4.344,4.344,4.328,4.328,4.328,4.344,4.344,4.36,4.376,4.393,4.393,4.41,4.426,4.46,4.46,4.477,4.477,4.477,4.477,4.46,4.426,4.426,4.41,4.41,4.41,4.393,4.393,4.393,4.393,4.393,4.41,4.426,4.46,4.512,4.565,4.583,4.601,4.657,4.694,4.694,4.694,4.694,4.657,4.638,4.638,4.601,4.583,4.53,4.512,4.477,4.46,4.46,4.426,4.426,4.426,4.426,4.46,4.46,4.512,4.512,4.565,4.565,4.583,4.638,4.657,4.694,4.694,4.713,4.713,4.732,4.732,4.732,4.732,4.732,4.713,4.713,4.713,4.713,4.657,4.657,4.638,4.601,4.601,4.601,4.601,4.638,4.657,4.694,4.732,4.771,4.791,4.81,4.81,4.83,4.83,4.83,4.83,4.851,4.851,4.851,4.851,4.851,4.851,4.851,4.83,4.83,4.83,4.83,4.83,4.83,4.851,4.851,4.851,4.851,4.871,4.871,4.891,4.891,4.912,4.912,4.912,4.933,4.954,4.975,4.975,4.996,4.996,4.996,4.996,4.996,4.975,4.975,4.975,4.975,4.954,4.954,4.954,4.933,4.933,4.933,4.933,4.933,4.933,4.933,4.933,4.933,4.933,4.912,4.912,4.912,4.912,4.912,4.912,4.912,4.912,4.912,4.891,4.891,4.891,4.891,4.891,4.891,4.891,4.912,4.912,4.912,4.912,4.912,4.912,4.912,4.891,4.891,4.891,4.851,4.83,4.81,4.732,4.601,4.328,4.264,4.0975,3.9762500000000003,3.855,3.804,3.649,3.615,3.582,3.549,3.538,3.528,3.528,3.528,3.528,3.538,3.549,3.549,3.56,3.56,3.56,3.582,3.56,3.56,3.56,3.56,3.549,3.549,3.56,3.56,3.582,3.593,3.615,3.661,3.707,3.755,3.804,3.829,3.868,3.933,0.0,0.0,0.0,0.0,4.376,4.565,4.694,4.791,4.83,4.871,4.871,4.871,4.851,4.851,4.851,4.851,4.851,4.851,4.851,4.851,4.871,4.871,4.891,4.891,4.912,4.912,4.933,4.954,4.975,4.996,5.018,5.018,5.018,5.018,5.018,4.996,4.996,4.996,4.975,4.954,4.954,4.975,4.975,4.975,4.996,4.996,5.018,5.018,5.04,5.084,5.084,5.106,5.151,5.151,5.151,5.151,5.106,5.106,5.084,5.04,5.018,4.996,4.975,4.954,4.933,4.912,4.912,4.912,4.912,4.912,4.912,4.912,4.912,4.912,4.912,4.912,4.912,4.912,4.891,4.871,4.83,4.81,4.81,4.713,4.657,4.601,4.583,4.565,4.565,4.53,4.53,4.512,4.477,4.46,4.426,4.41,4.393,4.36,4.344,4.328,4.312,4.312,4.296,4.28,4.28,4.28,4.28,4.28,4.28,4.28,4.28,4.28,4.28,4.28,4.264,4.249,4.233,4.128,4.085,4.028,3.973,3.933,3.893,3.868,3.868,3.855,3.842,3.829,3.829,3.817,3.817,3.804,3.804,3.792
3.987,3.987,3.987,3.973,3.973,3.973,3.946,3.946,3.946,3.973,3.973,3.973,3.987,4.014,4.014,4.028,4.028,4.028,4.056,4.056,4.056,4.07,4.085,4.114,4.114,4.128,4.158,4.158,4.173,4.188,4.188,4.203,4.203,4.218,4.218,4.218,4.218,4.218,4.218,4.218,4.218,4.218,4.218,4.203,4.203,4.188,4.188,4.173,4.158,4.128,4.114,4.07,4.056,4.056,4.028,3.987,3.987,3.987,3.987,3.987,4.014,4.014,4.028,4.056,4.085,4.114,4.114,4.128,4.158,4.173,4.188,4.188,4.203,4.218,4.218,4.233,4.233,4.233,4.233,4.233,4.249,4.249,4.249,4.249,4.249,4.249,4.249,4.249,4.249,4.249,4.233,4.233,4.233,4.233,4.233,4.233,4.233,4.233,4.233,4.233,4.233,4.233,4.233,4.233,4.249,4.249,4.249,4.264,4.264,4.28,4.28,4.28,4.296,4.312,4.312,4.312,4.312,4.312,4.312,4.296,4.296,4.28,4.28,4.28,4.28,4.28,4.28,4.28,4.28,4.28,4.28,4.28,4.28,4.28,4.28,4.28,4.28,4.28,4.28,4.28,4.28,4.296,4.296,4.312,4.312,4.312,4.328,4.328,4.344,4.344,4.344,4.36,4.36,4.376,4.376,4.36,4.36,4.36,4.36,4.344,4.344,4.328,4.328,4.328,4.312,4.312,4.312,4.312,4.312,4.312,4.312,4.312,4.312,4.312,4.328,4.328,4.336,4.344,4.36,4.376,4.393,4.393,4.41,4.41,4.41,4.41,4.426,4.426,4.426,4.426,4.426,4.41,4.41,4.41,4.41,4.41,4.393,4.393,4.393,4.376,4.376,4.36,4.36,4.36,4.36,4.376,4.376,4.376,4.393,4.41,4.426,4.426,4.46,4.477,4.512,4.512,4.512,4.512,4.512,4.477,4.477,4.46,4.46,4.426,4.426,4.41,4.41,4.41,4.41,4.426,4.426,4.477,4.512,4.565,4.583,4.638,4.657,4.694,4.713,4.732,4.732,4.732,4.713,4.713,4.694,4.657,4.638,4.601,4.583,4.53,4.53,4.512,4.512,4.512,4.477,4.477,4.512,4.53,4.565,4.565,4.583,4.601,4.638,4.657,4.694,4.713,4.732,4.752,4.752,4.752,4.771,4.771,4.771,4.752,4.752,4.752,4.732,4.732,4.713,4.657,4.657,4.638,4.638,4.601,4.601,4.638,4.657,4.713,4.732,4.771,4.791,4.81,4.83,4.83,4.83,4.851,4.851,4.851,4.851,4.851,4.871,4.871,4.851,4.851,4.851,4.851,4.851,4.851,4.851,4.851,4.851,4.851,4.871,4.871,4.891,4.891,4.912,4.912,4.912,4.933,4.954,4.975,4.996,4.996,5.018,5.018,5.018,5.018,5.018,5.018,5.018,5.018,5.018,4.996,4.996,4.975,4.975,4.954,4.954,4.954,4.933,4.933,4.933,4.912,4.912,4.912,4.912,4.912,4.912,4.912,4.912,4.912,4.912,4.912,4.912,4.891,4.891,4.891,4.891,4.891,4.891,4.891,4.912,4.912,4.912,4.912,4.912,4.912,4.912,4.912,4.912,4.891,4.891,4.851,4.83,4.791,4.657,4.512,4.28,4.158,3.946,3.855,3.696,3.615,3.549,3.528,3.517,3.506,3.506,3.496,3.496,3.506,3.517,3.528,3.538,3.538,3.549,3.56,3.56,3.56,3.56,3.56,3.549,3.549,3.549,3.549,3.538,3.538,3.549,3.56,3.56,3.593,3.627,3.661,3.707,3.755,3.804,3.829,3.868,3.973,0.0,0.0,0.0,4.376,4.565,4.732,4.81,4.871,4.871,4.871,4.851,4.851,4.851,4.851,4.851,4.851,4.851,4.851,4.871,4.891,4.891,4.891,4.912,4.933,4.933,4.975,4.996,4.996,5.018,5.04,5.018,5.018,5.018,4.996,4.996,4.996,4.975,4.975,4.975,4.975,4.975,4.975,4.996,4.996,5.018,5.018,5.04,5.084,5.084,5.106,5.151,5.151,5.151,5.151,5.106,5.106,5.084,5.04,5.018,4.975,4.954,4.933,4.933,4.912,4.912,4.912,4.912,4.912,4.912,4.912,4.912,4.912,4.912,4.912,4.912,4.912,4.912,4.891,4.851,4.83,4.81,4.752,4.713,4.657,4.601,4.601,4.583,4.565,4.565,4.53,4.512,4.46,4.426,4.41,4.393,4.344,4.328,4.312,4.312,4.296,4.28,4.28,4.28,4.28,4.28,4.28,4.28,4.28,4.28,4.28,4.28,4.264,4.264,4.249,4.249,4.218,4.128,4.07,4.014,3.973,3.933,3.893,3.868,3.868,3.855,3.842,3.829,3.829,3.817,3.817,3.804,3.804
4.028,4.014,4.028,4.014,4.014,4.014,4.014,4.014,4.014,4.014,4.014,4.014,4.028,4.028,4.028,4.056,4.056,4.056,4.07,4.07,4.07,4.085,4.114,4.128,4.158,4.173,4.188,4.188,4.203,4.218,4.218,4.233,4.233,4.233,4.249,4.249,4.249,4.249,4.249,4.249,4.249,4.233,4.233,4.233,4.218,4.218,4.203,4.203,4.188,4.173,4.158,4.128,4.114,4.085,4.07,4.056,4.028,4.028,4.028,4.028,4.056,4.056,4.07,4.085,4.114,4.128,4.158,4.173,4.203,4.203,4.218,4.233,4.233,4.249,4.249,4.249,4.249,4.264,4.264,4.264,4.264,4.264,4.264,4.264,4.264,4.249,4.249,4.249,4.249,4.249,4.249,4.249,4.233,4.233,4.233,4.233,4.233,4.233,4.233,4.233,4.218,4.218,4.233,4.233,4.249,4.249,4.249,4.264,4.264,4.28,4.28,4.28,4.296,4.296,4.312,4.312,4.312,4.296,4.28,4.28,4.28,4.28,4.28,4.28,4.28,4.28,4.28,4.28,4.28,4.28,4.28,4.28,4.28,4.28,4.28,4.28,4.28,4.28,4.28,4.28,4.296,4.312,4.312,4.312,4.328,4.328,4.328,4.344,4.344,4.36,4.36,4.36,4.376,4.376,4.376,4.376,4.36,4.36,4.36,4.36,4.344,4.344,4.328,4.328,4.328,4.328,4.312,4.312,4.312,4.312,4.312,4.312,4.312,4.312,4.328,4.328,4.344,4.36,4.368,4.376,4.393,4.41,4.426,4.426,4.44325,4.46,4.477,4.477,4.477,4.477,4.46,4.46,4.46,4.46,4.46,4.46,4.426,4.426,4.426,4.41,4.41,4.41,4.393,4.393,4.393,4.393,4.41,4.426,4.426,4.426,4.46,4.477,4.477,4.512,4.53,4.53,4.53,4.565,4.53,4.512,4.512,4.477,4.477,4.477,4.46,4.46,4.46,4.46,4.46,4.46,4.477,4.512,4.53,4.583,4.638,4.694,4.713,4.752,4.752,4.752,4.752,4.752,4.732,4.732,4.732,4.732,4.713,4.657,4.638,4.601,4.583,4.583,4.565,4.565,4.565,4.565,4.565,4.583,4.601,4.601,4.638,4.657,4.694,4.713,4.732,4.752,4.771,4.791,4.791,4.791,4.791,4.791,4.791,4.791,4.791,4.771,4.771,4.752,4.752,4.732,4.713,4.657,4.657,4.638,4.638,4.657,4.694,4.732,4.732,4.771,4.81,4.81,4.83,4.83,4.851,4.851,4.851,4.851,4.871,4.871,4.871,4.871,4.871,4.871,4.871,4.871,4.871,4.851,4.851,4.851,4.871,4.891,4.891,4.891,4.912,4.912,4.912,4.933,4.954,4.975,4.996,4.996,5.018,5.04,5.04,5.04,5.084,5.084,5.084,5.084,5.084,5.04,5.04,5.018,5.018,4.996,4.996,4.975,4.954,4.954,4.933,4.933,4.933,4.912,4.912,4.912,4.912,4.912,4.912,4.912,4.912,4.912,4.912,4.912,4.912,4.891,4.891,4.891,4.891,4.891,4.891,4.891,4.912,4.912,4.912,4.912,4.912,4.933,4.912,4.912,4.912,4.891,4.891,4.851,4.83,4.771,4.601,4.312,4.218,4.028,3.868,3.804,3.615,3.538,3.528,3.517,3.496,3.496,3.496,3.496,3.496,3.506,3.517,3.528,3.538,3.549,3.549,3.56,3.56,3.56,3.56,3.56,3.549,3.549,3.538,3.538,3.538,3.528,3.528,3.528,3.538,3.549,3.549,3.56,3.593,3.627,3.661,3.707,3.78,3.829,3.933,4.173,0.0,0.0,4.41,4.638,4.791,4.851,4.851,4.851,4.851,4.851,4.851,4.851,4.851,4.851,4.851,4.851,4.871,4.891,4.891,4.891,4.912,4.933,4.954,4.975,4.996,5.018,5.018,5.04,5.04,5.04,5.018,5.018,5.018,4.996,4.975,4.975,4.975,4.975,4.975,4.975,4.996,4.996,5.018,5.04,5.04,5.084,5.106,5.106,5.151,5.151,5.151,5.151,5.106,5.106,5.084,5.018,4.996,4.975,4.954,4.933,4.912,4.912,4.912,4.912,4.912,4.912,4.912,4.912,4.933,4.933,4.933,4.933,4.933,4.933,4.912,4.891,4.871,4.851,4.83,4.81,4.732,4.694,4.657,4.601,4.583,4.565,4.53,4.512,4.477,4.426,4.41,4.393,4.36,4.344,4.328,4.312,4.296,4.28,4.28,4.264,4.264,4.264,4.264,4.264,4.264,4.264,4.264,4.264,4.264,4.264,4.264,4.249,4.249,4.233,4.203,4.114,4.07,4.014,3.973,3.933,3.893,3.88,3.868,3.855,3.842,3.829,3.829,3.817,3.817,3.804
4.056,4.056,4.07,4.056,4.056,4.056,4.056,4.056,4.056,4.056,4.056,4.07,4.07,4.07,4.07,4.07,4.07,4.07,4.07,4.085,4.114,4.114,4.128,4.158,4.173,4.188,4.203,4.203,4.218,4.233,4.249,4.249,4.249,4.249,4.249,4.264,4.264,4.249,4.249,4.249,4.249,4.249,4.249,4.249,4.249,4.233,4.233,4.218,4.218,4.203,4.188,4.173,4.158,4.128,4.114,4.114,4.085,4.07,4.07,4.07,4.07,4.085,4.114,4.128,4.158,4.173,4.188,4.218,4.218,4.249,4.249,4.249,4.264,4.264,4.264,4.28,4.28,4.28,4.28,4.28,4.28,4.28,4.28,4.264,4.264,4.264,4.264,4.249,4.249,4.249,4.249,4.249,4.249,4.249,4.233,4.233,4.233,4.233,4.233,4.233,4.218,4.218,4.218,4.233,4.233,4.249,4.249,4.264,4.264,4.264,4.28,4.28,4.28,4.296,4.28,4.28,4.28,4.28,4.28,4.28,4.28,4.28,4.264,4.264,4.264,4.264,4.264,4.264,4.264,4.28,4.28,4.28,4.264,4.264,4.264,4.28,4.28,4.28,4.28,4.28,4.296,4.312,4.312,4.328,4.328,4.328,4.344,4.36,4.36,4.36,4.36,4.376,4.36,4.376,4.376,4.36,4.36,4.36,4.36,4.344,4.344,4.344,4.328,4.328,4.328,4.328,4.328,4.328,4.312,4.312,4.312,4.312,4.312,4.328,4.328,4.328,4.344,4.36,4.376,4.38875,4.41,4.426,4.46,4.477,4.477,4.512,4.512,4.53,4.53,4.53,4.53,4.53,4.53,4.53,4.512,4.512,4.512,4.477,4.477,4.46,4.46,4.46,4.46,4.46,4.46,4.426,4.426,4.46,4.477,4.477,4.477,4.512,4.512,4.53,4.565,4.565,4.565,4.583,4.565,4.565,4.53,4.53,4.512,4.512,4.512,4.512,4.477,4.477,4.477,4.512,4.53,4.565,4.583,4.638,4.694,4.713,4.752,4.791,4.791,4.81,4.791,4.791,4.81,4.771,4.771,4.752,4.752,4.732,4.694,4.694,4.657,4.638,4.638,4.601,4.601,4.601,4.638,4.657,4.657,4.694,4.713,4.732,4.752,4.771,4.771,4.791,4.81,4.81,4.81,4.81,4.81,4.81,4.81,4.81,4.81,4.81,4.81,4.791,4.791,4.752,4.732,4.713,4.694,4.694,4.694,4.694,4.713,4.732,4.752,4.791,4.81,4.81,4.83,4.83,4.851,4.851,4.851,4.871,4.871,4.891,4.891,4.891,4.891,4.891,4.871,4.871,4.871,4.871,4.871,4.871,4.891,4.891,4.912,4.912,4.912,4.933,4.954,4.975,4.996,4.996,5.018,5.04,5.04,5.084,5.106,5.106,5.106,5.106,5.106,5.106,5.084,5.084,5.084,5.04,5.04,5.018,4.996,4.975,4.975,4.954,4.954,4.933,4.933,4.912,4.912,4.912,4.912,4.912,4.912,4.912,4.891,4.891,4.891,4.891,4.891,4.891,4.891,4.891,4.891,4.891,4.891,4.891,4.912,4.912,4.912,4.912,4.933,4.933,4.933,4.933,4.912,4.912,4.891,4.851,4.81,4.732,4.53,4.264,4.128,3.92,3.817,3.627,3.56,3.528,3.506,3.506,3.496,3.496,3.496,3.496,3.496,3.506,3.517,3.528,3.538,3.549,3.549,3.56,3.582,3.582,3.582,3.56,3.549,3.538,3.538,3.528,3.528,3.528,3.517,3.517,3.517,3.528,3.517,3.538,3.538,3.538,3.56,3.582,3.627,3.696,3.817,3.946,0.0,0.0,4.369,4.512,4.732,4.851,4.851,4.851,4.851,4.851,4.851,4.851,4.851,4.851,4.851,4.851,4.871,4.891,4.891,4.912,4.912,4.933,4.954,4.975,4.996,5.018,5.018,5.04,5.04,5.04,5.018,5.018,5.018,5.018,4.996,4.996,4.996,4.996,4.996,4.996,4.996,5.018,5.018,5.04,5.084,5.084,5.106,5.106,5.151,5.174,5.151,5.151,5.106,5.084,5.04,5.018,4.996,4.954,4.933,4.933,4.912,4.912,4.912,4.912,4.912,4.912,4.912,4.933,4.912,4.933,4.933,4.933,4.933,4.933,4.912,4.912,4.891,4.851,4.83,4.83,4.771,4.752,4.713,4.657,4.638,4.601,4.583,4.53,4.512,4.46,4.41,4.393,4.36,4.328,4.328,4.312,4.296,4.28,4.28,4.264,4.264,4.264,4.264,4.249,4.249,4.249,4.264,4.264,4.264,4.264,4.264,4.249,4.249,4.249,4.233,4.173,4.128,4.085,4.028,3.987,3.933,3.906,3.88,3.868,3.855,3.842,3.829,3.829,3.817,3.817
4.085,4.085,4.085,4.085,4.085,4.085,4.085,4.085,4.085,4.085,4.085,4.085,4.085,4.085,4.085,4.085,4.085,4.085,4.085,4.114,4.114,4.128,4.158,4.173,4.188,4.203,4.218,4.233,4.233,4.249,4.249,4.249,4.264,4.264,4.264,4.264,4.264,4.264,4.264,4.264,4.264,4.264,4.249,4.249,4.249,4.249,4.249,4.249,4.249,4.233,4.218,4.203,4.203,4.188,4.173,4.158,4.158,4.128,4.128,4.114,4.114,4.128,4.147,4.158,4.173,4.203,4.218,4.233,4.249,4.249,4.264,4.28,4.28,4.28,4.28,4.296,4.296,4.296,4.296,4.28,4.28,4.28,4.28,4.28,4.28,4.264,4.264,4.264,4.264,4.249,4.249,4.249,4.249,4.249,4.249,4.249,4.233,4.233,4.233,4.233,4.218,4.218,4.233,4.233,4.233,4.249,4.249,4.264,4.264,4.264,4.264,4.28,4.28,4.28,4.28,4.28,4.28,4.28,4.28,4.28,4.264,4.264,4.264,4.264,4.264,4.264,4.264,4.264,4.264,4.264,4.264,4.264,4.264,4.264,4.264,4.28,4.28,4.28,4.28,4.296,4.312,4.312,4.328,4.328,4.328,4.344,4.36,4.376,4.36,4.376,4.376,4.36,4.376,4.376,4.36,4.36,4.36,4.36,4.36,4.36,4.36,4.344,4.344,4.328,4.328,4.328,4.328,4.328,4.328,4.328,4.328,4.328,4.328,4.328,4.328,4.344,4.352,4.36,4.376,4.393,4.426,4.46,4.477,4.512,4.53,4.565,4.565,4.583,4.601,4.583,4.583,4.583,4.583,4.583,4.583,4.565,4.565,4.565,4.53,4.53,4.512,4.512,4.477,4.477,4.512,4.477,4.477,4.512,4.512,4.512,4.53,4.53,4.565,4.565,4.583,4.583,4.583,4.583,4.583,4.583,4.583,4.565,4.565,4.565,4.53,4.53,4.512,4.512,4.512,4.53,4.565,4.583,4.601,4.657,4.713,4.752,4.771,4.791,4.81,4.81,4.81,4.81,4.81,4.81,4.81,4.81,4.791,4.771,4.752,4.732,4.713,4.694,4.694,4.694,4.694,4.694,4.694,4.713,4.732,4.752,4.752,4.771,4.791,4.81,4.81,4.83,4.83,4.83,4.83,4.83,4.83,4.83,4.83,4.83,4.83,4.83,4.83,4.81,4.81,4.791,4.771,4.752,4.732,4.713,4.713,4.713,4.732,4.752,4.771,4.791,4.81,4.83,4.83,4.851,4.851,4.851,4.871,4.891,4.891,4.891,4.891,4.891,4.891,4.891,4.891,4.891,4.891,4.891,4.891,4.891,4.891,4.912,4.912,4.933,4.933,4.954,4.975,4.996,5.018,5.018,5.04,5.084,5.106,5.106,5.151,5.151,5.151,5.151,5.151,5.151,5.106,5.106,5.084,5.084,5.04,5.04,5.018,4.996,4.975,4.975,4.954,4.954,4.933,4.912,4.912,4.912,4.912,4.912,4.912,4.912,4.891,4.891,4.891,4.891,4.891,4.891,4.891,4.891,4.891,4.891,4.891,4.891,4.912,4.912,4.912,4.912,4.933,4.933,4.954,4.933,4.933,4.912,4.891,4.851,4.81,4.657,4.41,4.218,4.02675,3.868,3.792,3.615,3.549,3.528,3.517,3.506,3.506,3.506,3.506,3.506,3.506,3.517,3.528,3.538,3.549,3.56,3.582,3.582,3.582,3.582,3.582,3.56,3.549,3.538,3.528,3.528,3.517,3.517,3.506,3.506,3.506,3.506,3.506,3.506,3.506,3.517,3.538,3.56,3.58775,3.615,3.743,3.842,4.03,4.218,4.328,4.42525,4.565,4.81,4.83,4.851,4.851,4.851,4.851,4.851,4.851,4.851,4.851,4.851,4.871,4.891,4.891,4.912,4.912,4.933,4.954,4.975,4.996,5.018,5.018,5.04,5.04,5.04,5.018,5.018,5.018,5.018,5.018,5.018,5.018,5.018,5.04,5.04,5.04,5.04,5.084,5.084,5.084,5.106,5.151,5.151,5.174,5.174,5.174,5.151,5.106,5.084,5.04,5.018,4.996,4.954,4.933,4.912,4.912,4.912,4.912,4.912,4.912,4.912,4.912,4.933,4.933,4.933,4.933,4.933,4.954,4.933,4.912,4.912,4.891,4.871,4.851,4.851,4.83,4.81,4.752,4.732,4.713,4.657,4.638,4.583,4.565,4.477,4.426,4.41,4.376,4.344,4.328,4.312,4.312,4.28,4.28,4.264,4.264,4.264,4.249,4.249,4.249,4.249,4.249,4.264,4.264,4.264,4.264,4.264,4.264,4.264,4.249,4.233,4.218,4.158,4.085,4.056,4.014,3.946,3.906,3.88,3.868,3.855,3.842,3.829,3.817,3.804
4.114,4.114,4.114,4.114,4.128,4.128,4.128,4.114,4.114,4.114,4.114,4.114,4.114,4.085,4.114,4.114,4.114,4.114,4.114,4.128,4.158,4.173,4.173,4.188,4.203,4.218,4.233,4.249,4.249,4.249,4.249,4.249,4.264,4.264,4.264,4.264,4.264,4.264,4.264,4.264,4.264,4.264,4.264,4.264,4.264,4.264,4.264,4.249,4.249,4.249,4.249,4.233,4.233,4.218,4.203,4.203,4.188,4.188,4.173,4.173,4.173,4.173,4.188,4.188,4.203,4.233,4.249,4.249,4.264,4.264,4.28,4.28,4.28,4.296,4.296,4.296,4.296,4.296,4.296,4.296,4.28,4.28,4.28,4.28,4.28,4.264,4.264,4.264,4.264,4.264,4.249,4.249,4.249,4.249,4.249,4.249,4.249,4.233,4.233,4.233,4.233,4.233,4.233,4.249,4.249,4.249,4.264,4.264,4.264,4.264,4.264,4.28,4.28,4.28,4.28,4.28,4.28,4.28,4.28,4.264,4.264,4.264,4.264,4.264,4.264,4.264,4.264,4.264,4.264,4.264,4.264,4.264,4.264,4.264,4.264,4.264,4.28,4.28,4.296,4.312,4.312,4.328,4.344,4.344,4.344,4.36,4.376,4.376,4.376,4.376,4.36,4.376,4.376,4.36,4.36,4.36,4.36,4.36,4.36,4.344,4.36,4.36,4.344,4.344,4.344,4.344,4.344,4.344,4.328,4.328,4.328,4.328,4.328,4.328,4.344,4.344,4.36,4.376,4.393,4.426,4.477,4.512,4.53,4.583,4.583,4.601,4.638,4.638,4.638,4.638,4.638,4.638,4.638,4.638,4.638,4.601,4.601,4.583,4.583,4.583,4.565,4.565,4.565,4.53,4.53,4.565,4.565,4.565,4.565,4.565,4.565,4.583,4.583,4.583,4.601,4.601,4.601,4.601,4.601,4.601,4.601,4.601,4.583,4.583,4.583,4.583,4.565,4.565,4.565,4.583,4.601,4.638,4.657,4.713,4.732,4.771,4.791,4.81,4.81,4.81,4.81,4.83,4.83,4.83,4.81,4.81,4.81,4.81,4.771,4.771,4.752,4.732,4.732,4.732,4.713,4.732,4.752,4.771,4.771,4.791,4.81,4.81,4.83,4.83,4.83,4.851,4.851,4.851,4.871,4.871,4.851,4.851,4.851,4.851,4.851,4.83,4.83,4.83,4.83,4.81,4.791,4.771,4.752,4.732,4.732,4.732,4.752,4.771,4.781000000000001,4.791,4.81,4.83,4.83,4.851,4.851,4.871,4.871,4.891,4.891,4.891,4.891,4.891,4.891,4.891,4.891,4.891,4.891,4.891,4.891,4.891,4.912,4.912,4.933,4.954,4.954,4.975,4.996,5.018,5.04,5.084,5.084,5.106,5.106,5.151,5.151,5.151,5.174,5.174,5.174,5.174,5.151,5.151,5.151,5.106,5.084,5.084,5.04,5.018,4.996,4.996,4.975,4.975,4.954,4.933,4.912,4.912,4.912,4.912,4.912,4.912,4.891,4.891,4.891,4.891,4.891,4.891,4.891,4.891,4.891,4.891,4.891,4.891,4.912,4.912,4.912,4.933,4.954,4.954,4.954,4.954,4.954,4.912,4.891,4.851,4.81,4.601,4.249,4.056,3.893,3.817,3.743,3.593,3.56,3.538,3.528,3.517,3.517,3.517,3.517,3.517,3.517,3.528,3.538,3.549,3.56,3.582,3.593,3.593,3.593,3.593,3.582,3.56,3.549,3.538,3.528,3.517,3.506,3.506,3.496,3.496,3.496,3.496,3.496,3.496,3.496,3.506,3.506,3.528,3.549,3.599,3.649,3.792,3.8895,3.987,4.173,4.296,4.38,4.41,4.512,4.601,4.694,4.713,4.752,4.771,4.81,4.83,4.851,4.871,4.871,4.891,4.891,4.912,4.912,4.933,4.954,4.975,4.996,5.018,5.018,5.04,5.04,5.04,5.04,5.04,5.04,5.04,5.04,5.018,5.04,5.04,5.084,5.084,5.084,5.084,5.084,5.106,5.106,5.151,5.151,5.174,5.174,5.174,5.174,5.151,5.106,5.084,5.04,5.018,4.975,4.954,4.933,4.933,4.912,4.912,4.912,4.912,4.912,4.912,4.912,4.933,4.933,4.933,4.933,4.933,4.933,4.933,4.912,4.912,4.891,4.891,4.891,4.871,4.851,4.83,4.83,4.791,4.752,4.713,4.694,4.638,4.583,4.53,4.477,4.426,4.393,4.376,4.344,4.328,4.312,4.312,4.28,4.28,4.264,4.264,4.249,4.249,4.249,4.249,4.249,4.264,4.264,4.264,4.264,4.264,4.264,4.264,4.264,4.264,4.249,4.233,4.158,4.114,4.07,4.014,3.946,3.906,3.88,3.855,3.842,3.829,3.817,3.817
4.114,4.128,4.128,4.158,4.158,4.158,4.158,4.128,4.128,4.128,4.128,4.128,4.128,4.128,4.114,4.128,4.128,4.128,4.128,4.158,4.158,4.173,4.188,4.203,4.218,4.218,4.233,4.249,4.249,4.249,4.264,4.264,4.264,4.264,4.264,4.264,4.264,4.264,4.264,4.264,4.264,4.264,4.264,4.264,4.264,4.264,4.264,4.264,4.264,4.264,4.249,4.249,4.249,4.249,4.249,4.233,4.233,4.218,4.218,4.218,4.218,4.218,4.233,4.233,4.249,4.249,4.264,4.264,4.28,4.28,4.28,4.296,4.296,4.312,4.312,4.312,4.312,4.312,4.312,4.296,4.296,4.296,4.28,4.28,4.28,4.28,4.28,4.264,4.264,4.264,4.264,4.264,4.264,4.249,4.249,4.249,4.249,4.249,4.249,4.249,4.249,4.249,4.249,4.264,4.264,4.264,4.264,4.264,4.264,4.264,4.28,4.28,4.28,4.28,4.28,4.28,4.28,4.28,4.264,4.264,4.264,4.264,4.264,4.264,4.249,4.249,4.249,4.264,4.264,4.264,4.264,4.264,4.264,4.264,4.264,4.28,4.28,4.296,4.296,4.312,4.328,4.344,4.36,4.36,4.376,4.393,4.393,4.393,4.393,4.393,4.36,4.36,4.36,4.36,4.36,4.36,4.36,4.36,4.36,4.36,4.376,4.36,4.36,4.36,4.36,4.376,4.376,4.376,4.36,4.36,4.36,4.36,4.36,4.36,4.36,4.376,4.393,4.41,4.426,4.477,4.53,4.565,4.583,4.638,4.657,4.657,4.694,4.713,4.713,4.694,4.694,4.694,4.694,4.657,4.657,4.657,4.638,4.638,4.638,4.601,4.601,4.601,4.601,4.601,4.601,4.583,4.583,4.601,4.601,4.601,4.601,4.601,4.601,4.638,4.638,4.638,4.638,4.657,4.657,4.657,4.657,4.657,4.657,4.657,4.638,4.638,4.638,4.601,4.638,4.638,4.657,4.694,4.713,4.732,4.771,4.791,4.81,4.81,4.83,4.83,4.83,4.83,4.83,4.83,4.83,4.83,4.83,4.81,4.81,4.81,4.791,4.771,4.771,4.771,4.771,4.771,4.791,4.81,4.81,4.83,4.83,4.851,4.851,4.871,4.871,4.891,4.891,4.891,4.891,4.891,4.891,4.891,4.891,4.871,4.871,4.851,4.851,4.851,4.83,4.83,4.81,4.81,4.791,4.771,4.752,4.752,4.771,4.791,4.791,4.81,4.81,4.83,4.851,4.851,4.851,4.871,4.891,4.891,4.891,4.891,4.891,4.891,4.891,4.891,4.891,4.891,4.912,4.912,4.912,4.912,4.912,4.933,4.954,4.954,4.975,4.996,5.018,5.04,5.04,5.084,5.084,5.106,5.151,5.151,5.174,5.174,5.174,5.174,5.174,5.174,5.174,5.174,5.151,5.151,5.106,5.106,5.084,5.04,5.018,5.018,4.996,4.996,4.975,4.954,4.954,4.933,4.933,4.912,4.912,4.912,4.912,4.912,4.912,4.891,4.891,4.891,4.891,4.891,4.891,4.891,4.891,4.912,4.912,4.933,4.933,4.954,4.975,4.975,4.975,4.975,4.954,4.933,4.891,4.851,4.771,4.53,4.203,3.987,3.868,3.804,3.627,3.593,3.56,3.549,3.538,3.528,3.528,3.528,3.528,3.538,3.538,3.549,3.56,3.582,3.593,3.615,3.615,3.627,3.615,3.615,3.593,3.56,3.549,3.538,3.528,3.517,3.506,3.496,3.496,3.496,3.496,3.496,3.485,3.496,3.496,3.496,3.496,3.496,3.517,3.5564999999999998,3.582,3.696,0.0,0.0,3.933,4.085,4.249,4.28,4.312,4.344,4.376,4.46,4.5135000000000005,4.53,4.601,4.713,4.771,4.83,4.851,4.891,4.891,4.912,4.912,4.933,4.954,4.975,4.996,5.018,5.018,5.04,5.04,5.04,5.084,5.04,5.04,5.04,5.04,5.04,5.04,5.084,5.084,5.084,5.106,5.122999999999999,5.151,5.151,5.151,5.151,5.174,5.174,5.174,5.174,5.174,5.151,5.106,5.084,5.04,5.018,4.996,4.954,4.933,4.933,4.933,4.912,4.912,4.912,4.912,4.912,4.912,4.933,4.933,4.933,4.933,4.933,4.933,4.933,4.912,4.912,4.912,4.891,4.891,4.891,4.871,4.851,4.851,4.81,4.81,4.771,4.732,4.694,4.638,4.583,4.53,4.477,4.426,4.41,4.393,4.36,4.328,4.312,4.296,4.28,4.28,4.264,4.249,4.249,4.249,4.249,4.249,4.264,4.264,4.264,4.264,4.28,4.28,4.28,4.28,4.28,4.264,4.249,4.233,4.173,4.114,4.056,3.987,3.933,3.893,3.868,3.842,3.829,3.817,3.804
4.158,4.158,4.158,4.158,4.158,4.173,4.173,4.158,4.158,4.158,4.158,4.158,4.158,4.158,4.158,4.158,4.158,4.158,4.173,4.173,4.188,4.203,4.203,4.218,4.233,4.233,4.249,4.249,4.249,4.264,4.264,4.264,4.264,4.264,4.264,4.264,4.264,4.264,4.264,4.264,4.264,4.264,4.264,4.264,4.264,4.264,4.264,4.264,4.264,4.264,4.264,4.264,4.264,4.264,4.264,4.264,4.249,4.249,4.249,4.249,4.249,4.249,4.249,4.249,4.264,4.264,4.28,4.28,4.28,4.296,4.296,4.312,4.312,4.312,4.312,4.312,4.312,4.312,4.312,4.296,4.296,4.296,4.28,4.28,4.28,4.28,4.28,4.28,4.28,4.264,4.264,4.264,4.264,4.264,4.264,4.264,4.264,4.264,4.264,4.264,4.264,4.264,4.264,4.264,4.28,4.28,4.28,4.28,4.28,4.28,4.28,4.28,4.28,4.28,4.28,4.28,4.28,4.264,4.264,4.264,4.264,4.264,4.264,4.264,4.264,4.249,4.249,4.249,4.264,4.264,4.264,4.264,4.264,4.264,4.264,4.28,4.28,4.296,4.312,4.328,4.328,4.36,4.393,4.393,4.41,4.41,4.426,4.426,4.426,4.41,4.376,4.36,4.36,4.36,4.36,4.344,4.36,4.36,4.36,4.36,4.376,4.376,4.393,4.393,4.393,4.41,4.41,4.393,4.393,4.393,4.393,4.393,4.393,4.393,4.41,4.41,4.426,4.477,4.512,4.565,4.583,4.638,4.657,4.694,4.713,4.713,4.732,4.732,4.732,4.713,4.713,4.713,4.694,4.694,4.657,4.657,4.657,4.638,4.638,4.638,4.657,4.657,4.657,4.657,4.657,4.638,4.638,4.638,4.657,4.638,4.638,4.638,4.657,4.657,4.657,4.657,4.657,4.694,4.694,4.694,4.694,4.694,4.694,4.694,4.694,4.694,4.694,4.694,4.694,4.713,4.713,4.732,4.752,4.771,4.791,4.81,4.83,4.83,4.83,4.83,4.851,4.851,4.851,4.851,4.851,4.851,4.83,4.83,4.83,4.81,4.81,4.81,4.81,4.81,4.81,4.81,4.81,4.83,4.83,4.851,4.871,4.871,4.891,4.912,4.912,4.912,4.912,4.912,4.912,4.912,4.912,4.912,4.912,4.891,4.891,4.891,4.871,4.871,4.851,4.851,4.83,4.83,4.81,4.81,4.81,4.81,4.81,4.81,4.81,4.83,4.83,4.851,4.851,4.871,4.871,4.891,4.891,4.891,4.891,4.912,4.912,4.912,4.912,4.912,4.912,4.912,4.912,4.912,4.912,4.933,4.954,4.954,4.975,4.996,4.996,5.018,5.018,5.04,5.084,5.084,5.084,5.106,5.106,5.151,5.151,5.174,5.174,5.174,5.174,5.174,5.174,5.174,5.151,5.151,5.151,5.151,5.106,5.106,5.084,5.084,5.04,5.018,5.018,4.996,4.975,4.954,4.954,4.933,4.933,4.912,4.912,4.912,4.912,4.912,4.912,4.891,4.891,4.891,4.891,4.891,4.912,4.912,4.912,4.933,4.954,4.975,4.996,4.996,4.996,4.996,4.954,4.933,4.891,4.83,4.713,4.28,4.128,3.933,3.842,3.78,3.627,3.593,3.56,3.56,3.538,3.549,3.538,3.549,3.538,3.549,3.56,3.582,3.593,3.615,3.627,3.627,3.649,3.649,3.627,3.627,3.615,3.582,3.549,3.538,3.528,3.517,3.506,3.496,3.496,3.496,3.496,3.485,3.485,3.485,3.485,3.485,3.496,3.496,3.496,3.528,3.5685000000000002,3.615,0.0,0.0,3.838,0.0,0.0,0.0,0.0,4.188,4.218,4.264,4.312,4.36,4.46,4.525,4.583,4.732,4.81,4.851,4.891,4.912,4.912,4.933,4.954,4.975,4.996,5.018,5.018,5.04,5.084,5.084,5.084,5.084,5.084,5.106,5.106,5.106,5.106,5.106,5.151,5.151,5.151,5.151,5.151,5.174,5.174,5.22,5.22,5.22,5.22,5.22,5.174,5.151,5.106,5.084,5.04,5.018,4.975,4.954,4.933,4.933,4.933,4.933,4.933,4.912,4.912,4.912,4.933,4.933,4.933,4.933,4.933,4.933,4.933,4.933,4.933,4.912,4.912,4.912,4.912,4.912,4.891,4.891,4.871,4.851,4.851,4.81,4.791,4.752,4.713,4.657,4.583,4.565,4.512,4.477,4.426,4.393,4.36,4.328,4.312,4.296,4.28,4.28,4.249,4.249,4.233,4.233,4.249,4.249,4.264,4.264,4.264,4.28,4.28,4.296,4.296,4.28,4.28,4.264,4.249,4.233,4.158,4.085,4.028,3.973,3.906,3.868,3.842,3.829,3.817,3.804
4.158,4.173,4.173,4.173,4.173,4.173,4.173,4.173,4.173,4.173,4.173,4.173,4.173,4.173,4.173,4.173,4.173,4.173,4.188,4.188,4.203,4.218,4.233,4.233,4.249,4.249,4.249,4.264,4.264,4.264,4.264,4.264,4.28,4.28,4.28,4.28,4.28,4.28,4.28,4.28,4.28,4.28,4.28,4.28,4.28,4.28,4.28,4.28,4.28,4.28,4.28,4.28,4.28,4.28,4.28,4.264,4.264,4.264,4.264,4.264,4.264,4.264,4.264,4.264,4.28,4.28,4.28,4.28,4.296,4.296,4.312,4.312,4.312,4.312,4.312,4.312,4.312,4.312,4.312,4.296,4.296,4.296,4.296,4.28,4.28,4.28,4.28,4.28,4.28,4.28,4.28,4.28,4.264,4.28,4.28,4.28,4.28,4.28,4.28,4.28,4.28,4.28,4.28,4.28,4.28,4.28,4.28,4.28,4.28,4.28,4.28,4.28,4.28,4.28,4.28,4.28,4.28,4.28,4.264,4.264,4.264,4.264,4.264,4.264,4.264,4.264,4.264,4.264,4.264,4.264,4.264,4.264,4.264,4.264,4.28,4.28,4.296,4.312,4.312,4.328,4.36,4.393,4.41,4.426,4.46,4.477,4.477,4.477,4.477,4.426,4.41,4.393,4.376,4.36,4.36,4.36,4.36,4.36,4.376,4.393,4.393,4.393,4.41,4.426,4.426,4.426,4.46,4.46,4.46,4.46,4.46,4.46,4.46,4.46,4.477,4.477,4.512,4.53,4.565,4.601,4.638,4.694,4.713,4.732,4.752,4.752,4.752,4.752,4.752,4.732,4.713,4.713,4.694,4.657,4.657,4.657,4.657,4.657,4.657,4.657,4.657,4.657,4.657,4.694,4.694,4.694,4.694,4.694,4.694,4.694,4.657,4.694,4.694,4.694,4.694,4.713,4.713,4.713,4.713,4.732,4.732,4.752,4.752,4.752,4.752,4.752,4.752,4.752,4.752,4.771,4.771,4.791,4.791,4.81,4.81,4.83,4.83,4.851,4.851,4.851,4.851,4.851,4.871,4.871,4.871,4.871,4.851,4.851,4.851,4.83,4.83,4.83,4.83,4.83,4.83,4.83,4.851,4.851,4.871,4.891,4.891,4.912,4.912,4.933,4.954,4.975,4.975,4.975,4.975,4.975,4.975,4.954,4.933,4.912,4.912,4.912,4.891,4.891,4.871,4.851,4.851,4.83,4.83,4.83,4.83,4.83,4.83,4.83,4.83,4.851,4.851,4.851,4.871,4.891,4.891,4.891,4.891,4.891,4.912,4.912,4.912,4.912,4.912,4.912,4.912,4.933,4.933,4.933,4.933,4.954,4.975,4.975,4.996,4.996,4.996,5.018,5.04,5.04,5.04,5.084,5.084,5.084,5.106,5.106,5.151,5.151,5.151,5.151,5.174,5.174,5.174,5.174,5.174,5.174,5.174,5.174,5.151,5.151,5.106,5.106,5.106,5.084,5.04,5.04,5.018,4.996,4.975,4.975,4.954,4.933,4.912,4.912,4.912,4.912,4.912,4.912,4.912,4.912,4.891,4.912,4.912,4.912,4.933,4.954,4.975,4.975,4.996,4.996,5.018,4.996,4.975,4.933,4.891,4.83,4.657,4.249,4.056,3.88,3.817,3.755,3.627,3.593,3.582,3.582,3.56,3.549,3.549,3.56,3.56,3.56,3.582,3.615,3.615,3.649,3.649,3.661,3.661,3.661,3.649,3.649,3.615,3.582,3.56,3.538,3.528,3.517,3.506,3.496,3.496,3.485,3.485,3.485,3.485,3.485,3.485,3.485,3.485,3.485,3.485,3.506,3.549,3.57675,3.615,3.672,3.743,0.0,0.0,0.0,0.0,3.984,4.011,4.04725,4.085,4.218,4.28,4.344,4.53,4.6217500000000005,4.713,4.81,4.871,4.912,4.912,4.933,4.975,4.996,5.018,5.018,5.04,5.084,5.084,5.106,5.106,5.151,5.151,5.151,5.151,5.151,5.151,5.174,5.174,5.174,5.174,5.22,5.22,5.22,5.22,5.244,5.244,5.244,5.244,5.22,5.22,5.151,5.106,5.084,5.04,5.018,4.975,4.954,4.954,4.933,4.933,4.933,4.933,4.933,4.912,4.912,4.933,4.933,4.912,4.912,4.933,4.912,4.912,4.912,4.933,4.912,4.912,4.912,4.912,4.912,4.912,4.912,4.891,4.891,4.871,4.83,4.83,4.81,4.771,4.713,4.657,4.638,4.583,4.53,4.477,4.426,4.393,4.36,4.328,4.312,4.296,4.28,4.264,4.249,4.233,4.233,4.249,4.249,4.264,4.264,4.264,4.28,4.28,4.296,4.296,4.296,4.28,4.28,4.264,4.249,4.188,4.128,4.07,3.987,3.933,3.88,3.842,3.829,3.817,3.804
4.173,4.188,4.188,4.188,4.188,4.188,4.188,4.188,4.188,4.188,4.188,4.188,4.188,4.188,4.188,4.188,4.188,4.203,4.203,4.218,4.233,4.233,4.249,4.249,4.249,4.264,4.264,4.264,4.264,4.264,4.264,4.28,4.28,4.28,4.28,4.28,4.28,4.28,4.28,4.28,4.28,4.28,4.28,4.28,4.28,4.28,4.28,4.28,4.28,4.28,4.28,4.28,4.28,4.28,4.28,4.28,4.28,4.28,4.28,4.28,4.28,4.28,4.28,4.28,4.28,4.296,4.296,4.296,4.312,4.312,4.312,4.312,4.312,4.312,4.312,4.312,4.312,4.312,4.312,4.296,4.296,4.296,4.296,4.296,4.296,4.28,4.28,4.28,4.28,4.296,4.296,4.296,4.296,4.296,4.296,4.296,4.296,4.296,4.296,4.296,4.296,4.296,4.296,4.296,4.296,4.296,4.296,4.296,4.296,4.28,4.28,4.28,4.28,4.28,4.28,4.28,4.28,4.28,4.28,4.28,4.264,4.264,4.264,4.264,4.28,4.264,4.264,4.264,4.264,4.28,4.28,4.28,4.28,4.28,4.28,4.296,4.312,4.328,4.328,4.36,4.393,4.426,4.46,4.477,4.512,4.512,4.53,4.53,4.53,4.477,4.46,4.41,4.41,4.393,4.393,4.376,4.376,4.393,4.393,4.41,4.41,4.426,4.46,4.477,4.477,4.512,4.53,4.53,4.512,4.512,4.512,4.512,4.53,4.53,4.565,4.565,4.583,4.601,4.638,4.694,4.713,4.732,4.752,4.771,4.791,4.771,4.771,4.771,4.752,4.732,4.713,4.694,4.657,4.657,4.638,4.638,4.638,4.638,4.638,4.657,4.6754999999999995,4.694,4.69425,4.713,4.713,4.713,4.713,4.732,4.713,4.713,4.713,4.713,4.713,4.713,4.732,4.732,4.732,4.752,4.752,4.771,4.771,4.791,4.791,4.791,4.81,4.81,4.81,4.81,4.81,4.81,4.81,4.81,4.83,4.83,4.851,4.851,4.851,4.871,4.871,4.891,4.891,4.891,4.891,4.891,4.891,4.891,4.891,4.871,4.871,4.851,4.851,4.851,4.851,4.851,4.851,4.851,4.871,4.891,4.891,4.912,4.912,4.933,4.954,4.996,4.996,5.018,5.018,5.018,5.018,5.018,5.018,4.996,4.975,4.975,4.954,4.933,4.912,4.912,4.891,4.891,4.871,4.871,4.851,4.851,4.851,4.851,4.851,4.851,4.871,4.871,4.871,4.891,4.891,4.891,4.891,4.912,4.912,4.912,4.912,4.912,4.933,4.933,4.933,4.933,4.933,4.954,4.954,4.954,4.975,4.975,4.996,4.996,4.996,5.018,5.018,5.018,5.04,5.04,5.084,5.084,5.084,5.084,5.106,5.106,5.106,5.106,5.151,5.151,5.174,5.174,5.174,5.174,5.174,5.174,5.22,5.174,5.174,5.174,5.174,5.151,5.151,5.151,5.106,5.084,5.084,5.04,5.018,4.996,4.975,4.954,4.954,4.933,4.933,4.912,4.912,4.912,4.912,4.912,4.912,4.912,4.912,4.933,4.954,4.975,4.996,4.996,5.018,5.018,5.018,4.996,4.975,4.912,4.891,4.81,4.565,4.188,4.00125,3.855,3.804,3.743,3.627,3.615,3.582,3.582,3.56,3.56,3.56,3.56,3.582,3.582,3.593,3.627,3.649,3.672,3.696,3.707,3.672,3.672,3.661,3.649,3.627,3.593,3.549,3.538,3.517,3.506,3.496,3.496,3.485,3.485,3.485,3.475,3.475,3.475,3.465,3.475,3.475,3.475,3.485,3.485,3.506,3.528,3.549,3.593,3.6254999999999997,3.649,3.672,3.731,3.755,3.78,3.804,3.829,3.908,4.005,4.127,4.249,4.328,4.512,4.632,4.752,4.83,4.912,4.933,4.933,4.975,4.996,5.018,5.04,5.084,5.106,5.106,5.151,5.151,5.151,5.174,5.22,5.22,5.22,5.22,5.22,5.22,5.22,5.244,5.244,5.244,5.268,5.268,5.268,5.268,5.244,5.244,5.244,5.174,5.151,5.106,5.084,5.04,5.018,4.996,4.975,4.954,4.954,4.954,4.933,4.933,4.933,4.933,4.912,4.933,4.933,4.933,4.912,4.912,4.912,4.912,4.912,4.912,4.912,4.912,4.912,4.912,4.912,4.912,4.912,4.912,4.891,4.891,4.871,4.851,4.83,4.81,4.771,4.732,4.694,4.638,4.583,4.53,4.46,4.426,4.393,4.344,4.328,4.312,4.28,4.264,4.249,4.233,4.233,4.249,4.249,4.264,4.264,4.264,4.28,4.28,4.312,4.296,4.296,4.296,4.28,4.28,4.264,4.203,4.173,4.114,4.028,3.946,3.893,3.855,3.829,3.817,3.804
