3.855,3.855,3.855,3.855,3.855,3.855,3.855,3.855,3.855,3.855,3.868,3.868,3.868,3.88,3.88,3.893,3.906,3.92,3.933,3.933,3.933,3.973,3.973,3.973,3.987,3.987,3.987,3.987,3.973,3.973,3.946,3.946,3.933,3.933,3.92,3.92,3.906,3.906,3.893,3.893,3.893,0.0,0.0,0.0,0.0,0.0,0.0,0.0,0.0,0.0,0.0,0.0,0.0,0.0,0.0,0.0,0.0,0.0,0.0,0.0,0.0,0.0,0.61,0.612,0.613,0.614,0.615,0.617,0.618,0.618,0.62,0.621,0.621,0.621,0.621,0.622,0.622,0.623,0.623,0.624,0.625,0.626,0.626,0.626,0.625,0.626,0.625,0.626,0.626,0.627,0.628,0.629,0.629,0.63,0.63,0.631,0.631,0.632,0.632,0.632,0.632,0.0,0.0,0.0,0.0,0.0,0.0,0.0,0.0,0.0,0.0,0.0,0.0,0.602,0.607,0.607,0.603,0.602,0.601,0.601,0.599,0.598,0.597,0.595,0.592,0.592,0.591,0.589,0.588,0.589,0.589,0.589,0.589,0.591,0.591,0.592,0.592,0.593,0.593,0.593,0.593,0.592,0.592,0.592,0.591,0.591,0.59,0.589,0.5885,0.589125,0.59,0.59,0.591,0.591,0.0,0.5907499999999999,0.591,0.59,0.59,0.588,0.586,0.583,0.583,0.582,0.5822499999999999,0.581,0.581,0.5794999999999999,0.579,0.578,0.577,0.576,0.575,0.576,0.576,0.575,0.574,0.574,0.572,0.571,0.57,0.567,0.566,0.565,0.565,0.564,0.564,0.564,0.564,0.564,0.564,0.563,0.563,0.563,0.563,0.562,0.56,0.559,0.559,0.559,0.558,0.556,0.556,0.556,0.556,0.555,0.553,0.549,0.547,0.545,0.543,0.541,0.541,0.541,0.542,0.542,0.544,0.544,0.546,0.547,0.547,0.547,0.547,0.548,0.5485,0.549,0.55,0.551,0.55,0.548,0.547,0.547,0.547,0.547,0.546,0.546,0.546,0.0,0.0,0.0,0.0,0.0,0.0,0.0,0.0,0.0,0.0,0.0,0.0,0.0,0.0,0.0,0.0,0.0,0.0,0.0,0.0,0.0,0.0,0.0,0.0,0.0,0.0,0.0,0.0,0.0,0.0,0.0,0.371,0.37,0.37,0.369,0.0,0.0,0.364,0.363,0.362,0.362,0.361,0.361,0.36,0.359,0.359,0.359,0.359,0.358,0.358,0.358,0.358,0.358,0.358,0.358,0.357,0.357,0.357,0.357,0.357,0.356,0.356,0.356,0.356,0.356,0.356,0.355,0.355,0.355,0.355,0.355,0.355,0.355,0.355,0.355,0.355,0.355,0.355,0.355,0.355,0.355,0.355,0.3555,0.356,0.356,0.356,0.356,0.356,0.356,0.35624999999999996,0.356,0.35674999999999996,0.357,0.357,0.357,0.357,0.357,0.357,0.357,0.357,0.358,0.358,0.358,0.358,0.358,0.358,0.358,0.358,0.358,0.358,0.358,0.358,0.358,0.359,0.359,0.359,0.359,0.36,0.36,0.36,0.361,0.361,0.361,0.36,0.36,0.36,0.359,0.359,0.359,0.358,0.358,0.358,0.358,0.358,0.357,0.357,0.357,0.357,0.357,0.357,0.357,0.357,0.357,0.357,0.357,0.357,0.357,0.357,0.357,0.357,0.357,0.357,0.357,0.358,0.358,0.358,0.359,0.359,0.359,0.361,0.361,0.362,0.362,0.362,0.362375,0.363,0.363,0.3635,0.364,0.364,0.364,0.364,0.364,0.365,0.365,0.365,0.365,0.365,0.365,0.366,0.366,0.366,0.366,0.366,0.367,0.367,0.368,0.368,0.369,0.369,0.369,0.369,0.37,0.37,0.37,0.371,0.372,0.372,0.373,0.373,0.3735,0.374,0.375,0.375,0.376,0.377,0.377,0.378,0.378,0.379,0.38,0.38,0.38,0.38,0.38,0.38,0.379,0.379,0.379,0.379,0.378,0.379,0.379,0.379,0.38,0.38,0.381,0.381,0.381,0.382,0.382,0.382,0.382,0.0,0.0,0.0,0.0,0.0,0.0,0.0,0.0,0.0,0.0,0.0,0.0,0.426,0.426,0.426,0.426,0.426,0.426,0.425,0.0,0.0,0.0,0.0,0.0,0.0,0.0,0.0,0.0,0.0,0.0,0.433,0.434,0.4345,0.435,0.435,0.435,0.435,0.435,0.434,0.433,0.433,0.432,0.432,0.432,0.0,0.0,0.0,0.0,0.0,0.0,0.0,0.0,0.0,0.0,0.0,0.0,0.0,0.0,0.0,0.0,0.0,0.0,0.0,0.0,0.0,0.0,0.0,0.0,0.0,0.0,0.0,0.0,0.0,0.0
3.829,3.829,3.829,3.829,3.829,3.829,3.829,3.829,3.829,3.829,3.842,3.842,3.855,3.855,3.868,3.868,3.868,3.88,3.893,3.906,3.92,3.933,3.946,3.973,3.973,3.973,3.987,3.973,3.973,3.973,3.946,3.946,3.933,3.92,3.92,3.906,3.906,3.893,0.0,0.0,0.0,0.0,0.0,0.0,0.0,0.0,0.0,0.0,0.0,0.0,0.0,0.0,0.0,0.0,0.0,0.0,0.0,0.0,0.0,0.0,0.599,0.602,0.604,0.606,0.61,0.611,0.611,0.612,0.613,0.614,0.616,0.618,0.619,0.62,0.62,0.621,0.621,0.622,0.617,0.6174999999999999,0.618875,0.622,0.6174999999999999,0.6181249999999999,0.62,0.62,0.62,0.619,0.6187499999999999,0.621,0.622,0.624,0.625,0.628,0.628,0.629,0.63,0.63,0.0,0.0,0.0,0.0,0.0,0.0,0.0,0.0,0.0,0.0,0.0,0.0,0.0,0.0,0.592,0.592,0.593,0.593,0.5965,0.599,0.597,0.596,0.594,0.593,0.592,0.591,0.59,0.589,0.587,0.585,0.585,0.585,0.584,0.584,0.584,0.586,0.587,0.589,0.59,0.59,0.59,0.591,0.591,0.591,0.59,0.59,0.589,0.587,0.586,0.586,0.585,0.586,0.586,0.587,0.587,0.0,0.0,0.586,0.0,0.0,0.0,0.0,0.0,0.0,0.0,0.0,0.579,0.577,0.575,0.574,0.573,0.573,0.573,0.571,0.5702499999999999,0.57,0.5684999999999999,0.566,0.566,0.565,0.563,0.563,0.563,0.561,0.5605,0.56,0.5597500000000001,0.559,0.5595,0.56,0.558,0.558,0.557,0.558,0.557,0.556,0.556,0.555,0.555,0.555,0.555,0.554,0.552,0.55,0.549,0.549,0.547,0.545,0.543,0.541,0.541,0.54,0.539,0.539,0.539,0.538,0.539,0.539,0.539,0.54,0.54,0.54,0.541,0.54,0.541,0.543,0.543,0.545,0.547,0.5462500000000001,0.546,0.545,0.545,0.545,0.543,0.543,0.542,0.541,0.541,0.0,0.0,0.0,0.0,0.0,0.0,0.0,0.0,0.0,0.0,0.0,0.0,0.0,0.0,0.0,0.0,0.0,0.0,0.0,0.0,0.0,0.0,0.0,0.0,0.0,0.0,0.0,0.0,0.0,0.0,0.0,0.0,0.0,0.0,0.0,0.0,0.0,0.364,0.363,0.362,0.362,0.362,0.361,0.36,0.359,0.359,0.359,0.359,0.358,0.358,0.358,0.358,0.358,0.358,0.358,0.358,0.357,0.357,0.357,0.357,0.357,0.356,0.356,0.356,0.356,0.356,0.355,0.355,0.355,0.355,0.355,0.355,0.355,0.355,0.355,0.355,0.355,0.355,0.355,0.355,0.355,0.355,0.35562499999999997,0.356,0.356,0.356,0.356,0.356,0.3565,0.357,0.357,0.357,0.357,0.357,0.357,0.357,0.357,0.357,0.357,0.358,0.358,0.358,0.358,0.358,0.358,0.358,0.358,0.358,0.358,0.358,0.358,0.358,0.358,0.359,0.359,0.359,0.359,0.359,0.36,0.36,0.361,0.361,0.361,0.36,0.36,0.36,0.36,0.359,0.359,0.358,0.358,0.358,0.358,0.358,0.357,0.357,0.357,0.357,0.357,0.357,0.357,0.356,0.357,0.356,0.356,0.356,0.356,0.356,0.356,0.357,0.357,0.357,0.357,0.357,0.358,0.358,0.358,0.359,0.359,0.36,0.361,0.362,0.362,0.362,0.362,0.363,0.363,0.363625,0.364,0.364,0.364,0.364,0.364,0.365,0.365,0.365,0.365,0.365,0.366,0.366,0.366,0.366,0.366,0.367,0.367,0.368,0.368,0.369,0.369,0.369,0.369,0.369,0.37,0.37,0.371,0.371,0.372,0.373,0.373,0.373,0.3735,0.374,0.375,0.376,0.376,0.377,0.377,0.378,0.379,0.38,0.38,0.38,0.38,0.38,0.38,0.38,0.38,0.379,0.379,0.379,0.379,0.379,0.379,0.38,0.38,0.381,0.381,0.381,0.381,0.382,0.382,0.382,0.383,0.0,0.0,0.0,0.0,0.0,0.0,0.0,0.0,0.0,0.0,0.0,0.0,0.427,0.427,0.426,0.426,0.426,0.426,0.426,0.421,0.416,0.0,0.0,0.0,0.0,0.0,0.0,0.424,0.0,0.0,0.0,0.0,0.0,0.431,0.432,0.431,0.43,0.43,0.431,0.431,0.43,0.43,0.43,0.43,0.0,0.0,0.0,0.0,0.0,0.0,0.0,0.0,0.0,0.0,0.0,0.0,0.0,0.0,0.0,0.0,0.0,0.0,0.0,0.0,0.0,0.0,0.0,0.0,0.0,0.0,0.0,0.0,0.0,0.0
3.829,3.817,3.817,3.817,3.804,3.804,3.817,3.817,3.817,3.817,3.817,3.829,3.829,3.829,3.842,3.855,3.855,3.868,3.868,3.88,3.893,3.906,3.92,3.933,3.946,3.973,3.973,3.973,3.973,3.946,3.946,3.933,3.933,3.92,3.92,3.906,0.0,0.0,0.0,0.0,0.0,0.0,0.0,0.0,0.0,0.0,0.0,0.0,0.0,0.0,0.0,0.0,0.0,0.0,0.582,0.583,0.584,0.0,0.0,0.0,0.0,0.0,0.0,0.0,0.0,0.606,0.608,0.0,0.61,0.611,0.612,0.612,0.612,0.612,0.613,0.613,0.612,0.611,0.611,0.611,0.611,0.61,0.609,0.609,0.609,0.608,0.608,0.609,0.609,0.61,0.6154999999999999,0.621,0.622,0.623,0.624,0.628,0.628,0.626,0.0,0.0,0.0,0.0,0.0,0.0,0.0,0.0,0.0,0.0,0.0,0.0,0.59,0.0,0.0,0.0,0.5914999999999999,0.592,0.591,0.589,0.592,0.591,0.591,0.591,0.59,0.589,0.587,0.586,0.584,0.583,0.583,0.582,0.582,0.582,0.582,0.583,0.583,0.584,0.585,0.586,0.586,0.586,0.587,0.587,0.5865,0.586,0.585,0.584,0.583,0.582,0.582,0.582,0.582,0.5754999999999999,0.0,0.0,0.0,0.5725,0.0,0.0,0.0,0.0,0.0,0.0,0.0,0.0,0.572,0.571,0.57,0.5692499999999999,0.568,0.566,0.565,0.565,0.565,0.563,0.562,0.56,0.557,0.556,0.556,0.556,0.555,0.555,0.555,0.555,0.555,0.555,0.555,0.555,0.554,0.553,0.553,0.553,0.552,0.551,0.55,0.549,0.549,0.548,0.548,0.545,0.544,0.543,0.541,0.54,0.539,0.539,0.538,0.538,0.538,0.537,0.537,0.536,0.535,0.5345,0.5351250000000001,0.536,0.535,0.534,0.534,0.534,0.535,0.535,0.0,0.5365,0.537,0.538,0.539,0.541,0.541,0.542,0.53925,0.54,0.539,0.539,0.539,0.536,0.0,0.0,0.0,0.0,0.0,0.0,0.0,0.0,0.0,0.0,0.0,0.0,0.0,0.0,0.0,0.0,0.0,0.0,0.0,0.0,0.0,0.0,0.0,0.0,0.0,0.0,0.0,0.0,0.0,0.0,0.0,0.0,0.0,0.0,0.0,0.0,0.0,0.365,0.364,0.363,0.362,0.362,0.361,0.361,0.36,0.36,0.359,0.359,0.359,0.359,0.358,0.358,0.358,0.358,0.358,0.358,0.358,0.358,0.358,0.358,0.357,0.357,0.357,0.357,0.356,0.356,0.356,0.356,0.356,0.355,0.355,0.355,0.355,0.355,0.355,0.355,0.355,0.355,0.355,0.355,0.355,0.3554999999999999,0.356,0.356,0.356,0.356,0.356,0.3565,0.357,0.357,0.357,0.357,0.357,0.357,0.357,0.357,0.357,0.357,0.357,0.357,0.358,0.358,0.358,0.358,0.358,0.358,0.358,0.358,0.358,0.358,0.358,0.358,0.358,0.358,0.359,0.359,0.359,0.359,0.36,0.36,0.36,0.361,0.361,0.361,0.361,0.36,0.36,0.359,0.359,0.359,0.358,0.358,0.358,0.358,0.357,0.357,0.357,0.357,0.357,0.357,0.357,0.356,0.356,0.356,0.356,0.356,0.356,0.356,0.356,0.356,0.356,0.356,0.356,0.357,0.357,0.358,0.358,0.358,0.359,0.359,0.36,0.361,0.362,0.362,0.362,0.363,0.363,0.363,0.364,0.364,0.364,0.364,0.364,0.365,0.365,0.365,0.365,0.365,0.365,0.366,0.366,0.366,0.366,0.367,0.367,0.368,0.368,0.369,0.369,0.369,0.369,0.369,0.37,0.37,0.37,0.371,0.371,0.372,0.373,0.373,0.373,0.3735,0.374,0.375,0.376,0.377,0.377,0.378,0.379,0.379,0.38,0.38,0.38,0.381,0.38,0.38,0.38,0.38,0.38,0.379,0.379,0.38,0.38,0.38,0.38,0.381,0.381,0.381,0.381,0.381,0.382,0.383,0.383,0.384,0.384,0.0,0.0,0.0,0.0,0.0,0.0,0.0,0.0,0.0,0.0,0.0,0.427,0.427,0.427,0.426,0.427,0.426,0.426,0.42174999999999996,0.42,0.0,0.0,0.0,0.0,0.0,0.42,0.421,0.423,0.425,0.0,0.0,0.0,0.4275,0.427,0.427,0.427,0.427,0.427,0.427,0.427,0.427,0.427,0.0,0.0,0.0,0.0,0.0,0.0,0.0,0.0,0.0,0.0,0.0,0.0,0.0,0.0,0.0,0.0,0.0,0.0,0.0,0.0,0.0,0.0,0.0,0.0,0.0,0.0,0.0,0.0,0.0,0.0,0.0
3.817,3.804,3.804,3.804,3.792,3.792,3.792,3.792,3.804,3.804,3.804,3.817,3.817,3.829,3.829,3.829,3.842,3.855,3.855,3.868,3.868,3.88,3.893,3.92,3.933,3.946,3.946,3.973,3.973,3.946,3.946,3.946,3.933,0.0,0.0,0.0,0.0,0.0,0.0,0.0,0.0,0.0,0.0,0.0,0.0,0.0,0.0,0.0,0.0,0.0,0.0,0.0,0.581,0.0,0.5814999999999999,0.582,0.583,0.0,0.0,0.0,0.0,0.0,0.0,0.0,0.0,0.602,0.6045,0.60575,0.607,0.607,0.608,0.608,0.608,0.607,0.606,0.603,0.602,0.601,0.601,0.601,0.0,0.0,0.599,0.599,0.599,0.599,0.6,0.601,0.601,0.602,0.0,0.0,0.0,0.0,0.0,0.0,0.0,0.0,0.0,0.0,0.0,0.0,0.0,0.0,0.0,0.0,0.0,0.0,0.0,0.0,0.589,0.588,0.0,0.0,0.59,0.589,0.586,0.584,0.583,0.582,0.586,0.586,0.584,0.583,0.582,0.582,0.582,0.581,0.581,0.581,0.581,0.58,0.581,0.581,0.581,0.582,0.582,0.583,0.583,0.583,0.584,0.584,0.583,0.583,0.583,0.581,0.581,0.579,0.577,0.578,0.57,0.564,0.0,0.0,0.0,0.559,0.0,0.0,0.563,0.563,0.564,0.565,0.566,0.566,0.565,0.565,0.565,0.565,0.564,0.563,0.563,0.563,0.561,0.555,0.553,0.552,0.55,0.549,0.549,0.549,0.548,0.548,0.548,0.548,0.548,0.548,0.548,0.548,0.547,0.547,0.547,0.547,0.547,0.546,0.546,0.544,0.544,0.543,0.542,0.54,0.539,0.5375000000000001,0.536,0.5355000000000001,0.535,0.533,0.533,0.533,0.533,0.53325,0.532,0.532,0.532,0.531,0.531,0.531,0.531,0.531,0.53,0.53,0.53,0.53,0.53,0.53,0.53,0.531,0.531,0.0,0.0,0.0,0.53,0.531,0.53,0.528,0.527,0.526,0.0,0.0,0.0,0.0,0.0,0.0,0.0,0.0,0.0,0.0,0.0,0.0,0.0,0.0,0.0,0.0,0.512,0.51,0.0,0.0,0.0,0.0,0.0,0.0,0.0,0.0,0.0,0.0,0.0,0.0,0.0,0.0,0.0,0.0,0.0,0.0,0.0,0.0,0.0,0.0,0.0,0.0,0.361,0.361,0.361,0.359,0.359,0.359,0.359,0.359,0.358,0.358,0.358,0.358,0.358,0.358,0.358,0.358,0.358,0.358,0.358,0.357,0.357,0.357,0.357,0.356,0.356,0.356,0.356,0.356,0.356,0.355,0.355,0.355,0.355,0.355,0.355,0.355,0.3554999999999999,0.356,0.356,0.356,0.356,0.356,0.356,0.356,0.357,0.357,0.357,0.357,0.357,0.357,0.357,0.357,0.357,0.357,0.357,0.357,0.357,0.358,0.358,0.358,0.358,0.358,0.358,0.358,0.358,0.358,0.358,0.358,0.358,0.358,0.358,0.359,0.359,0.359,0.359,0.359,0.36,0.36,0.36,0.361,0.361,0.361,0.361,0.36,0.36,0.359,0.359,0.359,0.358,0.358,0.358,0.358,0.357,0.357,0.357,0.357,0.356,0.356,0.356,0.356,0.356,0.356,0.356,0.356,0.356,0.356,0.356,0.356,0.356,0.356,0.356,0.356,0.357,0.357,0.358,0.358,0.359,0.359,0.36,0.361,0.362,0.362,0.362,0.363,0.363,0.36349999999999993,0.364,0.364,0.364,0.364,0.364,0.365,0.365,0.365,0.365,0.365,0.366,0.366,0.366,0.366,0.366,0.367,0.368,0.368,0.369,0.369,0.369,0.369,0.369,0.37,0.37,0.37,0.371,0.371,0.372,0.372,0.373,0.373,0.373,0.373625,0.374,0.375,0.376,0.377,0.377,0.378,0.379,0.38,0.38,0.38,0.381,0.381,0.381,0.381,0.38,0.38,0.38,0.38,0.379,0.38,0.38,0.38,0.381,0.381,0.381,0.381,0.381,0.382,0.383,0.383,0.384,0.384,0.385,0.0,0.0,0.0,0.0,0.0,0.0,0.0,0.0,0.0,0.0,0.0,0.427,0.427,0.426,0.426,0.426,0.425,0.422,0.42,0.419,0.418,0.416,0.4165,0.417,0.418,0.418,0.41874999999999996,0.42,0.421,0.422,0.423,0.424,0.424,0.425,0.425,0.425,0.425,0.425,0.425,0.425,0.425,0.426,0.0,0.0,0.0,0.0,0.0,0.0,0.0,0.0,0.0,0.0,0.0,0.0,0.0,0.0,0.0,0.0,0.0,0.0,0.0,0.0,0.0,0.0,0.0,0.0,0.0,0.0,0.0,0.0,0.0,0.0,0.0
3.804,3.792,3.78,3.767,3.767,3.767,3.767,3.767,3.767,3.78,3.792,3.804,3.804,3.817,3.817,3.817,3.829,3.829,3.829,3.842,3.855,3.855,3.868,3.88,3.906,3.92,3.933,3.933,3.933,0.0,0.0,0.0,0.0,0.0,0.0,0.0,0.0,0.0,0.0,0.0,0.0,0.0,0.0,0.0,0.0,0.0,0.0,0.0,0.0,0.0,0.579,0.58,0.58,0.58,0.581,0.581,0.582,0.583,0.0,0.0,0.0,0.589,0.0,0.0,0.0,0.598,0.601,0.602,0.602,0.602,0.602,0.602,0.0,0.0,0.599,0.596,0.0,0.0,0.592,0.592,0.0,0.0,0.0,0.5914999999999999,0.5914999999999999,0.5914999999999999,0.5925,0.591,0.0,0.0,0.0,0.0,0.0,0.0,0.0,0.0,0.0,0.0,0.0,0.0,0.0,0.0,0.0,0.0,0.0,0.0,0.0,0.0,0.0,0.0,0.5774999999999999,0.577,0.0,0.0,0.579,0.583,0.583,0.575,0.57475,0.575,0.574,0.573,0.573,0.579,0.578,0.576,0.576,0.576,0.576,0.577,0.577,0.577,0.578,0.579,0.5792499999999999,0.58,0.58,0.581,0.581,0.582,0.582,0.58,0.57975,0.581,0.575,0.57,0.567,0.566,0.5640000000000001,0.559,0.556,0.0,0.0,0.0,0.548,0.548,0.0,0.0,0.0,0.0,0.0,0.556,0.556,0.557,0.557,0.558,0.558,0.561,0.556,0.555,0.554,0.551,0.549,0.548,0.547,0.5465,0.546,0.546,0.546,0.54525,0.546,0.546,0.546,0.544,0.544,0.544,0.543,0.542,0.541,0.54,0.54,0.541,0.542,0.541,0.54,0.539,0.539,0.539,0.538,0.537,0.535,0.532,0.531,0.531,0.531,0.531,0.531,0.531,0.531,0.531,0.531,0.531,0.53,0.53,0.53,0.529,0.528,0.527,0.526,0.526,0.525,0.525,0.524,0.52475,0.524,0.524,0.524,0.0,0.0,0.0,0.523,0.523,0.521,0.519,0.518,0.0,0.0,0.508,0.508,0.509,0.0,0.0,0.0,0.0,0.0,0.0,0.0,0.0,0.0,0.0,0.509,0.508,0.508,0.507,0.0,0.0,0.0,0.0,0.0,0.0,0.0,0.0,0.0,0.0,0.0,0.0,0.0,0.0,0.0,0.0,0.0,0.0,0.0,0.0,0.0,0.0,0.0,0.0,0.362,0.36125,0.361,0.359,0.359,0.359,0.359,0.359,0.359,0.358,0.358,0.358,0.358,0.358,0.358,0.358,0.358,0.358,0.358,0.358,0.358,0.357,0.357,0.357,0.357,0.357,0.356,0.356,0.356,0.356,0.356,0.356,0.356,0.356,0.356,0.356,0.356,0.356,0.356,0.356,0.356,0.356,0.357,0.357,0.357,0.357,0.357,0.357,0.357,0.357,0.357,0.357,0.357,0.357,0.357,0.357,0.358,0.358,0.358,0.358,0.358,0.358,0.358,0.358,0.358,0.358,0.358,0.358,0.358,0.358,0.359,0.359,0.359,0.359,0.359,0.359,0.36,0.36,0.361,0.361,0.361,0.361,0.361,0.36,0.36,0.36,0.359,0.359,0.359,0.358,0.358,0.358,0.357,0.357,0.357,0.357,0.357,0.356,0.356,0.356,0.356,0.356,0.356,0.356,0.356,0.356,0.356,0.356,0.356,0.356,0.356,0.356,0.357,0.357,0.358,0.358,0.359,0.359,0.36,0.361,0.362,0.362,0.362,0.363,0.3635,0.364,0.364,0.364,0.364,0.365,0.365,0.365,0.365,0.365,0.365,0.365,0.366,0.366,0.366,0.366,0.367,0.368,0.368,0.369,0.369,0.369,0.369,0.369,0.37,0.37,0.37,0.371,0.371,0.372,0.372,0.373,0.373,0.373,0.3735,0.374,0.375,0.376,0.376,0.377,0.377,0.378,0.379,0.38,0.38,0.381,0.381,0.381,0.381,0.381,0.38,0.381,0.38,0.0,0.0,0.0,0.38,0.38,0.381,0.381,0.381,0.382,0.382,0.382,0.383,0.384,0.384,0.385,0.385,0.0,0.0,0.0,0.0,0.0,0.0,0.0,0.0,0.0,0.0,0.0,0.426,0.426,0.425,0.425,0.425,0.0,0.0,0.0,0.416,0.416,0.416,0.416,0.416,0.415,0.415,0.416,0.417,0.4175,0.418,0.418,0.419,0.42,0.421,0.421,0.421,0.422,0.423,0.423,0.424,0.425,0.425,0.0,0.0,0.0,0.0,0.0,0.0,0.0,0.0,0.0,0.0,0.0,0.0,0.0,0.0,0.0,0.0,0.0,0.0,0.0,0.0,0.0,0.0,0.0,0.0,0.0,0.0,0.0,0.0,0.0,0.0,0.0
3.792,3.78,3.767,3.755,3.743,3.731,3.731,3.743,3.743,3.755,3.767,3.78,3.792,3.792,3.804,3.804,3.804,3.817,3.829,3.829,3.842,3.855,3.855,3.8674999999999997,0.0,0.0,0.0,0.0,0.0,0.0,0.0,0.0,0.0,0.0,0.0,0.0,0.0,0.0,0.0,0.0,0.0,0.0,0.0,0.0,0.0,0.0,0.0,0.0,0.576,0.576,0.578,0.578,0.579,0.579,0.58,0.58,0.581,0.581,0.582,0.583,0.584,0.587,0.5885,0.59,0.592,0.593,0.596,0.599,0.599,0.599,0.0,0.596,0.0,0.0,0.5914999999999999,0.589,0.0,0.0,0.583,0.583,0.0,0.0,0.0,0.584,0.584,0.584,0.585,0.581,0.0,0.0,0.0,0.0,0.0,0.0,0.0,0.0,0.0,0.0,0.0,0.0,0.0,0.0,0.0,0.0,0.0,0.0,0.0,0.0,0.0,0.0,0.566,0.566,0.566,0.573,0.5715,0.576,0.571,0.566,0.566,0.566,0.566,0.565,0.564,0.564,0.564,0.565,0.571,0.572,0.572,0.573,0.573,0.573,0.574,0.575,0.577,0.576,0.577,0.577,0.577,0.577,0.575,0.573,0.575,0.566,0.562,0.556,0.554,0.5535,0.554,0.5495000000000001,0.547,0.0,0.0,0.0,0.539,0.539,0.0,0.0,0.0,0.0,0.0,0.0,0.5475000000000001,0.548125,0.548,0.55,0.55025,0.551,0.5485,0.54775,0.547,0.546,0.546,0.542,0.541,0.541,0.54,0.54,0.54,0.54,0.54,0.539,0.539,0.539,0.539,0.539,0.539,0.538,0.538,0.537,0.538,0.538,0.538,0.538,0.536,0.534,0.533,0.5327500000000001,0.531,0.53075,0.53,0.528,0.527,0.527,0.526,0.526,0.525,0.527,0.527,0.526,0.527,0.526,0.526,0.526,0.525,0.525,0.524,0.523,0.523,0.523,0.521,0.52,0.522,0.521,0.52,0.519,0.518,0.0,0.0,0.0,0.511,0.515,0.515,0.515,0.0,0.0,0.0,0.0,0.0,0.504,0.0,0.0,0.0,0.0,0.0,0.0,0.0,0.0,0.0,0.0,0.0,0.504,0.502,0.0,0.0,0.0,0.0,0.0,0.0,0.0,0.0,0.0,0.0,0.0,0.0,0.0,0.0,0.0,0.0,0.0,0.0,0.0,0.0,0.0,0.0,0.0,0.0,0.0,0.0,0.361,0.361,0.36,0.359,0.359,0.359,0.359,0.359,0.359,0.359,0.359,0.359,0.359,0.359,0.359,0.358,0.358,0.358,0.358,0.358,0.358,0.358,0.358,0.357,0.357,0.357,0.357,0.357,0.357,0.356,0.356,0.356,0.356,0.356,0.356,0.356,0.357,0.357,0.357,0.357,0.357,0.357,0.357,0.357,0.357,0.357,0.357,0.357,0.357,0.357,0.357,0.357,0.357,0.358,0.358,0.358,0.358,0.358,0.358,0.358,0.358,0.358,0.358,0.359,0.358,0.359,0.359,0.359,0.359,0.359,0.359,0.359,0.359,0.359,0.359,0.36,0.36,0.361,0.361,0.361,0.361,0.361,0.36,0.36,0.359,0.359,0.359,0.359,0.35850000000000004,0.358,0.358,0.358,0.358,0.357,0.357,0.357,0.357,0.356,0.356,0.356,0.356,0.356,0.356,0.356,0.356,0.356,0.356,0.356,0.356,0.356,0.356,0.3565,0.357,0.358,0.358,0.359,0.359,0.36,0.361,0.362,0.362,0.363,0.363,0.363625,0.364,0.364,0.364,0.365,0.365,0.365,0.365,0.365,0.365,0.365,0.366,0.366,0.366,0.366,0.367,0.367,0.368,0.369,0.369,0.369,0.369,0.369,0.37,0.37,0.37,0.371,0.371,0.372,0.372,0.372,0.373,0.373,0.373,0.3735,0.374,0.375,0.376,0.377,0.377,0.377,0.378,0.379,0.38,0.381,0.381,0.381,0.381,0.381,0.381,0.381,0.381,0.0,0.0,0.0,0.0,0.391,0.3865,0.38425,0.382,0.382,0.382,0.382,0.383,0.384,0.38475,0.385,0.386,0.388,0.389,0.0,0.0,0.0,0.0,0.0,0.0,0.0,0.0,0.0,0.0,0.0,0.426,0.425,0.424,0.425,0.0,0.0,0.0,0.415,0.415,0.415,0.415,0.415,0.414,0.414,0.414,0.414,0.41462499999999997,0.415,0.416,0.416,0.417,0.41825,0.419,0.419,0.42,0.421,0.421,0.421,0.422,0.4235,0.0,0.0,0.0,0.0,0.0,0.0,0.0,0.0,0.0,0.0,0.0,0.0,0.0,0.0,0.0,0.0,0.0,0.0,0.0,0.0,0.0,0.0,0.0,0.0,0.0,0.0,0.0,0.0,0.0,0.0,0.0
3.78,3.755,3.743,3.731,3.707,3.707,3.696,3.696,3.707,3.743,3.743,3.755,3.767,3.78,3.792,3.792,3.804,3.804,3.817,3.817,3.817,3.829,3.842,3.855,0.0,0.0,0.0,0.0,0.0,0.0,0.0,0.0,0.0,0.0,0.0,0.0,0.0,0.0,0.0,0.0,0.0,0.0,0.0,0.0,0.0,0.0,0.0,0.574,0.575,0.575,0.576,0.577,0.578,0.578,0.579,0.579,0.579,0.579,0.58,0.581,0.581,0.582,0.583,0.586,0.5882499999999999,0.589,0.59175,0.593,0.594,0.592,0.591,0.59,0.589,0.587,0.584,0.582,0.5814999999999999,0.581,0.581,0.58,0.581,0.579,0.58,0.58,0.579,0.578,0.577,0.575,0.0,0.0,0.0,0.0,0.0,0.0,0.0,0.0,0.0,0.0,0.0,0.0,0.0,0.0,0.0,0.0,0.0,0.0,0.0,0.0,0.0,0.0,0.559,0.559,0.5587500000000001,0.559,0.558,0.5585,0.559,0.56,0.559,0.558,0.558,0.558,0.558,0.558,0.559,0.562,0.565,0.566,0.568,0.571,0.571,0.572,0.573,0.573,0.575,0.574,0.575,0.574,0.575,0.576,0.577,0.56,0.5609999999999999,0.5549999999999999,0.55025,0.542,0.541,0.54,0.542,0.54,0.538,0.5375000000000001,0.537,0.536,0.534,0.534,0.534,0.0,0.0,0.0,0.539,0.539,0.539,0.54,0.54,0.542,0.542,0.5415000000000001,0.541,0.54,0.539,0.539,0.539,0.538,0.538,0.538,0.538,0.538,0.538,0.537,0.537,0.535,0.535,0.534,0.533,0.533,0.533,0.532,0.531,0.532,0.532,0.532,0.532,0.531,0.531,0.53,0.529,0.528,0.527,0.525,0.524,0.523,0.522,0.522,0.522,0.522,0.52175,0.523,0.523,0.523,0.523,0.524,0.524,0.524,0.524,0.523,0.523,0.521,0.519,0.518,0.517,0.516,0.516,0.5145,0.5135000000000001,0.513,0.5125,0.51025,0.508,0.508,0.507,0.507,0.0,0.0,0.0,0.505,0.0,0.0,0.0,0.0,0.0,0.0,0.0,0.0,0.0,0.0,0.0,0.0,0.502,0.502,0.0,0.0,0.0,0.0,0.0,0.0,0.0,0.0,0.0,0.0,0.0,0.0,0.0,0.0,0.0,0.0,0.0,0.0,0.0,0.0,0.0,0.0,0.0,0.0,0.0,0.0,0.0,0.0,0.0,0.361,0.361,0.36,0.359,0.359,0.359,0.359,0.359,0.359,0.359,0.359,0.359,0.359,0.359,0.359,0.359,0.359,0.359,0.358,0.358,0.358,0.358,0.358,0.358,0.358,0.358,0.358,0.357,0.357,0.357,0.357,0.357,0.357,0.357,0.357,0.357,0.357,0.357,0.357,0.357,0.357,0.357,0.357,0.357,0.358,0.358,0.358,0.358,0.358,0.358,0.358,0.358,0.358,0.358,0.358,0.358,0.358,0.358,0.358,0.358,0.358,0.358,0.358,0.359,0.359,0.359,0.359,0.359,0.359,0.359,0.359,0.359,0.359,0.359,0.36,0.36,0.36,0.361,0.361,0.361,0.361,0.361,0.36,0.36,0.36,0.359,0.359,0.359,0.359,0.358,0.358,0.358,0.358,0.358,0.357,0.357,0.357,0.357,0.356,0.356,0.356,0.356,0.356,0.356,0.356,0.355,0.355,0.3554999999999999,0.356,0.356,0.356,0.3565,0.357,0.358,0.358,0.359,0.36,0.361,0.362,0.362,0.3625,0.363,0.3635,0.364,0.364,0.364,0.365,0.365,0.365,0.365,0.365,0.365,0.365,0.366,0.366,0.366,0.366,0.367,0.368,0.368,0.369,0.369,0.369,0.369,0.37,0.37,0.37,0.37,0.371,0.371,0.371,0.372,0.372,0.373,0.373,0.373,0.373,0.3735,0.374,0.375,0.376,0.377,0.377,0.378,0.378,0.38,0.38,0.381,0.381,0.381,0.0,0.0,0.0,0.0,0.3905,0.0,0.0,0.0,0.402,0.402,0.393,0.3918125,0.389,0.388,0.384,0.384,0.3845,0.385,0.386,0.387,0.389,0.391,0.39125,0.392,0.393,0.0,0.0,0.0,0.0,0.0,0.0,0.0,0.0,0.0,0.0,0.4185,0.418,0.4185,0.0,0.0,0.0,0.412,0.412,0.412,0.412,0.412,0.412,0.412,0.412,0.412,0.412,0.413,0.414,0.416,0.415,0.416,0.417,0.417,0.419,0.42,0.42,0.421,0.421,0.422,0.0,0.0,0.0,0.0,0.0,0.0,0.0,0.0,0.0,0.0,0.0,0.0,0.0,0.0,0.0,0.0,0.0,0.0,0.0,0.0,0.0,0.0,0.0,0.0,0.0,0.0,0.0,0.0,0.0,0.0,0.0
3.767,3.743,3.743,3.707,3.696,3.696,3.696,3.696,3.696,3.707,3.743,3.743,3.755,3.767,3.78,3.78,3.78,3.804,3.804,3.804,3.804,3.817,3.829,0.0,0.0,0.0,0.0,0.0,0.0,0.0,0.0,0.0,0.0,0.0,0.0,0.0,0.0,0.0,0.0,0.0,0.0,0.0,0.0,0.0,0.573,0.573,0.574,0.574,0.574,0.575,0.575,0.575,0.575,0.575,0.576,0.576,0.577,0.577,0.578,0.579,0.58,0.581,0.582,0.584,0.586,0.5874999999999999,0.589,0.591,0.589,0.5842499999999999,0.583,0.581,0.58,0.576,0.574,0.573,0.573,0.573,0.573,0.573,0.573,0.573,0.573,0.573,0.573,0.572,0.572,0.572,0.0,0.0,0.0,0.0,0.0,0.0,0.0,0.0,0.0,0.0,0.0,0.0,0.0,0.0,0.0,0.0,0.0,0.0,0.0,0.0,0.0,0.0,0.5515000000000001,0.5511250000000001,0.551,0.551,0.55,0.551,0.552,0.552,0.55,0.553,0.553,0.5535000000000001,0.554,0.555,0.555,0.5575000000000001,0.5595,0.560375,0.561,0.565,0.5674999999999999,0.57,0.571,0.573,0.573,0.573,0.573,0.573,0.0,0.0,0.0,0.547,0.547,0.544,0.542,0.539,0.538,0.536,0.534,0.533,0.0,0.5327500000000001,0.5316875000000001,0.531,0.531,0.5295000000000001,0.5295000000000001,0.0,0.0,0.0,0.0,0.0,0.0,0.0,0.0,0.535,0.0,0.0,0.0,0.535,0.534,0.533,0.533,0.533,0.534,0.533,0.533,0.532,0.531,0.531,0.531,0.531,0.53,0.53,0.529,0.529,0.529,0.528,0.528,0.527,0.527,0.528,0.528,0.527,0.526,0.525,0.524,0.523,0.521,0.519,0.517,0.517,0.516,0.516,0.516,0.517,0.517,0.518,0.519,0.521,0.522,0.522,0.5215,0.523,0.522,0.522,0.521,0.5165000000000001,0.515,0.514,0.511,0.51,0.509,0.508,0.507,0.507,0.507,0.506,0.505,0.505,0.505,0.505,0.0,0.0,0.504,0.503,0.0,0.0,0.0,0.0,0.0,0.0,0.0,0.0,0.0,0.0,0.0,0.0,0.0,0.0,0.0,0.0,0.0,0.0,0.0,0.0,0.0,0.0,0.0,0.0,0.0,0.0,0.0,0.0,0.0,0.0,0.0,0.0,0.0,0.0,0.0,0.0,0.0,0.0,0.0,0.0,0.0,0.0,0.0,0.0,0.36,0.36,0.359,0.359,0.359,0.359,0.359,0.359,0.359,0.36,0.36,0.36,0.36,0.36,0.359,0.359,0.359,0.359,0.359,0.359,0.358,0.358,0.358,0.358,0.358,0.358,0.358,0.358,0.358,0.358,0.358,0.357,0.357,0.357,0.357,0.358,0.358,0.358,0.358,0.358,0.358,0.358,0.358,0.358,0.358,0.358,0.358,0.358,0.358,0.358,0.358,0.358,0.358,0.358,0.358,0.358,0.358,0.358,0.358,0.358,0.359,0.359,0.359,0.359,0.359,0.359,0.359,0.359,0.359,0.359,0.359,0.359,0.359,0.36,0.36,0.36,0.36,0.361,0.361,0.361,0.361,0.361,0.36,0.36,0.36,0.359,0.359,0.359,0.359,0.358,0.358,0.358,0.358,0.358,0.357,0.357,0.357,0.357,0.356,0.356,0.356,0.356,0.355,0.355,0.355,0.355,0.355,0.355,0.356,0.356,0.356625,0.357,0.358,0.359,0.359,0.36,0.361,0.362,0.362,0.362625,0.363,0.363625,0.364,0.364,0.365,0.365,0.365,0.365,0.365,0.365,0.365,0.366,0.366,0.366,0.366,0.367,0.367,0.368,0.368,0.369,0.369,0.369,0.37,0.37,0.37,0.37,0.37,0.371,0.371,0.372,0.372,0.372,0.373,0.373,0.373,0.373,0.373625,0.374,0.375,0.376,0.377,0.377,0.378,0.379,0.38,0.381,0.381,0.381,0.3825,0.0,0.0,0.0,0.0,0.4,0.4,0.401,0.401,0.401,0.402,0.401,0.401,0.401,0.397,0.0,0.3925,0.392,0.39,0.389,0.39,0.0,0.0,0.393,0.394,0.395,0.397,0.0,0.0,0.0,0.0,0.0,0.0,0.0,0.0,0.0,0.412,0.412,0.412,0.411,0.41,0.411,0.411,0.411,0.411,0.411,0.411,0.41,0.411,0.411,0.411,0.411,0.411,0.411,0.411,0.412,0.412,0.412,0.413,0.41525,0.419,0.4195,0.42,0.42,0.0,0.0,0.0,0.0,0.0,0.0,0.0,0.0,0.0,0.0,0.0,0.0,0.0,0.0,0.0,0.0,0.0,0.0,0.0,0.0,0.0,0.0,0.0,0.0,0.0,0.0,0.0,0.0,0.0,0.0,0.0,0.0
3.755,3.743,3.731,3.696,3.696,3.696,3.696,3.696,3.696,3.707,3.731,3.743,3.743,3.755,3.755,3.767,3.767,3.78,3.78,3.804,3.792,3.804,0.0,0.0,0.0,0.0,0.0,0.0,0.0,0.0,0.0,0.0,0.0,0.0,0.0,0.0,0.0,0.0,0.0,0.0,0.0,0.0,0.571,0.572,0.573,0.573,0.573,0.574,0.574,0.574,0.574,0.575,0.575,0.575,0.575,0.575,0.576,0.577,0.577,0.579,0.58,0.581,0.582,0.583,0.584,0.586,0.0,0.0,0.0,0.573,0.572,0.57,0.569,0.568,0.567,0.567,0.567,0.567,0.567,0.567,0.568,0.567,0.568,0.568,0.567,0.567,0.568,0.5674999999999999,0.0,0.0,0.0,0.0,0.0,0.0,0.0,0.0,0.0,0.0,0.0,0.0,0.0,0.0,0.0,0.0,0.0,0.0,0.0,0.0,0.0,0.542,0.544,0.543,0.543,0.543,0.544,0.54525,0.546,0.546,0.547,0.5477500000000001,0.548,0.5481250000000001,0.548,0.549,0.551,0.553,0.554,0.555,0.556,0.0,0.0,0.564,0.569,0.572,0.573,0.573,0.573,0.0,0.0,0.0,0.0,0.536,0.538,0.536,0.533,0.532,0.531,0.531,0.5295000000000001,0.529,0.5285,0.528,0.526,0.525,0.5257499999999999,0.525,0.525,0.0,0.0,0.526,0.0,0.0,0.0,0.0,0.0,0.528,0.0,0.0,0.0,0.53,0.529,0.53,0.53,0.53,0.53,0.53,0.5285,0.5275000000000001,0.5265,0.5265,0.526125,0.525,0.524,0.524,0.524,0.524,0.524,0.524,0.524,0.524,0.524,0.524,0.523,0.521,0.5195000000000001,0.518625,0.518,0.517,0.516,0.516,0.515,0.515,0.515,0.515,0.515,0.515,0.515,0.515,0.516,0.517,0.517,0.517,0.517,0.517,0.516,0.516,0.51325,0.509,0.509,0.508,0.507,0.506,0.505,0.504,0.503,0.502,0.502,0.50225,0.502,0.502,0.502,0.502,0.502,0.503,0.503,0.502,0.0,0.0,0.0,0.0,0.0,0.0,0.0,0.0,0.0,0.0,0.0,0.0,0.0,0.0,0.0,0.0,0.0,0.0,0.0,0.0,0.0,0.0,0.0,0.0,0.0,0.0,0.0,0.0,0.0,0.0,0.0,0.0,0.0,0.0,0.0,0.0,0.0,0.0,0.0,0.0,0.0,0.0,0.0,0.0,0.0,0.0,0.0,0.359,0.359,0.359,0.359,0.36,0.36,0.36,0.36,0.36,0.36,0.36,0.36,0.359,0.359,0.359,0.359,0.359,0.359,0.359,0.359,0.359,0.358,0.358,0.358,0.358,0.358,0.358,0.358,0.358,0.358,0.358,0.358,0.358,0.358,0.358,0.358,0.358,0.358,0.358,0.358,0.358,0.358,0.358,0.358,0.358,0.358,0.358,0.358,0.358,0.358,0.358,0.358,0.358,0.358,0.358,0.359,0.359,0.359,0.359,0.359,0.359,0.359,0.359,0.359,0.359,0.359,0.359,0.359,0.359,0.359,0.36,0.36,0.36,0.36,0.361,0.361,0.361,0.361,0.361,0.36,0.36,0.36,0.36,0.359,0.359,0.359,0.359,0.358,0.358,0.358,0.358,0.358,0.358,0.357,0.357,0.357,0.357,0.356,0.356,0.355,0.355,0.355,0.355,0.355,0.355,0.356,0.3565,0.357,0.358,0.358,0.359,0.359,0.361,0.362,0.362,0.362,0.363,0.3635,0.364,0.364,0.364,0.365,0.365,0.365,0.365,0.365,0.365,0.366,0.366,0.366,0.366,0.366,0.367,0.368,0.368,0.369,0.369,0.369,0.37,0.37,0.37,0.37,0.37,0.371,0.371,0.372,0.372,0.372,0.373,0.373,0.373,0.373,0.3735,0.374,0.374,0.375,0.376,0.377,0.377,0.378,0.381,0.381,0.382,0.382,0.383,0.384,0.0,0.0,0.0,0.399,0.39949999999999997,0.4,0.4,0.4,0.4005,0.401,0.401,0.401,0.401,0.401,0.401,0.401,0.401,0.0,0.395,0.0,0.0,0.0,0.395,0.39625,0.398,0.398,0.0,0.0,0.401,0.0,0.0,0.0,0.403,0.40549999999999997,0.408,0.408,0.408,0.407,0.407,0.407,0.407,0.407,0.407,0.408,0.407,0.407,0.407,0.407,0.407,0.407,0.407,0.408,0.408,0.408,0.409,0.409,0.409,0.409,0.41,0.41,0.0,0.0,0.0,0.0,0.0,0.0,0.0,0.0,0.0,0.0,0.0,0.0,0.0,0.0,0.0,0.0,0.0,0.0,0.0,0.0,0.0,0.0,0.0,0.0,0.0,0.0,0.0,0.0,0.0,0.0,0.0,0.0,0.0,0.0,0.0
3.743,3.731,3.707,3.696,3.672,3.672,3.672,3.672,3.672,3.707,3.707,3.731,3.743,3.743,3.743,3.755,3.755,3.767,3.767,0.0,0.0,0.0,0.0,0.0,0.0,0.0,0.0,0.0,0.0,0.0,0.0,0.0,0.0,0.0,0.0,0.0,0.0,0.0,0.0,0.564,0.565,0.5654999999999999,0.566,0.568,0.571,0.572,0.573,0.573,0.573,0.573,0.574,0.574,0.574,0.574,0.574,0.574,0.574,0.575,0.575,0.577,0.577,0.577,0.0,0.0,0.0,0.0,0.0,0.0,0.0,0.0,0.5660000000000001,0.564,0.564,0.564,0.564,0.564,0.564,0.564,0.564,0.564,0.565,0.565,0.564,0.564,0.564,0.5625,0.563,0.563,0.562,0.0,0.0,0.0,0.0,0.0,0.0,0.0,0.0,0.0,0.0,0.0,0.0,0.0,0.0,0.534,0.536,0.537,0.538,0.539,0.539,0.539,0.539,0.539,0.539,0.539,0.539,0.54,0.54,0.541,0.542,0.543,0.544,0.543,0.5425000000000001,0.543,0.544,0.544,0.546,0.0,0.0,0.0,0.0,0.0,0.567,0.57,0.572,0.571,0.0,0.0,0.556,0.539,0.53,0.53,0.531,0.53,0.529,0.529,0.527,0.526,0.525,0.525,0.524,0.5235000000000001,0.523,0.523,0.522,0.522,0.522,0.522,0.522,0.522,0.522,0.522,0.522,0.522,0.522,0.522,0.523,0.523,0.524,0.524,0.524,0.524,0.524,0.524,0.525,0.525,0.524,0.523,0.522,0.522,0.522,0.522,0.522,0.52,0.52025,0.521,0.521,0.522,0.521,0.521,0.52,0.51725,0.516,0.515,0.513,0.512,0.512,0.512,0.511,0.51,0.51,0.51,0.5105000000000001,0.509,0.509,0.51,0.509,0.51,0.51,0.5105,0.511,0.513,0.511,0.511,0.509,0.507,0.507,0.506,0.504,0.503,0.502,0.502,0.502,0.502,0.501,0.5,0.499,0.499,0.499,0.499,0.499,0.49975,0.501,0.501,0.501,0.501,0.0,0.0,0.0,0.0,0.0,0.0,0.0,0.0,0.0,0.0,0.0,0.0,0.0,0.0,0.0,0.0,0.0,0.0,0.0,0.0,0.0,0.0,0.0,0.0,0.0,0.0,0.0,0.0,0.0,0.0,0.0,0.0,0.0,0.0,0.0,0.0,0.0,0.0,0.0,0.0,0.0,0.0,0.0,0.0,0.0,0.0,0.0,0.359,0.3595,0.36,0.36,0.36,0.3605,0.361,0.361,0.361,0.361,0.361,0.361,0.36,0.36,0.36,0.36,0.359,0.359,0.359,0.359,0.359,0.359,0.359,0.359,0.358,0.358,0.358,0.358,0.358,0.358,0.358,0.358,0.358,0.358,0.358,0.358,0.358,0.358,0.358,0.358,0.358,0.358,0.358,0.358,0.359,0.358,0.358,0.358,0.358,0.358,0.358,0.358,0.358,0.358,0.359,0.359,0.359,0.359,0.359,0.359,0.359,0.359,0.359,0.359,0.359,0.359,0.359,0.359,0.359,0.36,0.36,0.36,0.36,0.36,0.361,0.361,0.361,0.361,0.361,0.36,0.36,0.36,0.36,0.36,0.359,0.359,0.359,0.359,0.359,0.358,0.358,0.358,0.358,0.358,0.358,0.357,0.357,0.356,0.356,0.356,0.355,0.355,0.355,0.355,0.356,0.356,0.3565,0.357,0.358,0.358,0.359,0.36,0.361,0.362,0.362,0.3625,0.363,0.363625,0.364,0.364,0.365,0.365,0.365,0.365,0.365,0.365,0.365,0.366,0.366,0.366,0.366,0.367,0.367,0.368,0.369,0.369,0.369,0.369,0.37,0.37,0.37,0.37,0.371,0.371,0.371,0.372,0.372,0.373,0.373,0.373,0.373,0.373,0.3735,0.374,0.374,0.375,0.376,0.377,0.377,0.379,0.381,0.3825,0.384,0.385,0.386,0.0,0.0,0.0,0.0,0.398,0.399,0.399,0.399,0.4,0.4,0.401,0.4,0.401,0.401,0.4,0.4,0.4,0.401,0.401,0.401,0.4005,0.4,0.398,0.398,0.398,0.398,0.398,0.399,0.399,0.39975000000000005,0.4,0.402,0.402,0.402,0.402,0.402,0.402,0.404,0.405,0.406,0.405,0.406,0.406,0.406,0.406,0.406,0.405,0.405,0.405,0.405,0.405,0.405,0.405,0.405,0.404,0.404,0.405,0.405,0.404,0.403,0.402,0.0,0.0,0.0,0.0,0.0,0.0,0.0,0.0,0.0,0.0,0.0,0.0,0.0,0.0,0.0,0.0,0.0,0.0,0.0,0.0,0.0,0.0,0.0,0.0,0.0,0.0,0.0,0.0,0.0,0.0,0.0,0.0,0.0,0.0,0.0
3.743,3.731,3.707,3.696,3.696,3.672,3.672,3.672,3.672,3.696,3.707,3.731,3.731,3.743,3.743,3.743,3.743,0.0,0.0,0.0,0.0,0.0,0.0,0.0,0.0,0.0,0.0,0.0,0.0,0.0,0.0,0.0,0.0,0.0,0.0,0.0,0.0,0.557,0.559,0.561,0.563,0.564,0.565,0.566,0.567,0.57,0.571,0.571,0.572,0.572,0.573,0.573,0.573,0.572,0.572,0.571,0.572,0.573,0.571,0.571,0.569,0.0,0.0,0.0,0.0,0.0,0.0,0.0,0.0,0.0,0.56,0.561,0.56,0.56,0.0,0.0,0.562,0.561,0.561,0.561,0.5605,0.56,0.5595,0.559,0.557,0.556,0.556,0.555,0.553,0.0,0.0,0.0,0.0,0.0,0.538,0.5355000000000001,0.533,0.533,0.533,0.533,0.533,0.533,0.533,0.533,0.533,0.533,0.534,0.534,0.536,0.536,0.536,0.536,0.536,0.535,0.537,0.538,0.537,0.538,0.538,0.538,0.538,0.537,0.536,0.535,0.53725,0.538,0.538,0.0,0.0,0.0,0.0,0.0,0.0,0.0,0.0,0.5429999999999999,0.0,0.0,0.523,0.524,0.524,0.525,0.5245,0.524,0.524,0.524,0.524,0.524,0.523,0.523,0.522,0.521625,0.522,0.521,0.521,0.5205,0.52,0.519,0.519,0.519,0.519,0.517,0.518,0.517,0.5177499999999999,0.518,0.518,0.519,0.519,0.0,0.0,0.519,0.519,0.519,0.519,0.517,0.516,0.516,0.515,0.515,0.515,0.516,0.516,0.516,0.516,0.516,0.516,0.517,0.516,0.51425,0.512,0.509,0.509,0.508,0.507,0.507,0.507,0.507,0.507,0.507,0.507,0.507,0.508,0.507,0.507,0.507,0.507,0.505,0.0,0.0,0.0,0.504,0.499,0.503,0.5025,0.502,0.5015000000000001,0.5005,0.49987499999999996,0.5,0.498,0.497,0.496,0.496,0.495,0.49550000000000005,0.495,0.495,0.495,0.495,0.496,0.497,0.499,0.0,0.0,0.0,0.0,0.0,0.0,0.0,0.0,0.0,0.0,0.0,0.0,0.0,0.0,0.0,0.0,0.0,0.0,0.0,0.0,0.0,0.0,0.0,0.0,0.0,0.0,0.0,0.0,0.0,0.0,0.0,0.0,0.0,0.0,0.0,0.0,0.0,0.0,0.0,0.0,0.0,0.0,0.0,0.0,0.0,0.0,0.0,0.0,0.0,0.0,0.0,0.0,0.0,0.36,0.3605,0.361,0.361,0.361,0.362,0.362,0.362,0.362,0.361,0.361,0.361,0.36,0.36,0.36,0.359,0.359,0.359,0.359,0.359,0.359,0.359,0.359,0.359,0.358,0.358,0.359,0.358,0.358,0.358,0.358,0.358,0.359,0.359,0.359,0.359,0.359,0.359,0.359,0.359,0.359,0.359,0.359,0.359,0.359,0.359,0.359,0.359,0.359,0.359,0.359,0.359,0.359,0.359,0.359,0.359,0.359,0.359,0.359,0.359,0.359,0.36,0.36,0.36,0.359,0.36,0.36,0.36,0.36,0.36,0.361,0.361,0.361,0.361,0.361,0.361,0.361,0.361,0.36,0.36,0.36,0.36,0.359,0.359,0.359,0.359,0.359,0.359,0.359,0.358,0.358,0.358,0.358,0.357,0.358,0.357,0.356,0.356,0.355,0.355,0.355,0.356,0.356,0.356625,0.357,0.358,0.359,0.359,0.36,0.362,0.362,0.362,0.362625,0.363,0.364,0.364,0.364,0.365,0.365,0.365,0.365,0.365,0.366,0.366,0.366,0.366,0.366,0.366,0.367,0.368,0.369,0.369,0.369,0.369,0.37,0.37,0.37,0.371,0.371,0.371,0.371,0.372,0.372,0.3725,0.373,0.373,0.373,0.373,0.373,0.3735,0.374,0.374,0.375,0.376,0.377,0.0,0.0,0.381,0.3845,0.388,0.389,0.39,0.0,0.0,0.397,0.398,0.398,0.398,0.398,0.399,0.399,0.399,0.4,0.399,0.4,0.4,0.399,0.399,0.399,0.398,0.397,0.397,0.398,0.398,0.398,0.398,0.398,0.398,0.399,0.399,0.399,0.399,0.39949999999999997,0.4,0.401,0.401,0.401,0.40125,0.402,0.402,0.403,0.403,0.403,0.403,0.403,0.403,0.40275000000000005,0.402,0.402,0.402,0.402,0.401,0.402,0.402,0.401,0.4,0.399,0.399,0.398,0.39825,0.396,0.395,0.3975,0.0,0.0,0.0,0.0,0.0,0.0,0.0,0.0,0.0,0.0,0.0,0.0,0.0,0.0,0.0,0.0,0.0,0.0,0.0,0.0,0.0,0.0,0.0,0.0,0.0,0.0,0.0,0.0,0.0,0.0,0.0,0.0,0.0,0.0,0.0
3.743,3.731,3.707,3.696,3.672,3.672,3.672,3.672,3.672,3.672,3.696,3.731,3.707,3.731,0.0,0.0,0.0,0.0,0.0,0.0,0.0,0.0,0.0,0.0,0.0,0.0,0.0,0.0,0.0,0.0,0.0,0.0,0.0,0.0,0.0,0.0,0.0,0.555,0.556,0.557,0.559,0.562,0.563,0.564,0.565,0.565,0.565,0.566,0.566,0.567,0.567,0.566,0.566,0.565,0.565,0.565,0.565,0.564,0.0,0.0,0.0,0.0,0.0,0.0,0.0,0.0,0.0,0.0,0.0,0.0,0.556,0.556,0.556,0.556,0.0,0.0,0.557,0.556,0.556,0.556,0.556,0.555,0.555,0.554,0.552,0.0,0.0,0.547,0.0,0.0,0.0,0.0,0.0,0.0,0.531,0.531375,0.531,0.531,0.531,0.531,0.531,0.531,0.531,0.532,0.532,0.532,0.532,0.533,0.533,0.533,0.533,0.533,0.533,0.533,0.533,0.532,0.532,0.532,0.0,0.0,0.0,0.0,0.531,0.531,0.532,0.0,0.0,0.0,0.0,0.0,0.0,0.0,0.0,0.0,0.0,0.515,0.516,0.516,0.516,0.521,0.5185,0.5205,0.52025,0.52,0.52,0.52025,0.521,0.52,0.519,0.519,0.519,0.519,0.519,0.519,0.518,0.518,0.518,0.518,0.517,0.517,0.51675,0.516,0.516,0.514,0.514,0.514,0.514,0.5135000000000001,0.5135000000000001,0.0,0.0,0.5125,0.512625,0.513,0.511,0.51,0.5095000000000001,0.51,0.51,0.509,0.51,0.511,0.511,0.5125,0.514,0.514,0.51325,0.514,0.511,0.508,0.506,0.504,0.503,0.502,0.501,0.502,0.502,0.502,0.502,0.502,0.502,0.502,0.502,0.502,0.502,0.501,0.5,0.5,0.0,0.0,0.0,0.495,0.495,0.495,0.49587499999999995,0.496,0.496,0.495,0.495,0.49550000000000005,0.495,0.494,0.494,0.493,0.493,0.492,0.492,0.492,0.493,0.494,0.495,0.495,0.496,0.0,0.0,0.0,0.0,0.0,0.0,0.0,0.0,0.0,0.0,0.0,0.0,0.0,0.0,0.0,0.0,0.0,0.0,0.0,0.0,0.0,0.0,0.0,0.0,0.0,0.0,0.0,0.0,0.0,0.0,0.475,0.0,0.0,0.0,0.0,0.465,0.464,0.0,0.0,0.0,0.0,0.0,0.0,0.0,0.0,0.0,0.0,0.0,0.0,0.0,0.0,0.0,0.0,0.0,0.0,0.0,0.362,0.362,0.362,0.362,0.362,0.362,0.362,0.362,0.361,0.361,0.361,0.36,0.36,0.36,0.36,0.359,0.359,0.359,0.359,0.359,0.359,0.359,0.359,0.359,0.359,0.359,0.359,0.359,0.359,0.359,0.359,0.359,0.359,0.359,0.359,0.359,0.359,0.359,0.359,0.359,0.359,0.359,0.359,0.359,0.359,0.359,0.359,0.359,0.359,0.359,0.359,0.359,0.359,0.359,0.359,0.36,0.36,0.36,0.36,0.36,0.36,0.36,0.36,0.36,0.36,0.36,0.361,0.361,0.361,0.361,0.361,0.361,0.361,0.361,0.361,0.36,0.36,0.361,0.36,0.36,0.36,0.36,0.359,0.359,0.359,0.359,0.359,0.359,0.358,0.358,0.358,0.358,0.357,0.357,0.356,0.356,0.356,0.356,0.356,0.357,0.357,0.358,0.359,0.359,0.36,0.361,0.362,0.362,0.3625,0.363,0.364,0.364,0.364,0.365,0.365,0.365,0.365,0.366,0.366,0.366,0.366,0.366,0.366,0.366,0.367,0.367,0.368,0.369,0.369,0.369,0.37,0.37,0.37,0.37,0.371,0.371,0.371,0.371,0.372,0.372,0.37262500000000004,0.373,0.373,0.373,0.373,0.373,0.3735,0.374,0.374,0.375,0.376,0.0,0.0,0.0,0.0,0.38925,0.392,0.393,0.394,0.3955,0.397,0.397,0.397,0.398,0.398,0.398,0.398,0.399,0.399,0.399,0.399,0.399,0.399,0.399,0.399,0.399,0.398,0.398,0.398,0.398,0.398,0.398,0.398,0.398,0.399,0.399,0.399,0.399,0.399,0.399,0.4,0.4,0.4,0.4,0.4,0.40025000000000005,0.401,0.40125,0.402,0.401,0.401,0.401,0.401,0.4,0.4,0.399,0.399,0.399,0.399,0.398,0.398,0.398,0.397,0.397,0.395,0.394,0.394,0.393,0.393,0.393,0.0,0.0,0.0,0.0,0.0,0.0,0.0,0.0,0.0,0.0,0.0,0.0,0.0,0.0,0.0,0.0,0.0,0.0,0.0,0.0,0.0,0.0,0.0,0.0,0.0,0.0,0.0,0.0,0.0,0.0,0.0,0.0,0.0,0.0,0.0
3.743,3.731,3.707,3.696,3.696,3.672,3.672,3.661,3.661,3.672,0.0,0.0,0.0,0.0,0.0,0.0,0.0,0.0,0.0,0.0,0.0,0.0,0.0,0.0,0.0,0.0,0.0,0.0,0.0,0.0,0.0,0.0,0.0,0.549,0.55,0.551,0.553,0.555,0.555,0.556,0.557,0.558,0.5595,0.560375,0.561,0.562,0.563,0.563,0.563,0.0,0.0,0.5609999999999999,0.562,0.561,0.0,0.5595,0.5585,0.0,0.0,0.0,0.0,0.0,0.0,0.0,0.0,0.0,0.0,0.0,0.548,0.549,0.55,0.551,0.553,0.553,0.554,0.554,0.554,0.553,0.552,0.551,0.549,0.548,0.547,0.547,0.546,0.0,0.0,0.539,0.0,0.0,0.0,0.0,0.0,0.0,0.529,0.528,0.529,0.529,0.529,0.529,0.529,0.53,0.531,0.531,0.531,0.531,0.5315000000000001,0.532,0.532,0.531,0.531,0.531,0.531,0.531,0.531,0.53,0.529,0.0,0.0,0.0,0.0,0.0,0.527,0.526,0.526,0.0,0.0,0.0,0.0,0.0,0.0,0.0,0.509,0.51,0.511,0.5115000000000001,0.512,0.51225,0.513,0.513,0.513,0.516,0.516,0.516,0.516,0.516,0.516,0.516,0.517,0.517,0.516,0.517,0.518,0.517,0.517,0.5167499999999999,0.517,0.516,0.516,0.516,0.515,0.514,0.512,0.51,0.509,0.509,0.509,0.508,0.508,0.507,0.5065,0.506,0.506,0.504,0.504,0.504,0.503,0.504,0.506,0.507,0.508,0.508,0.50825,0.509,0.509,0.5097499999999999,0.509,0.508,0.5065,0.502,0.50125,0.501,0.497,0.496,0.497,0.498,0.498,0.4975,0.49712500000000004,0.497,0.496,0.496,0.496,0.496,0.495,0.495,0.494,0.494,0.495,0.494,0.49,0.489,0.4915,0.491125,0.49,0.492,0.492,0.493,0.493,0.492,0.489,0.489,0.488,0.488,0.488,0.488,0.488,0.488,0.49,0.0,0.0,0.0,0.0,0.0,0.0,0.0,0.0,0.0,0.0,0.0,0.0,0.0,0.0,0.0,0.0,0.0,0.0,0.0,0.0,0.0,0.0,0.0,0.0,0.0,0.0,0.0,0.0,0.0,0.0,0.0,0.0,0.47,0.47,0.469,0.0,0.0,0.0,0.0,0.461,0.458,0.0,0.0,0.0,0.0,0.448,0.447,0.447,0.0,0.0,0.0,0.0,0.0,0.0,0.0,0.0,0.0,0.0,0.0,0.0,0.0,0.0,0.0,0.3625,0.36212500000000003,0.362,0.362,0.362,0.362,0.362,0.362,0.361,0.36,0.36,0.36,0.36,0.36,0.36,0.36,0.359,0.359,0.359,0.359,0.359,0.359,0.359,0.359,0.359,0.359,0.359,0.359,0.359,0.359,0.359,0.359,0.359,0.36,0.36,0.36,0.36,0.36,0.36,0.36,0.359,0.359,0.359,0.359,0.359,0.359,0.359,0.359,0.36,0.36,0.36,0.36,0.36,0.36,0.36,0.36,0.36,0.36,0.36,0.36,0.36,0.361,0.361,0.361,0.361,0.361,0.361,0.361,0.361,0.361,0.361,0.361,0.361,0.361,0.361,0.361,0.361,0.36,0.36,0.36,0.36,0.36,0.359,0.36,0.359,0.359,0.359,0.358,0.358,0.358,0.358,0.357,0.357,0.357,0.357,0.357,0.358,0.358,0.359,0.359,0.36,0.361,0.362,0.362,0.3625,0.363,0.363,0.364,0.365,0.365,0.365,0.365,0.366,0.366,0.366,0.366,0.366,0.366,0.366,0.366,0.367,0.367,0.368,0.369,0.369,0.369,0.37,0.37,0.37,0.37,0.371,0.371,0.371,0.372,0.372,0.372,0.372,0.373,0.373,0.373,0.373,0.373,0.373,0.373625,0.374,0.0,0.0,0.0,0.0,0.0,0.0,0.0,0.394,0.394,0.394,0.395,0.395625,0.395,0.39625000000000005,0.397,0.397,0.398,0.398,0.398,0.398,0.398,0.398,0.398,0.398,0.398,0.398,0.398,0.398,0.398,0.398,0.398,0.398,0.398,0.398,0.398,0.398,0.399,0.398,0.398,0.398,0.398,0.398,0.398,0.398,0.398,0.398,0.398,0.398,0.398,0.399,0.39875000000000005,0.398,0.398,0.398,0.398,0.398,0.398,0.398,0.397,0.397,0.397,0.396,0.395,0.394,0.394,0.394,0.393,0.393,0.392,0.392,0.392,0.391,0.0,0.0,0.0,0.0,0.0,0.0,0.0,0.0,0.0,0.0,0.0,0.0,0.0,0.0,0.0,0.0,0.0,0.0,0.0,0.0,0.0,0.0,0.0,0.0,0.0,0.0,0.0,0.0,0.0,0.0,0.0,0.0,0.0,0.0,0.0
3.743,3.731,3.707,3.707,3.696,3.696,3.672,3.696,0.0,0.0,0.0,0.0,0.0,0.0,0.0,0.0,0.0,0.0,0.0,0.0,0.0,0.0,0.0,0.0,0.0,0.0,0.0,0.0,0.0,0.0,0.544,0.546,0.547,0.547,0.549,0.5495000000000001,0.551,0.553,0.554,0.555,0.555,0.556,0.556,0.557,0.556,0.557,0.556,0.556,0.0,0.0,0.0,0.556,0.555,0.5545,0.55425,0.554,0.552,0.0,0.0,0.0,0.0,0.541,0.54,0.54,0.0,0.0,0.544,0.545,0.546,0.547,0.547,0.54825,0.548,0.549,0.549,0.549,0.549,0.548,0.548,0.547,0.547,0.545,0.543,0.542,0.54,0.539,0.538,0.53525,0.533,0.532,0.527,0.0,0.0,0.526,0.525,0.525,0.526,0.526,0.526,0.527,0.527,0.529,0.529,0.53,0.52925,0.531,0.531,0.531,0.531,0.53,0.53,0.529,0.528,0.527,0.526,0.526,0.524,0.0,0.0,0.522,0.522,0.522,0.522,0.522,0.522,0.0,0.0,0.0,0.0,0.0,0.0,0.0,0.505,0.507,0.508,0.508,0.508,0.508,0.508,0.508,0.508,0.508,0.508,0.512,0.513,0.514,0.514,0.515,0.515,0.515,0.515,0.5142500000000001,0.515,0.515,0.515,0.515,0.514,0.513,0.512,0.511,0.51,0.509,0.508,0.505,0.504,0.503,0.502,0.502,0.501,0.501,0.5,0.5,0.501,0.5,0.5,0.0,0.4995,0.5,0.502,0.502,0.503,0.503,0.505,0.506,0.506,0.507,0.506,0.504,0.502,0.496,0.496,0.495,0.495,0.494,0.494,0.494,0.494,0.493,0.492,0.492,0.492,0.492,0.492,0.491,0.49,0.489,0.489,0.489,0.489,0.488,0.487,0.487,0.488,0.488,0.48749999999999993,0.489,0.489,0.489,0.4875,0.487,0.48575,0.485,0.485,0.483,0.483,0.483,0.484,0.48524999999999996,0.487,0.0,0.0,0.0,0.0,0.0,0.0,0.0,0.0,0.0,0.0,0.0,0.0,0.0,0.0,0.0,0.0,0.0,0.0,0.0,0.0,0.0,0.0,0.0,0.0,0.0,0.0,0.46,0.0,0.0,0.467,0.4665,0.466,0.466,0.465,0.464,0.0,0.0,0.0,0.453,0.452,0.452,0.0,0.0,0.0,0.0,0.447,0.447,0.446,0.0,0.0,0.0,0.446,0.446,0.0,0.0,0.0,0.0,0.0,0.0,0.0,0.0,0.0,0.0,0.363,0.362,0.362,0.362,0.362,0.362,0.362,0.362,0.362,0.361,0.361,0.361,0.361,0.36,0.36,0.36,0.36,0.36,0.359,0.36,0.36,0.36,0.36,0.36,0.359,0.36,0.36,0.36,0.36,0.36,0.36,0.36,0.36,0.361,0.361,0.361,0.361,0.361,0.361,0.36,0.36,0.36,0.36,0.36,0.36,0.36,0.36,0.36,0.36,0.36,0.36,0.36,0.361,0.361,0.361,0.361,0.361,0.361,0.36,0.36,0.361,0.361,0.361,0.361,0.361,0.361,0.361,0.361,0.361,0.361,0.361,0.361,0.361,0.361,0.361,0.361,0.361,0.361,0.361,0.361,0.361,0.361,0.361,0.361,0.36,0.36,0.359,0.359,0.359,0.358,0.358,0.358,0.358,0.358,0.358,0.358,0.3585,0.359,0.359,0.36,0.361,0.362,0.362,0.3625,0.363,0.363,0.364,0.365,0.365,0.365,0.366,0.366,0.366,0.366,0.366,0.366,0.366,0.366,0.367,0.367,0.368,0.368,0.369,0.369,0.369,0.369,0.37,0.37,0.37,0.37,0.371,0.371,0.371,0.372,0.372,0.372,0.3725,0.373,0.373,0.373,0.373,0.373,0.3735,0.374,0.374,0.0,0.0,0.0,0.0,0.0,0.0,0.397,0.397,0.397,0.397,0.396,0.397,0.396,0.396,0.397,0.397,0.397,0.397,0.398,0.398,0.398,0.398,0.398,0.398,0.397,0.39725000000000005,0.397,0.397,0.397,0.397,0.398,0.398,0.398,0.398,0.398,0.398,0.398,0.398,0.398,0.398,0.397,0.397,0.397,0.397,0.397,0.396,0.397,0.396,0.396,0.396,0.396,0.396,0.396,0.396,0.396,0.396,0.395,0.395,0.395,0.394,0.394,0.393,0.393,0.392,0.391,0.391,0.39,0.389,0.389,0.389,0.389,0.0,0.0,0.0,0.0,0.0,0.0,0.0,0.0,0.0,0.0,0.0,0.0,0.0,0.0,0.0,0.0,0.0,0.0,0.0,0.0,0.0,0.0,0.0,0.0,0.0,0.0,0.0,0.0,0.0,0.0,0.0,0.0,0.0,0.0,0.0,0.0
3.731,3.731,3.731,3.707,3.707,0.0,0.0,0.0,0.0,0.0,0.0,0.0,0.0,0.0,0.0,0.0,0.0,0.0,0.0,0.0,0.0,0.0,0.0,0.0,0.0,0.0,0.0,0.0,0.0,0.542,0.543,0.544,0.546,0.547,0.547,0.547,0.548,0.549,0.55,0.55,0.551,0.552,0.553,0.553,0.553,0.553,0.5515000000000001,0.5515000000000001,0.5517500000000001,0.552,0.551,0.55,0.5485,0.548,0.548,0.547,0.546,0.544,0.542,0.54,0.54,0.54,0.539,0.539,0.54,0.541,0.542,0.543,0.544,0.546,0.546,0.547,0.547,0.548,0.548,0.547,0.547,0.547,0.547,0.546,0.544,0.541,0.5402500000000001,0.538,0.537,0.535,0.533,0.531,0.53,0.525,0.523,0.523,0.523,0.523,0.5225000000000001,0.523,0.523,0.52325,0.524,0.524,0.524,0.524,0.525,0.525,0.525,0.526,0.526,0.526,0.526,0.525,0.524,0.523,0.523,0.523,0.523,0.519,0.519,0.518,0.518,0.517,0.51725,0.517,0.516,0.516,0.516,0.0,0.0,0.0,0.0,0.0,0.0,0.0,0.503,0.503,0.503,0.503,0.504,0.504,0.504,0.504,0.504,0.504,0.504,0.505,0.506,0.507,0.509,0.509,0.509,0.51,0.51,0.51,0.51,0.51,0.509,0.509,0.509,0.509,0.508,0.507,0.504,0.502,0.502,0.50075,0.5,0.498,0.496,0.495,0.495,0.495,0.495,0.495,0.495,0.495,0.495,0.4955,0.496,0.496,0.497,0.498,0.5,0.5,0.502,0.502,0.0,0.0,0.0,0.499,0.495,0.494,0.492,0.49,0.49,0.489,0.489,0.489,0.489,0.489,0.488,0.488,0.4875,0.487625,0.488,0.48649999999999993,0.485,0.485,0.484,0.485,0.484,0.483,0.482,0.482,0.483,0.484,0.483,0.483,0.483,0.483,0.482,0.482,0.482,0.482,0.481,0.482,0.481,0.481,0.482,0.482,0.482,0.0,0.0,0.0,0.0,0.0,0.0,0.0,0.0,0.0,0.0,0.0,0.0,0.0,0.0,0.0,0.0,0.0,0.0,0.0,0.0,0.0,0.0,0.0,0.0,0.458,0.4585,0.459,0.46,0.46,0.461,0.459,0.458,0.458,0.458,0.457,0.455,0.452,0.452,0.452,0.451,0.451,0.451,0.449,0.448,0.447,0.446,0.446,0.446,0.446,0.446,0.446,0.446,0.446,0.446,0.446,0.444,0.0,0.0,0.0,0.0,0.0,0.0,0.0,0.0,0.3625,0.363,0.363,0.362,0.362,0.362,0.362,0.362,0.362,0.362,0.361,0.361,0.361,0.361,0.361,0.36,0.36,0.36,0.36,0.36,0.36,0.36,0.36,0.36,0.36,0.361,0.361,0.361,0.361,0.361,0.361,0.361,0.361,0.361,0.361,0.361,0.361,0.361,0.361,0.361,0.361,0.361,0.361,0.36,0.36,0.36,0.36,0.36,0.36,0.361,0.361,0.361,0.361,0.361,0.361,0.361,0.361,0.361,0.361,0.361,0.361,0.361,0.361,0.361,0.361,0.361,0.361,0.361,0.361,0.361,0.361,0.361,0.361,0.361,0.361,0.361,0.361,0.362,0.362,0.362,0.362,0.361,0.361,0.361,0.36,0.36,0.359,0.359,0.359,0.359,0.359,0.358,0.358,0.358,0.359,0.359,0.36,0.36,0.361,0.362,0.362,0.3625,0.363,0.363,0.364,0.365,0.365,0.365,0.366,0.366,0.366,0.366,0.366,0.366,0.367,0.367,0.367,0.367,0.368,0.368,0.368,0.369,0.369,0.369,0.369,0.37,0.37,0.37,0.371,0.371,0.371,0.372,0.372,0.372,0.372,0.37262500000000004,0.373,0.373,0.373,0.373,0.373,0.0,0.0,0.0,0.0,0.0,0.0,0.0,0.0,0.397,0.397,0.397,0.397,0.397,0.396,0.396,0.396,0.396,0.396,0.396,0.397,0.397,0.397,0.397,0.397,0.397,0.397,0.397,0.397,0.397,0.396,0.396,0.396,0.396,0.397,0.397,0.397,0.397,0.397,0.397,0.397,0.397,0.397,0.397,0.396,0.395,0.394,0.394,0.394,0.393,0.393,0.393,0.393,0.393,0.393,0.393,0.393,0.393,0.393,0.393,0.393,0.393,0.393,0.392,0.391,0.39,0.389,0.389,0.388,0.388,0.388,0.388,0.388,0.388,0.388,0.0,0.0,0.0,0.0,0.0,0.0,0.0,0.0,0.0,0.0,0.0,0.0,0.0,0.0,0.0,0.0,0.0,0.0,0.0,0.0,0.0,0.0,0.0,0.0,0.0,0.0,0.0,0.0,0.0,0.0,0.0,0.0,0.0,0.0,0.0,0.0
3.731,3.731,0.0,0.0,0.0,0.0,0.0,0.0,0.0,0.0,0.0,0.0,0.0,0.0,0.0,0.0,0.0,0.0,0.0,0.0,0.0,0.0,0.0,0.0,0.0,0.535,0.537,0.538,0.539,0.54,0.541,0.542,0.543,0.543,0.544,0.544,0.546,0.546,0.546,0.547,0.547,0.547,0.548,0.547,0.547,0.547,0.547,0.547,0.547,0.547,0.546,0.544,0.541,0.541,0.54,0.539,0.538,0.538,0.538,0.538,0.539,0.539,0.539,0.539,0.539,0.54,0.541,0.542,0.543,0.544,0.545,0.546,0.547,0.547,0.547,0.547,0.547,0.546,0.546,0.544,0.542,0.54,0.539,0.537,0.535,0.533,0.531,0.526,0.524,0.522,0.5205,0.519,0.519,0.519,0.519,0.519,0.519,0.52,0.52,0.521,0.522,0.521,0.522,0.522,0.522,0.523,0.5215000000000001,0.5222500000000001,0.523,0.522,0.522,0.52,0.519,0.517,0.516,0.515,0.514,0.514,0.514,0.513,0.513,0.513,0.514,0.5125,0.0,0.0,0.0,0.0,0.0,0.0,0.0,0.0,0.501,0.5015000000000001,0.502,0.502,0.502,0.502,0.503,0.503,0.503,0.503,0.503,0.503,0.503,0.5042500000000001,0.507,0.0,0.0,0.0,0.0,0.0,0.506,0.0,0.0,0.5045,0.0,0.0,0.0,0.5015000000000001,0.5,0.498,0.49724999999999997,0.496,0.495,0.493,0.493,0.49224999999999997,0.492,0.492,0.491,0.491,0.491,0.491,0.493,0.493,0.493,0.0,0.0,0.0,0.0,0.0,0.0,0.0,0.0,0.0,0.0,0.0,0.0,0.488,0.487,0.486,0.485,0.48524999999999996,0.485,0.485,0.485,0.0,0.0,0.4825,0.483,0.483,0.482,0.482,0.481,0.481,0.481,0.481,0.481,0.48,0.479,0.479,0.48,0.48,0.481,0.48,0.48,0.48,0.48,0.48,0.478,0.478,0.477,0.477,0.477,0.478,0.47774999999999995,0.478,0.0,0.0,0.0,0.0,0.0,0.0,0.0,0.0,0.0,0.0,0.0,0.0,0.0,0.0,0.0,0.0,0.0,0.0,0.0,0.0,0.0,0.0,0.456,0.457,0.457,0.457,0.457,0.458,0.458,0.458,0.458,0.457,0.457,0.456,0.454,0.453,0.452,0.452,0.451,0.451,0.45,0.45,0.449,0.448,0.447,0.4465,0.445375,0.445,0.445,0.445,0.445,0.445,0.445,0.445,0.445,0.445,0.444,0.0,0.0,0.0,0.0,0.0,0.0,0.0,0.0,0.363,0.363,0.363,0.363,0.362,0.362,0.362,0.362,0.362,0.362,0.362,0.361,0.361,0.361,0.361,0.361,0.361,0.36,0.36,0.36,0.36,0.361,0.361,0.361,0.361,0.361,0.361,0.36150000000000004,0.362,0.362,0.362,0.362,0.362,0.362,0.362,0.362,0.362,0.362,0.362,0.362,0.362,0.361,0.361,0.361,0.361,0.361,0.361,0.361,0.361,0.361,0.361,0.361,0.361,0.361,0.361,0.361,0.361,0.361,0.361,0.361,0.361,0.361,0.361,0.361,0.361,0.361,0.361,0.362,0.361,0.362,0.362,0.362,0.362,0.362,0.362,0.362,0.362,0.362,0.362,0.362,0.362,0.362,0.362,0.362,0.361,0.361,0.36,0.36,0.359,0.359,0.359,0.359,0.359,0.359,0.36,0.36,0.361,0.362,0.362,0.362,0.3625,0.363,0.363,0.364,0.365,0.365,0.365,0.366,0.366,0.366,0.366,0.366,0.367,0.367,0.367,0.367,0.368,0.368,0.368,0.369,0.369,0.369,0.369,0.369,0.37,0.37,0.37,0.371,0.371,0.371,0.372,0.372,0.372,0.3725,0.373,0.373,0.373,0.373,0.373,0.373,0.0,0.0,0.0,0.0,0.0,0.0,0.397,0.397,0.397,0.397,0.397,0.397,0.396,0.396,0.396,0.396,0.396,0.395,0.395,0.395,0.395,0.395,0.395,0.396,0.395,0.395,0.395,0.395,0.396,0.395,0.395,0.395,0.395,0.395,0.395,0.395,0.395,0.394,0.394,0.394,0.394,0.394,0.394,0.394,0.393,0.393,0.392,0.392,0.392,0.39125,0.391,0.391,0.391,0.391,0.391,0.392,0.392,0.392,0.392,0.392,0.391,0.391,0.39,0.389,0.388,0.388,0.387,0.386,0.386,0.386,0.386,0.386,0.386,0.386,0.386,0.0,0.0,0.0,0.0,0.0,0.0,0.0,0.0,0.0,0.0,0.0,0.0,0.0,0.0,0.0,0.0,0.0,0.0,0.0,0.0,0.0,0.0,0.0,0.0,0.0,0.0,0.0,0.0,0.0,0.0,0.0,0.0,0.0,0.0,0.0,0.0
0.0,0.0,0.0,0.0,0.0,0.0,0.0,0.0,0.0,0.0,0.0,0.0,0.0,0.0,0.0,0.0,0.0,0.0,0.0,0.0,0.0,0.0,0.532,0.532,0.533,0.5335000000000001,0.534,0.535,0.537,0.538,0.539,0.539,0.539,0.54,0.54,0.541,0.541,0.541,0.541,0.541,0.542,0.542,0.542,0.54,0.539,0.539,0.54,0.539,0.5385,0.537,0.536,0.535,0.536,0.536,0.535,0.534,0.534,0.536,0.537,0.538,0.538,0.538,0.538,0.539,0.539,0.539,0.54,0.54,0.541,0.542,0.543,0.546,0.546,0.5465,0.547,0.547,0.546,0.545,0.544,0.54,0.537,0.536,0.536,0.535,0.533,0.532,0.531,0.529,0.52,0.518,0.517,0.516,0.51625,0.516,0.516,0.516,0.516,0.516,0.517,0.517,0.517,0.517,0.516,0.517,0.0,0.0,0.517,0.5160625,0.516,0.515,0.0,0.512,0.514,0.513,0.511,0.509,0.509,0.509,0.509,0.509,0.509,0.51,0.50925,0.509,0.0,0.0,0.0,0.495,0.495,0.496,0.497,0.498,0.499,0.5,0.5,0.501,0.5,0.501,0.501,0.501,0.501,0.501,0.501,0.502,0.5,0.5,0.499,0.0,0.0,0.0,0.0,0.0,0.502,0.0,0.0,0.5,0.0,0.0,0.0,0.496,0.49474999999999997,0.494,0.493,0.492,0.49,0.489,0.489,0.489,0.489,0.489,0.489,0.489,0.489,0.489,0.49,0.4905,0.491,0.0,0.0,0.0,0.0,0.0,0.0,0.0,0.0,0.0,0.0,0.0,0.0,0.0,0.0,0.0,0.482,0.482,0.482,0.482,0.481,0.0,0.0,0.477,0.477,0.477,0.477,0.477,0.476,0.477,0.476,0.476,0.476,0.476,0.476,0.475,0.475,0.475,0.0,0.0,0.0,0.0,0.4755,0.475,0.475,0.474,0.474,0.474,0.474,0.474,0.473,0.471,0.0,0.0,0.0,0.0,0.0,0.0,0.0,0.0,0.0,0.0,0.0,0.0,0.0,0.0,0.0,0.0,0.0,0.0,0.452,0.452,0.453,0.454,0.455,0.455,0.456,0.456,0.455,0.456,0.456,0.456,0.455,0.454,0.452,0.452,0.452,0.451,0.451,0.45,0.448,0.448,0.447,0.4475,0.447,0.446,0.446,0.446,0.444,0.444,0.444,0.444,0.444,0.444,0.444,0.444,0.444,0.443,0.442,0.442,0.441,0.441,0.439,0.4375,0.436,0.436,0.0,0.399,0.0,0.0,0.0,0.0,0.0,0.0,0.362,0.362,0.362,0.362,0.362,0.362,0.361,0.361,0.361,0.361,0.361,0.361,0.361,0.361,0.361,0.361,0.361,0.361,0.36150000000000004,0.362,0.362,0.362,0.362,0.362,0.362,0.362,0.362,0.362,0.362,0.362,0.362,0.362,0.362,0.362,0.362,0.362,0.362,0.361,0.361,0.361,0.361,0.361,0.361,0.361,0.361,0.361,0.361,0.361,0.361,0.361,0.361,0.361,0.361,0.361,0.361,0.362,0.362,0.362,0.362,0.362,0.362,0.362,0.362,0.362,0.362,0.362,0.362,0.362,0.362,0.362,0.362,0.362,0.362,0.362,0.362,0.362,0.362,0.362,0.361,0.361,0.361,0.361,0.36,0.36,0.36,0.361,0.361,0.361,0.362,0.362,0.362,0.362,0.3625,0.363,0.363,0.364,0.365,0.365,0.365,0.366,0.366,0.366,0.366,0.367,0.367,0.367,0.368,0.368,0.368,0.369,0.369,0.369,0.369,0.369,0.369,0.37,0.37,0.37,0.371,0.371,0.371,0.372,0.372,0.3725,0.373,0.373,0.373,0.373,0.373,0.374,0.373,0.0,0.0,0.0,0.0,0.0,0.0,0.0,0.395,0.396,0.396,0.396,0.397,0.396,0.396,0.396,0.395,0.394,0.394,0.394,0.394,0.394,0.394,0.394,0.394,0.394,0.394,0.394,0.394,0.394,0.394,0.394,0.394,0.394,0.394,0.394,0.393,0.393,0.393,0.393,0.393,0.393,0.392,0.392,0.392,0.392,0.391,0.391,0.39,0.39,0.39,0.389,0.389,0.389,0.389,0.389,0.389,0.389,0.389,0.3895,0.389,0.389,0.389,0.389,0.388,0.388,0.386,0.386,0.386,0.385,0.385,0.385,0.385,0.385,0.385,0.385,0.385,0.385,0.0,0.0,0.0,0.0,0.0,0.0,0.0,0.0,0.0,0.0,0.0,0.0,0.0,0.0,0.0,0.0,0.0,0.0,0.0,0.0,0.0,0.0,0.0,0.0,0.0,0.0,0.0,0.0,0.0,0.0,0.0,0.0,0.0,0.0,0.0,0.0
0.0,0.0,0.0,0.0,0.0,0.0,0.0,0.0,0.0,0.0,0.0,0.0,0.0,0.0,0.0,0.0,0.0,0.0,0.0,0.0,0.53,0.53,0.531,0.531,0.531,0.532,0.532,0.533,0.534,0.5345,0.535,0.536,0.537,0.538,0.538,0.538,0.538,0.538,0.5377500000000001,0.539,0.538,0.538,0.537,0.535,0.534,0.534,0.533,0.532,0.531,0.531,0.531,0.532,0.532,0.532,0.532,0.533,0.533,0.535,0.536,0.538,0.538,0.538,0.538,0.538,0.539,0.539,0.539,0.539,0.54,0.541,0.542,0.542,0.527,0.5277499999999999,0.0,0.0,0.0,0.54,0.535,0.533,0.533,0.533,0.534,0.531,0.531,0.524,0.52,0.519,0.516,0.514,0.513,0.5129999999999999,0.514,0.514,0.514,0.515,0.515,0.515,0.515,0.515,0.515,0.514,0.513,0.511,0.0,0.0,0.509,0.509,0.5085,0.508,0.506,0.504,0.504,0.507,0.507,0.507,0.0,0.5055000000000001,0.506,0.506,0.506,0.506,0.504,0.503,0.0,0.0,0.495,0.493,0.494,0.495,0.496,0.496,0.497,0.497,0.497,0.497,0.496,0.497,0.496,0.496,0.496,0.496,0.496,0.496,0.495,0.495,0.495,0.492,0.49,0.489,0.488,0.487,0.487,0.495,0.493,0.49224999999999997,0.492,0.491,0.49,0.489,0.489,0.489,0.488,0.488,0.487,0.486,0.486,0.485,0.485,0.486,0.486,0.486,0.486,0.487,0.487,0.488,0.489,0.489,0.489,0.489,0.0,0.0,0.0,0.0,0.0,0.0,0.0,0.0,0.0,0.0,0.0,0.0,0.48,0.48,0.479,0.477,0.476,0.476,0.475,0.475,0.474,0.474,0.473,0.473,0.473,0.473,0.472,0.471,0.471,0.471,0.47150000000000003,0.471,0.47125000000000006,0.471,0.0,0.0,0.0,0.0,0.471,0.47,0.469,0.469,0.469,0.469,0.46775000000000005,0.465,0.463,0.0,0.0,0.0,0.0,0.0,0.0,0.0,0.0,0.0,0.0,0.0,0.456,0.455,0.454,0.0,0.0,0.0,0.0,0.0,0.0,0.0,0.4515,0.452,0.0,0.0,0.0,0.0,0.0,0.452,0.452,0.452,0.4515,0.451,0.451,0.449,0.449,0.448,0.448,0.448,0.447,0.447,0.447,0.446,0.446,0.446,0.444,0.444,0.443,0.443,0.442,0.442,0.442,0.443,0.443,0.442,0.442,0.441,0.441,0.44,0.439,0.436,0.435,0.435,0.435,0.435,0.435,0.435,0.0,0.0,0.0,0.0,0.0,0.0,0.0,0.0,0.0,0.0,0.0,0.0,0.0,0.0,0.362,0.361,0.361,0.361,0.361,0.361,0.361,0.361,0.361,0.36150000000000004,0.362,0.362,0.362,0.362,0.362,0.362,0.362,0.362,0.362,0.36224999999999996,0.362,0.36224999999999996,0.362,0.362,0.362,0.362,0.362,0.362,0.362,0.362,0.362,0.362,0.362,0.362,0.362,0.362,0.362,0.362,0.362,0.362,0.362,0.362,0.362,0.362,0.362,0.362,0.362,0.362,0.362,0.362,0.362,0.362,0.362,0.362,0.362,0.362,0.362,0.362,0.362,0.362,0.362,0.362,0.362,0.362,0.362,0.362,0.362,0.362,0.362,0.362,0.362,0.362,0.361,0.361,0.361,0.36124999999999996,0.362,0.362,0.362,0.362,0.362,0.362,0.3625,0.363,0.363,0.364,0.364,0.365,0.365,0.366,0.366,0.366,0.366,0.367,0.367,0.368,0.368,0.368,0.369,0.369,0.369,0.369,0.369,0.369,0.369,0.37,0.37,0.37,0.37,0.371,0.37175,0.372,0.372,0.373,0.373,0.373,0.374,0.375,0.375,0.0,0.0,0.0,0.0,0.0,0.0,0.0,0.0,0.393,0.393,0.3935,0.394,0.394,0.394,0.394,0.394,0.394,0.394,0.394,0.394,0.393,0.393,0.393,0.393,0.393,0.393,0.393,0.394,0.394,0.394,0.394,0.394,0.394,0.393,0.393,0.393,0.393,0.393,0.393,0.392,0.392,0.392,0.391,0.0,0.0,0.0,0.389,0.39,0.389,0.389,0.389,0.389,0.389,0.388,0.388,0.387,0.387,0.387,0.38749999999999996,0.388,0.388,0.388,0.388,0.388,0.388,0.388,0.387,0.386,0.0,0.384,0.385,0.384,0.384,0.384,0.384,0.384,0.384,0.384,0.384,0.384,0.384,0.0,0.0,0.0,0.0,0.0,0.0,0.0,0.0,0.0,0.0,0.0,0.0,0.0,0.0,0.0,0.0,0.0,0.0,0.0,0.0,0.0,0.0,0.0,0.0,0.0,0.0,0.0,0.0,0.0,0.0,0.0,0.0,0.0,0.0,0.0,0.0
0.0,0.0,0.0,0.0,0.0,0.0,0.0,0.0,0.0,0.0,0.0,0.0,0.0,0.0,0.0,0.0,0.0,0.0,0.0,0.526,0.527,0.528,0.528,0.529,0.53,0.53,0.531,0.531,0.531,0.531,0.531,0.532,0.532,0.532,0.533,0.532,0.532,0.532,0.533,0.533,0.532,0.531,0.531,0.5302500000000001,0.53,0.53,0.527,0.526,0.526,0.0,0.0,0.528,0.528,0.528,0.529,0.5289999999999999,0.53,0.531,0.532,0.533,0.533,0.532,0.532,0.536,0.534,0.532,0.532,0.5335000000000001,0.534,0.54,0.54,0.5235000000000001,0.508,0.509,0.0,0.0,0.0,0.0,0.524,0.0,0.0,0.521,0.52,0.519,0.517,0.516,0.513,0.511,0.51,0.509,0.509,0.509,0.509,0.509,0.51,0.51,0.511,0.511,0.511,0.51,0.509,0.509,0.506,0.505,0.504,0.503,0.502,0.502,0.501,0.502,0.502,0.501,0.501,0.501,0.502,0.502,0.502,0.502,0.502,0.50225,0.502,0.501,0.498,0.497,0.495,0.495,0.493,0.492,0.493,0.494,0.495,0.495,0.495,0.495,0.495,0.495,0.494,0.494,0.493,0.493,0.493,0.492,0.491,0.489,0.488,0.0,0.488,0.482,0.481,0.481,0.481,0.481,0.482,0.481,0.48,0.484,0.483,0.483,0.483,0.483,0.483,0.483,0.482,0.482,0.482,0.482,0.482,0.482,0.482,0.482,0.482,0.483,0.483,0.483,0.4845,0.485125,0.486,0.485,0.483,0.0,0.0,0.0,0.0,0.0,0.0,0.0,0.0,0.0,0.475,0.475,0.475,0.476,0.476,0.475,0.475,0.474,0.472,0.472,0.471,0.47,0.47,0.469,0.47,0.47,0.47,0.469,0.469,0.469,0.468,0.468,0.468,0.468,0.468,0.467,0.0,0.0,0.468,0.468,0.467,0.467,0.465,0.465,0.465,0.464,0.463,0.458,0.0,0.0,0.453,0.0,0.0,0.451,0.0,0.0,0.0,0.0,0.0,0.0,0.4535,0.452,0.4525,0.0,0.0,0.451,0.0,0.0,0.0,0.0,0.45,0.45,0.0,0.0,0.0,0.0,0.0,0.449,0.449,0.449,0.0,0.448,0.44775000000000004,0.447,0.447,0.447,0.447,0.447,0.446,0.446,0.446,0.446,0.444,0.444,0.443,0.442,0.442,0.442,0.442,0.442,0.441,0.441,0.441,0.441,0.441,0.44,0.438,0.436,0.435,0.434,0.432,0.432,0.433,0.433,0.433,0.433,0.435,0.0,0.0,0.0,0.0,0.0,0.0,0.0,0.0,0.0,0.0,0.0,0.0,0.0,0.0,0.0,0.0,0.0,0.0,0.0,0.0,0.0,0.362,0.362,0.362,0.362,0.362,0.362,0.362,0.3625,0.363,0.363,0.363,0.363,0.363,0.363,0.363,0.363,0.363,0.363,0.362,0.362,0.362,0.362,0.362,0.362,0.362,0.362,0.362,0.362,0.362,0.362,0.362,0.362,0.362,0.362,0.362,0.362,0.362,0.362,0.362,0.362,0.362,0.362,0.362,0.362,0.362,0.362,0.362,0.362,0.362,0.362,0.362,0.362,0.362,0.362,0.362,0.362,0.362,0.362,0.362,0.362,0.362,0.362,0.362,0.362,0.362,0.362,0.362,0.362,0.362,0.362,0.362,0.362,0.3625,0.363,0.363,0.364,0.364,0.365,0.365,0.366,0.366,0.366,0.366,0.367,0.367,0.368,0.368,0.369,0.369,0.369,0.369,0.369,0.369,0.369,0.37,0.37,0.37,0.37,0.371,0.371,0.3715,0.372125,0.373,0.373,0.374,0.375,0.376,0.377,0.0,0.0,0.38,0.0,0.0,0.0,0.0,0.389,0.39,0.391,0.392,0.392,0.393,0.393,0.393,0.393,0.393,0.393,0.393,0.393,0.393,0.392,0.392,0.392,0.392,0.392,0.392,0.392,0.393,0.393,0.393,0.393,0.393,0.393,0.393,0.393,0.393,0.393,0.393,0.393,0.391,0.391,0.39,0.39,0.389,0.389,0.0,0.0,0.0,0.387,0.388,0.387,0.386,0.386,0.386,0.386,0.386,0.386,0.385,0.385,0.386,0.386,0.386,0.386,0.386,0.386,0.385,0.385,0.385,0.385,0.384,0.383,0.382,0.382,0.382,0.382,0.382,0.382,0.382,0.382,0.382,0.382,0.382,0.0,0.0,0.0,0.0,0.0,0.0,0.0,0.0,0.0,0.0,0.0,0.0,0.0,0.0,0.0,0.0,0.0,0.0,0.0,0.0,0.0,0.0,0.0,0.0,0.0,0.0,0.0,0.0,0.0,0.0,0.0,0.0,0.0,0.0,0.0,0.0,0.0
0.0,0.0,0.0,0.0,0.0,0.0,0.0,0.0,0.0,0.0,0.0,0.0,0.0,0.0,0.0,0.0,0.0,0.523,0.524,0.524,0.525,0.525,0.526,0.526,0.526,0.527,0.528,0.528,0.529,0.528,0.528,0.529,0.529,0.529,0.529,0.529,0.528,0.528,0.529,0.528,0.525,0.52525,0.525,0.525,0.5245,0.524,0.524,0.523,0.0,0.0,0.0,0.523,0.523,0.523,0.523,0.524,0.524,0.0,0.0,0.531,0.53,0.529,0.531,0.0,0.525,0.527,0.531,0.529,0.528,0.5215000000000001,0.516875,0.504,0.504,0.506,0.507,0.508,0.507,0.0,0.0,0.0,0.0,0.0,0.0,0.51,0.502,0.508,0.50675,0.505,0.505,0.505,0.505,0.506,0.507,0.508,0.508,0.509,0.509,0.508,0.508,0.508,0.504,0.502,0.50075,0.5,0.499,0.495,0.495,0.49575,0.495,0.495,0.496,0.495,0.496,0.496,0.497,0.497,0.49824999999999997,0.499,0.499,0.499,0.4965,0.0,0.0,0.0,0.0,0.492,0.492,0.491,0.491,0.493,0.493,0.492,0.492,0.49,0.489,0.489,0.489,0.489,0.48824999999999996,0.488,0.0,0.0,0.4855,0.485,0.483,0.482,0.481,0.481,0.48,0.479,0.4785,0.47862499999999997,0.479,0.478,0.477,0.477,0.477,0.477,0.48,0.481,0.481,0.48,0.48,0.48,0.479,0.479,0.478,0.479,0.48,0.48,0.48,0.481,0.481,0.481,0.482,0.482,0.482,0.482,0.0,0.0,0.0,0.465,0.0,0.0,0.465,0.466,0.467,0.469,0.47,0.471,0.471,0.471,0.472,0.471,0.471,0.471,0.47,0.47,0.469,0.469,0.468,0.468,0.468,0.467,0.467,0.466,0.465,0.464,0.464,0.464,0.464,0.464,0.464,0.463,0.463,0.463,0.463,0.463,0.463,0.4625,0.462,0.462,0.462,0.45925,0.456,0.4535,0.45225000000000004,0.451,0.45,0.448,0.449,0.449,0.449,0.449,0.45,0.0,0.0,0.0,0.451,0.451,0.451,0.451,0.449,0.448,0.448,0.447,0.447,0.447,0.447,0.447,0.447,0.447,0.447,0.447,0.447,0.446,0.446,0.446,0.4455,0.445,0.445,0.445,0.445,0.444,0.445,0.445,0.445,0.444,0.443,0.443,0.442,0.442,0.441,0.441,0.441,0.441,0.441,0.441,0.441,0.44,0.44,0.439,0.438,0.436,0.435,0.433,0.432,0.431,0.431,0.431,0.431,0.431,0.431,0.431,0.432,0.0,0.0,0.0,0.0,0.0,0.0,0.0,0.419,0.0,0.0,0.0,0.0,0.417,0.0,0.0,0.0,0.0,0.0,0.0,0.0,0.0,0.0,0.0,0.362,0.362,0.362,0.3625,0.363,0.363,0.363,0.363,0.363,0.364,0.364,0.364,0.364,0.364,0.364,0.363,0.363,0.363,0.362,0.362,0.362,0.362,0.362,0.362,0.362,0.362,0.362,0.362,0.362,0.362,0.362,0.362,0.362,0.362,0.362,0.362,0.362,0.362,0.362,0.363,0.363,0.363,0.363,0.363,0.363,0.363,0.363,0.363,0.363,0.363,0.363,0.363,0.363,0.363,0.363,0.363,0.363,0.362,0.362,0.362,0.362,0.362,0.362,0.362,0.362,0.362,0.362,0.363,0.363,0.363,0.363,0.364,0.364,0.365,0.365,0.366,0.366,0.366,0.366,0.367,0.367,0.368,0.368,0.369,0.369,0.369,0.369,0.369,0.37,0.37,0.37,0.37,0.37,0.3705,0.371,0.371,0.372,0.372,0.373,0.373,0.374,0.375,0.376,0.377,0.377,0.3785,0.0,0.0,0.385,0.3865,0.388,0.389,0.389,0.389,0.389,0.39,0.39,0.391,0.392,0.392,0.392,0.392,0.392,0.392,0.391,0.391,0.39,0.39,0.39,0.39,0.39,0.39,0.39,0.39,0.391,0.391,0.392,0.392,0.392,0.392,0.391,0.391,0.391,0.39,0.39,0.389,0.389,0.389,0.389,0.388,0.388,0.387,0.386,0.385,0.385,0.385,0.385,0.385,0.384,0.384,0.384,0.384,0.384,0.384,0.384,0.384,0.385,0.385,0.385,0.385,0.385,0.385,0.384,0.3835,0.383,0.383,0.381,0.381,0.381,0.381,0.381,0.381,0.381,0.381,0.381,0.381,0.381,0.381,0.381,0.0,0.0,0.0,0.0,0.0,0.0,0.0,0.0,0.0,0.0,0.0,0.0,0.0,0.0,0.0,0.0,0.0,0.0,0.0,0.0,0.0,0.0,0.0,0.0,0.0,0.0,0.0,0.0,0.0,0.0,0.0,0.0,0.0,0.0,0.0,0.0,0.0
0.0,0.511,0.511,0.511,0.511,0.511,0.0,0.0,0.0,0.0,0.0,0.0,0.0,0.0,0.519,0.521,0.522,0.523,0.523,0.523,0.524,0.524,0.524,0.524,0.524,0.524,0.524,0.524,0.524,0.524,0.524,0.524,0.524,0.525,0.525,0.524,0.523,0.523,0.523,0.522,0.52075,0.52,0.51975,0.519,0.519,0.519,0.518,0.517,0.0,0.0,0.518,0.517,0.517,0.517,0.519,0.521,0.522,0.0,0.0,0.5165,0.0,0.5165,0.516,0.516,0.516,0.5145,0.516,0.51225,0.503,0.503,0.502,0.502,0.5015000000000001,0.502,0.5025,0.504,0.5025,0.0,0.0,0.0,0.0,0.0,0.0,0.501,0.5,0.5,0.501,0.501,0.501,0.502,0.502,0.502,0.503,0.503,0.504,0.504,0.504,0.503,0.502,0.502,0.5,0.4975,0.495,0.495,0.493,0.492,0.492,0.491,0.492,0.492,0.492,0.493,0.493,0.494,0.4945,0.495,0.495,0.495,0.49425,0.494,0.491,0.0,0.0,0.0,0.0,0.489,0.489,0.489,0.489,0.49,0.49,0.489,0.0,0.0,0.487,0.486,0.485,0.484,0.483,0.482,0.0,0.0,0.48,0.479,0.478,0.478,0.478,0.478,0.477,0.476,0.476,0.476,0.476,0.476,0.476,0.475,0.475,0.475,0.475,0.47524999999999995,0.475,0.477,0.477,0.477,0.477,0.477,0.476,0.476,0.477,0.477,0.477,0.0,0.0,0.0,0.0,0.0,0.0,0.0,0.0,0.0,0.0,0.0,0.0,0.0,0.0,0.463,0.463,0.464,0.465,0.465,0.46699999999999997,0.469,0.469,0.47,0.46799999999999997,0.468,0.467,0.467,0.465,0.465,0.464,0.464,0.464,0.463,0.463,0.463,0.462,0.46,0.46,0.461,0.46,0.459,0.458,0.458,0.458,0.458,0.458,0.458,0.458,0.0,0.0,0.0,0.458,0.455,0.4525,0.449,0.0,0.0,0.0,0.0,0.0,0.447,0.0,0.0,0.447,0.447,0.0,0.0,0.447,0.447,0.447,0.447,0.447,0.446,0.446,0.446,0.446,0.445,0.443,0.442,0.442,0.44225,0.442,0.442,0.441,0.441,0.441,0.441,0.441,0.441,0.441,0.441,0.441,0.442,0.442,0.442,0.442,0.442,0.441,0.441,0.441,0.441,0.441,0.441,0.441,0.44,0.44,0.439,0.438,0.438,0.436,0.435,0.434,0.433,0.432,0.431,0.431,0.4295,0.43,0.43,0.43,0.43,0.43,0.431,0.431,0.431,0.0,0.0,0.0,0.0,0.0,0.419,0.417,0.417,0.416,0.416,0.416,0.416,0.0,0.0,0.0,0.416,0.415,0.0,0.0,0.0,0.0,0.0,0.0,0.0,0.0,0.0,0.0,0.363,0.363,0.364,0.364,0.364,0.364,0.364,0.364,0.364,0.364,0.364,0.364,0.363,0.363,0.362,0.362,0.362,0.362,0.362,0.362,0.362,0.362,0.362,0.362,0.362,0.362,0.362,0.363,0.362,0.362,0.363,0.363,0.363,0.363,0.363,0.363,0.363,0.363,0.363,0.363,0.364,0.363,0.363,0.363,0.363,0.363,0.363,0.363,0.363,0.364,0.363,0.363,0.363,0.363,0.363,0.363,0.363,0.363,0.363,0.363,0.363,0.363,0.364,0.364,0.365,0.365,0.365,0.366,0.366,0.366,0.366,0.367,0.367,0.368,0.368,0.368,0.369,0.369,0.369,0.369,0.36950000000000005,0.37,0.37,0.37,0.37,0.3705,0.371,0.371,0.371,0.372,0.372,0.373,0.373,0.373,0.374,0.376,0.377,0.377,0.378,0.37875000000000003,0.38,0.381,0.382,0.385,0.3855,0.386,0.388,0.389,0.389,0.389,0.389,0.389,0.39,0.39,0.39,0.39,0.389,0.38925000000000004,0.389,0.389,0.3885,0.38812500000000005,0.388,0.38825000000000004,0.389,0.389,0.389,0.389,0.389,0.389,0.389,0.389,0.389,0.389,0.389,0.389,0.389,0.388,0.388,0.388,0.388,0.387,0.387,0.385,0.385,0.385,0.384,0.383,0.383,0.382,0.382,0.382,0.382,0.382,0.382,0.382,0.382,0.382,0.382,0.382,0.383,0.383,0.384,0.384,0.0,0.0,0.384,0.383,0.382,0.381,0.38,0.38,0.38,0.379,0.38,0.38,0.38,0.38,0.38,0.381,0.381,0.381,0.381,0.0,0.0,0.0,0.0,0.0,0.0,0.0,0.0,0.0,0.0,0.0,0.0,0.0,0.0,0.0,0.0,0.0,0.0,0.0,0.0,0.0,0.0,0.0,0.0,0.0,0.0,0.0,0.0,0.0,0.0,0.0,0.0,0.0,0.0,0.0,0.0,0.0,0.0
0.51,0.51,0.509,0.509,0.509,0.509,0.509,0.509,0.0,0.0,0.514,0.515,0.516,0.517,0.518,0.51925,0.52,0.522,0.522,0.522,0.523,0.522,0.523,0.522,0.522,0.522,0.522,0.522,0.522,0.522,0.522,0.522,0.522,0.522,0.521,0.52,0.519,0.518,0.517,0.516,0.516,0.515,0.515,0.514,0.514,0.514,0.514,0.513,0.514,0.513,0.512,0.511,0.51,0.512,0.512,0.5125,0.5125,0.50875,0.505,0.502,0.503,0.504,0.503,0.502,0.502,0.502,0.501,0.501,0.5,0.5,0.5,0.499,0.498,0.499,0.497,0.497,0.498,0.495,0.495,0.495,0.496,0.496,0.501,0.5,0.496,0.497,0.497,0.497,0.497,0.498,0.5,0.5,0.501,0.501,0.502,0.502,0.502,0.502,0.501,0.499,0.497,0.494625,0.493,0.492,0.49,0.489,0.489,0.489,0.489,0.489,0.489,0.489,0.489,0.489,0.489875,0.49,0.4905,0.48987499999999995,0.489,0.487,0.487,0.487,0.487,0.487,0.487,0.486,0.486,0.487,0.488,0.488,0.0,0.0,0.0,0.0,0.481,0.482,0.48,0.48,0.479,0.478,0.477,0.476,0.476,0.475,0.475,0.475,0.475,0.4735,0.473,0.4724999999999999,0.473,0.472,0.471,0.471,0.47,0.47,0.47,0.47,0.47,0.47,0.47,0.471,0.475,0.475,0.475,0.475,0.475,0.475,0.475,0.475,0.475,0.0,0.0,0.0,0.0,0.0,0.0,0.0,0.0,0.0,0.0,0.0,0.0,0.0,0.0,0.458,0.458,0.459,0.46,0.461,0.46199999999999997,0.46299999999999997,0.46299999999999997,0.463,0.463,0.463,0.463,0.463,0.461,0.461,0.46,0.46,0.46,0.459,0.458,0.458,0.458,0.458,0.458,0.458,0.457,0.457,0.456,0.455,0.456,0.455,0.455,0.455,0.455,0.0,0.0,0.0,0.454,0.452,0.45,0.0,0.0,0.0,0.0,0.0,0.0,0.446,0.0,0.0,0.444,0.444,0.443,0.445,0.445,0.445,0.445,0.445,0.444,0.442,0.441,0.441,0.441,0.439,0.438,0.0,0.439,0.438,0.438,0.437,0.436,0.436,0.436,0.437,0.437,0.437,0.437,0.438,0.439,0.44,0.44,0.44,0.44,0.44,0.44,0.44,0.44,0.44,0.44,0.44,0.439,0.439,0.438,0.436,0.436,0.435,0.433,0.4315,0.43087499999999995,0.43,0.43,0.428,0.427,0.426,0.427,0.427,0.428,0.428,0.0,0.0,0.0,0.431,0.0,0.0,0.0,0.421,0.419,0.41774999999999995,0.416,0.416,0.416,0.415,0.415,0.415,0.415,0.415,0.415,0.414,0.414,0.4145,0.415,0.414,0.0,0.0,0.0,0.0,0.0,0.0,0.0,0.0,0.0,0.364,0.364,0.364,0.365,0.365,0.364,0.365,0.365,0.364,0.364,0.363,0.363,0.362,0.362,0.362,0.362,0.362,0.362,0.362,0.362,0.362,0.362,0.363,0.363,0.363,0.364,0.364,0.364,0.364,0.364,0.364,0.364,0.364,0.364,0.364,0.364,0.364,0.364,0.364,0.364,0.364,0.364,0.364,0.364,0.364,0.364,0.364,0.364,0.364,0.364,0.364,0.364,0.364,0.364,0.364,0.364,0.364,0.365,0.365,0.365,0.366,0.366,0.366,0.366,0.366,0.367,0.367,0.367,0.368,0.368,0.36825,0.369,0.369,0.369,0.369,0.369,0.36950000000000005,0.37,0.37,0.37,0.371,0.371,0.371,0.371,0.372,0.372,0.372,0.373,0.373,0.373,0.374,0.375,0.376,0.377,0.377,0.378,0.379,0.38,0.381,0.382,0.384,0.385,0.3855,0.386,0.388,0.388,0.388,0.389,0.389,0.389,0.389,0.389,0.3885,0.389,0.388,0.387,0.387,0.386,0.386,0.386,0.386,0.386,0.386,0.386,0.387,0.387,0.388,0.0,0.0,0.0,0.0,0.386,0.386,0.38575000000000004,0.386,0.387,0.387,0.386,0.385,0.385,0.384,0.384,0.383,0.382,0.381,0.381,0.381,0.381,0.38,0.38,0.38,0.38,0.37975000000000003,0.38,0.38,0.38025000000000003,0.381,0.381,0.381,0.381,0.381,0.3815,0.0,0.0,0.381,0.38049999999999995,0.38,0.379,0.378,0.378,0.378,0.378,0.378,0.378,0.378,0.379,0.379,0.38,0.38,0.38,0.0,0.0,0.0,0.0,0.0,0.0,0.0,0.0,0.0,0.0,0.0,0.0,0.0,0.0,0.0,0.0,0.0,0.0,0.0,0.0,0.0,0.0,0.0,0.0,0.0,0.0,0.0,0.0,0.0,0.0,0.0,0.0,0.0,0.0,0.0,0.0,0.0,0.0,0.0
0.509,0.509,0.509,0.509,0.509,0.509,0.509,0.508,0.508,0.509,0.509,0.51,0.511,0.516,0.517,0.518,0.519,0.5195000000000001,0.52,0.52,0.521,0.521,0.521,0.519,0.519,0.519,0.519,0.52,0.519,0.519,0.519,0.519,0.519,0.518,0.517,0.516,0.516,0.515,0.511,0.51,0.509,0.509,0.509,0.509,0.509,0.509,0.509,0.509,0.509,0.509,0.508,0.508,0.507,0.507,0.505,0.504,0.503,0.501,0.498,0.499,0.496,0.496,0.49775,0.497,0.4975,0.496,0.496,0.496,0.496,0.496,0.496,0.496,0.495,0.495,0.494,0.493,0.492,0.49,0.49,0.49,0.49,0.491,0.491,0.492,0.493,0.494,0.495,0.495,0.495,0.496,0.496,0.498,0.499,0.499,0.5,0.5,0.49924999999999997,0.499,0.497,0.496,0.493,0.491,0.489,0.488,0.488,0.487,0.488,0.488,0.487,0.487,0.487,0.487,0.487,0.487,0.486,0.486,0.486,0.485,0.484,0.483,0.483,0.484,0.484,0.485,0.485,0.485,0.484,0.485,0.486,0.486,0.0,0.0,0.0,0.0,0.475,0.474,0.473,0.473,0.472,0.47,0.47,0.47,0.47,0.47,0.47,0.47,0.469,0.469,0.469,0.468,0.468,0.467,0.467,0.466,0.465,0.465,0.465,0.465,0.464,0.465,0.465,0.466,0.467,0.468,0.468,0.468,0.471,0.473,0.473,0.473,0.473,0.471,0.0,0.0,0.0,0.463,0.0,0.0,0.0,0.456,0.455,0.455,0.455,0.454,0.454,0.455,0.456,0.0,0.0,0.0,0.457,0.457,0.457,0.4575,0.458,0.457,0.457,0.457,0.457,0.457,0.457,0.457,0.457,0.456,0.456,0.456,0.457,0.457,0.457,0.457,0.455,0.455,0.455,0.453,0.453,0.452,0.452,0.452,0.453,0.453,0.453,0.453,0.452,0.449,0.0,0.0,0.0,0.0,0.446,0.446,0.446,0.446,0.445,0.442,0.442,0.442,0.442,0.442,0.442,0.4415,0.441,0.441,0.441,0.4405,0.44,0.44,0.438,0.437,0.436,0.436,0.436,0.436,0.436,0.435,0.434,0.434,0.434,0.434,0.435,0.435,0.435,0.4355,0.436,0.436,0.436,0.437,0.438,0.438,0.439,0.439,0.439,0.439,0.439,0.439,0.438,0.437,0.436,0.435,0.0,0.0,0.431,0.428,0.428,0.426,0.426,0.425,0.425,0.425,0.425,0.425,0.425,0.425,0.0,0.0,0.0,0.0,0.0,0.0,0.0,0.4195,0.417,0.417,0.416,0.416,0.415,0.415,0.414,0.414,0.414,0.414,0.414,0.414,0.414,0.413,0.413,0.413,0.412,0.411,0.0,0.0,0.0,0.0,0.0,0.0,0.0,0.0,0.0,0.365,0.365,0.365,0.365,0.365,0.365,0.365,0.364,0.364,0.363,0.363,0.363,0.362,0.362,0.362,0.362,0.362,0.363,0.363,0.363,0.364,0.364,0.364,0.364,0.364,0.364,0.364,0.364,0.3645,0.365,0.365,0.365,0.365,0.365,0.365,0.365,0.365,0.365,0.365,0.365,0.365,0.365,0.365,0.365,0.365,0.365,0.365,0.365,0.365,0.365,0.365,0.366,0.366,0.366,0.366,0.366,0.366,0.366,0.367,0.367,0.367,0.368,0.368,0.368,0.36825,0.369,0.369,0.369,0.369,0.369,0.37,0.37,0.37,0.37,0.37,0.371,0.371,0.371,0.372,0.372,0.372,0.372,0.372,0.373,0.373,0.373,0.373,0.374,0.375,0.376,0.377,0.377,0.378,0.37875000000000003,0.38,0.381,0.381,0.382,0.384,0.385,0.385375,0.386,0.387,0.387,0.388,0.388,0.388,0.388,0.388,0.387,0.386,0.386,0.0,0.3845,0.385,0.384,0.384,0.384,0.384,0.384,0.385,0.385,0.385,0.385,0.385,0.0,0.0,0.0,0.0,0.0,0.382,0.382,0.382,0.382,0.382,0.3815,0.381125,0.381,0.38075,0.381,0.381,0.38,0.379,0.379,0.378,0.377,0.377,0.378,0.378,0.378,0.377,0.378,0.377,0.378,0.378,0.378,0.0,0.378,0.3785,0.379,0.379,0.378,0.378,0.378,0.377,0.378,0.377,0.377,0.376,0.376,0.377,0.378,0.378,0.378,0.378,0.379,0.38,0.38,0.0,0.0,0.0,0.0,0.0,0.0,0.0,0.0,0.0,0.0,0.0,0.0,0.0,0.0,0.0,0.0,0.0,0.0,0.0,0.0,0.0,0.0,0.0,0.0,0.0,0.0,0.0,0.0,0.0,0.0,0.0,0.0,0.0,0.0,0.0,0.0,0.0,0.0,0.0
0.509,0.509,0.508,0.508,0.508,0.508,0.507,0.507,0.507,0.507,0.508,0.509,0.509,0.51,0.511,0.514,0.515,0.5158750000000001,0.518,0.519,0.519,0.519,0.518,0.517,0.517,0.517,0.517,0.517,0.517,0.516,0.516,0.516,0.516,0.515,0.514,0.511,0.51,0.509,0.509,0.508,0.507,0.507,0.506,0.505,0.505,0.505,0.505,0.506,0.505,0.504,0.504,0.5035000000000001,0.502,0.501,0.501,0.499,0.498,0.497,0.496,0.496,0.496,0.496,0.495,0.495,0.495,0.495,0.495,0.494,0.494,0.493,0.4925,0.492,0.491,0.489,0.488,0.488,0.487,0.486,0.485,0.486,0.486,0.487,0.487,0.488,0.489,0.49,0.491,0.49175,0.492,0.493,0.495,0.495,0.496,0.49675,0.497,0.497,0.496,0.496,0.492,0.488,0.487,0.485,0.484,0.483,0.484,0.485,0.485,0.484,0.484,0.484,0.483,0.483,0.482,0.482,0.482,0.4805,0.48075,0.481,0.481,0.48,0.48,0.48,0.48074999999999996,0.482,0.0,0.0,0.0,0.4815,0.4805,0.477375,0.474,0.469,0.469,0.469,0.468,0.468,0.468,0.467,0.467,0.466,0.466,0.466,0.465,0.465,0.465,0.465,0.464,0.464,0.464,0.464,0.463,0.463,0.463,0.462,0.462,0.461,0.461,0.461,0.462,0.462,0.4625,0.463,0.463,0.463,0.464,0.463,0.463,0.463,0.468,0.468,0.468,0.464,0.0,0.0,0.0,0.0,0.0,0.0,0.45,0.0,0.0,0.452,0.452,0.452,0.452,0.452,0.452,0.0,0.0,0.0,0.4525,0.45225000000000004,0.452,0.452,0.453,0.454,0.0,0.0,0.453,0.454,0.0,0.454,0.453,0.453,0.453,0.453,0.453,0.454,0.455,0.453,0.452,0.452,0.452,0.4505,0.451,0.4495,0.449,0.449,0.45,0.449,0.45,0.448,0.447,0.0,0.0,0.0,0.0,0.0,0.444,0.444,0.444,0.4425,0.441,0.441,0.441,0.441,0.441,0.441,0.0,0.0,0.0,0.438,0.0,0.0,0.437,0.436,0.436,0.4355,0.435,0.4335,0.433625,0.434,0.433,0.432,0.432,0.432,0.432,0.431,0.432,0.432,0.432,0.433,0.434,0.435,0.435,0.4355,0.436,0.436,0.437,0.437,0.438,0.438,0.438,0.438,0.437,0.436,0.436,0.434,0.0,0.0,0.427,0.426,0.425,0.425,0.424,0.424,0.423,0.422,0.422,0.422,0.422,0.423,0.0,0.0,0.0,0.0,0.0,0.0,0.0,0.418,0.416,0.416,0.415,0.415,0.414,0.413,0.412,0.412,0.412,0.412,0.412,0.412,0.412,0.412,0.411,0.411,0.411,0.41,0.41,0.408,0.0,0.0,0.0,0.0,0.0,0.0,0.0,0.0,0.0,0.38,0.37625000000000003,0.365,0.365,0.365,0.365,0.364,0.363,0.363,0.363,0.362,0.362,0.362,0.362,0.363,0.363,0.363,0.364,0.364,0.364,0.364,0.364,0.3645,0.365,0.365,0.365,0.365,0.365,0.365,0.365,0.365,0.365,0.365,0.365,0.365,0.365,0.365,0.365,0.365,0.366,0.365,0.366,0.366,0.366,0.366,0.366,0.366,0.366,0.366,0.367,0.367,0.367,0.36749999999999994,0.368,0.368,0.369,0.369,0.369,0.369,0.369,0.369,0.369,0.369,0.37,0.37,0.37,0.37,0.37,0.371,0.371,0.371,0.371,0.372,0.372,0.372,0.372,0.373,0.373,0.373,0.373,0.373,0.373,0.373,0.373,0.374,0.375,0.376,0.377,0.377,0.378,0.37825,0.379,0.38,0.381,0.381,0.382,0.383,0.384,0.385,0.38550000000000006,0.386,0.386,0.38625,0.386,0.386,0.385,0.385,0.385,0.385,0.384,0.383,0.382,0.381,0.381,0.381,0.381,0.38175000000000003,0.382,0.3825,0.383,0.383,0.382,0.382,0.3815,0.381,0.0,0.0,0.0,0.378,0.378,0.378,0.377,0.377,0.377,0.377,0.377,0.377,0.377,0.377,0.377,0.377,0.377,0.377,0.376,0.376,0.376,0.376,0.376,0.376,0.376,0.376,0.376,0.375,0.374,0.3745,0.375,0.0,0.0,0.0,0.0,0.0,0.0,0.0,0.376,0.376,0.373,0.373,0.372,0.373,0.374,0.3725,0.371,0.37,0.37,0.0,0.0,0.0,0.0,0.0,0.0,0.0,0.0,0.0,0.0,0.0,0.0,0.0,0.0,0.0,0.0,0.0,0.0,0.0,0.0,0.0,0.0,0.0,0.0,0.0,0.0,0.0,0.0,0.0,0.0,0.0,0.0,0.0,0.0,0.0,0.0,0.0,0.0,0.0,0.0,0.0
0.507,0.507,0.507,0.507,0.507,0.506,0.505,0.505,0.505,0.505,0.506,0.5065,0.507,0.508,0.509,0.509,0.51,0.511,0.513,0.515,0.515,0.515,0.516,0.516,0.516,0.516,0.516,0.516,0.516,0.515,0.514,0.514,0.513,0.511,0.509,0.0,0.506,0.506,0.505,0.504,0.503,0.503,0.502,0.503,0.503,0.503,0.502,0.502,0.502,0.502,0.501,0.5,0.499,0.497,0.496,0.496,0.495,0.495,0.495,0.49524999999999997,0.495,0.495,0.495,0.495,0.495,0.493,0.4925,0.491375,0.49,0.489,0.489,0.488,0.486,0.484,0.483,0.483,0.484,0.0,0.483,0.48324999999999996,0.483,0.484,0.485,0.487,0.48675,0.488,0.489,0.489,0.49,0.492,0.493,0.494,0.495,0.495,0.493,0.495,0.49,0.483,0.482,0.481,0.481,0.481,0.481,0.481,0.482,0.482,0.483,0.482,0.482,0.482,0.481,0.48,0.0,0.4765,0.476125,0.475,0.0,0.0,0.473,0.0,0.0,0.476,0.477,0.477,0.0,0.0,0.0,0.478,0.475,0.469,0.467,0.4655,0.465,0.465,0.464,0.0,0.0,0.465,0.464,0.464,0.464,0.464,0.463,0.463,0.463,0.463,0.463,0.463,0.462,0.461,0.46,0.0,0.4605,0.459,0.459,0.458,0.45825,0.458,0.45875000000000005,0.459,0.459,0.459,0.461,0.463,0.462,0.461,0.462,0.461,0.461,0.463,0.0,0.4595,0.0,0.0,0.0,0.0,0.0,0.447,0.447,0.0,0.0,0.449,0.449,0.44825000000000004,0.447,0.447,0.447,0.448,0.447,0.447,0.448,0.0,0.449,0.4495,0.450125,0.451,0.0,0.0,0.45,0.451,0.451,0.451,0.451,0.451,0.452,0.451,0.452,0.452,0.453,0.452,0.449,0.446,0.446,0.446,0.44575,0.446,0.446,0.446,0.447,0.0,0.0,0.0,0.0,0.0,0.0,0.0,0.0,0.0,0.442,0.442,0.0,0.44025000000000003,0.4390625,0.439,0.439,0.437,0.437,0.438,0.0,0.0,0.0,0.435,0.0,0.0,0.434,0.433,0.4335,0.43325,0.4323125,0.431,0.431,0.431,0.431,0.43,0.43,0.43,0.42974999999999997,0.43,0.43,0.43,0.431,0.431,0.431,0.432,0.432,0.434,0.4335,0.433,0.432,0.4335,0.436,0.437,0.437,0.437,0.437,0.436,0.433,0.433,0.431,0.426,0.425,0.424,0.423,0.422,0.422,0.421,0.421,0.42,0.42,0.42,0.42,0.0,0.0,0.0,0.0,0.0,0.0,0.0,0.416,0.415,0.415,0.414,0.413,0.412,0.412,0.412,0.411,0.411,0.411,0.411,0.411,0.411,0.411,0.411,0.411,0.41,0.409,0.407,0.406,0.405,0.0,0.0,0.0,0.399,0.0,0.0,0.0,0.0,0.0,0.395,0.395,0.3795,0.3795,0.379,0.379,0.375,0.364,0.363,0.363,0.363,0.362,0.362,0.362,0.363,0.363,0.364,0.364,0.364,0.364,0.36474999999999996,0.365,0.365,0.365,0.366,0.366,0.366,0.366,0.366,0.367,0.367,0.367,0.367,0.367,0.367,0.366,0.366,0.366,0.366,0.366,0.366,0.366,0.366,0.367,0.367,0.367,0.367,0.368,0.368,0.369,0.369,0.369,0.369,0.369,0.37,0.37,0.37,0.37,0.37,0.37,0.37,0.37,0.371,0.371,0.371,0.372,0.372,0.372,0.372,0.373,0.373,0.373,0.373,0.373,0.373,0.373,0.373,0.373,0.373,0.373,0.373,0.373,0.373,0.374,0.374,0.376,0.376,0.377,0.377,0.378,0.378,0.37875000000000003,0.38,0.38,0.381,0.381,0.382,0.383,0.384,0.385,0.385,0.385,0.385,0.385,0.385,0.385,0.384,0.384,0.382,0.381,0.381,0.381,0.38,0.38,0.379,0.38,0.38,0.38,0.38,0.38,0.379,0.378,0.377,0.377,0.376,0.376,0.375,0.375,0.375,0.375,0.374,0.37424999999999997,0.375,0.374,0.375,0.374,0.374,0.373,0.373,0.374,0.374,0.374,0.374,0.374,0.374,0.37424999999999997,0.374,0.373,0.373,0.373,0.3725,0.3715,0.371,0.37,0.37024999999999997,0.3705,0.0,0.0,0.0,0.0,0.0,0.0,0.0,0.0,0.369,0.0,0.3665,0.366,0.366,0.3665,0.36575,0.0,0.0,0.0,0.0,0.0,0.0,0.0,0.0,0.0,0.0,0.0,0.0,0.0,0.0,0.0,0.0,0.0,0.0,0.0,0.0,0.0,0.0,0.0,0.0,0.0,0.0,0.0,0.0,0.0,0.0,0.0,0.0,0.0,0.0,0.0,0.0,0.0,0.0,0.0,0.0,0.0,0.0,0.0,0.0
0.503,0.503,0.504,0.504,0.503,0.503,0.503,0.502,0.502,0.502,0.503,0.504,0.504,0.505,0.50575,0.507,0.508,0.0,0.0,0.0,0.0,0.512,0.512,0.511,0.51,0.51,0.514,0.513,0.513,0.512,0.511,0.51,0.509,0.508,0.504,0.503,0.502,0.501,0.501,0.501,0.501,0.501,0.501,0.502,0.502,0.502,0.501,0.501,0.5,0.499,0.498,0.497,0.496,0.495,0.495,0.495,0.495,0.495,0.495,0.495,0.495,0.494,0.494,0.493,0.492,0.491,0.49,0.489,0.487,0.486,0.483,0.484,0.483,0.48174999999999996,0.482,0.481,0.481,0.481,0.481,0.481,0.482,0.481,0.482,0.482,0.483,0.485,0.487,0.488,0.489,0.49,0.49149999999999994,0.493,0.49,0.4875,0.485,0.0,0.0,0.476,0.476,0.477,0.476,0.478,0.47775,0.477,0.478,0.477,0.478,0.477,0.477,0.477,0.476,0.473,0.472,0.471,0.471,0.471,0.0,0.0,0.0,0.0,0.0,0.47,0.47,0.0,0.0,0.0,0.0,0.472,0.469,0.4655,0.462,0.461,0.462,0.462,0.462,0.0,0.0,0.4625,0.463,0.463,0.463,0.46275000000000005,0.463,0.0,0.0,0.461,0.461,0.46,0.459,0.458,0.4585,0.45825000000000005,0.458,0.458,0.457,0.457,0.456,0.456,0.456,0.456,0.456,0.457,0.457,0.4585,0.0,0.457,0.457,0.4565,0.45637500000000003,0.457,0.456,0.455,0.445,0.444,0.4455,0.447,0.447,0.446,0.446,0.446,0.446,0.446,0.446,0.445,0.445,0.445,0.445,0.446,0.446,0.446,0.446,0.446,0.446,0.447,0.447,0.447,0.447,0.447,0.447,0.448,0.448,0.449,0.449,0.4495,0.45,0.447,0.447,0.449,0.447,0.0,0.0,0.44,0.44,0.44,0.44,0.441,0.441,0.0,0.0,0.0,0.0,0.0,0.0,0.0,0.0,0.0,0.0,0.0,0.0,0.0,0.0,0.438,0.436,0.436,0.436,0.435,0.435,0.435,0.0,0.0,0.432,0.432,0.432,0.432,0.431,0.431,0.431,0.431,0.43,0.43,0.43,0.43,0.429,0.429,0.428,0.428,0.427,0.427,0.427,0.4275,0.428,0.428,0.43,0.43,0.431,0.431,0.431,0.429,0.428,0.429,0.429,0.4295,0.43,0.433,0.436,0.4315,0.427,0.426,0.425,0.422,0.421,0.421,0.421,0.421,0.421,0.421,0.42,0.42,0.419,0.418,0.418,0.0,0.0,0.0,0.0,0.0,0.0,0.0,0.0,0.413,0.41274999999999995,0.412,0.411,0.411,0.411,0.411,0.411,0.411,0.41,0.411,0.41,0.41,0.41,0.0,0.0,0.408,0.407,0.406,0.405,0.403,0.0,0.0,0.0,0.0,0.397,0.397,0.0,0.0,0.396,0.394,0.394,0.394,0.394,0.393,0.393,0.393,0.393,0.393,0.377,0.377,0.376,0.37275,0.363,0.363,0.36975,0.364,0.364,0.3645,0.365,0.366,0.365,0.365,0.366,0.368,0.369,0.369,0.369,0.369,0.369,0.369,0.369,0.369,0.369,0.369,0.369,0.369,0.369,0.369,0.369,0.368,0.368,0.368,0.369,0.369,0.369,0.369,0.369,0.369,0.37,0.37,0.371,0.371,0.371,0.371,0.372,0.372,0.372,0.372,0.372,0.372,0.372,0.373,0.373,0.373,0.373,0.373,0.373,0.373,0.373,0.373,0.373,0.373,0.373,0.37325,0.373,0.373,0.373,0.373,0.373,0.373,0.373,0.374,0.374,0.374,0.375,0.376,0.377,0.377,0.377,0.378,0.378,0.3785,0.379,0.38,0.38,0.381,0.381,0.382,0.383,0.384,0.384,0.384,0.384,0.383,0.383,0.382,0.381,0.38,0.38,0.38,0.379,0.379,0.378,0.378,0.378,0.378,0.378,0.377,0.376,0.375,0.374,0.373,0.373,0.373,0.372,0.372,0.372,0.372,0.373,0.372,0.371,0.371,0.371,0.37,0.37,0.0,0.0,0.371,0.371,0.372,0.372,0.372,0.372,0.372,0.373,0.372,0.372,0.371,0.37,0.369,0.367,0.367,0.366,0.366,0.366,0.366,0.0,0.0,0.0,0.0,0.366,0.0,0.0,0.0,0.0,0.36,0.36,0.359,0.359,0.359,0.0,0.0,0.0,0.0,0.0,0.0,0.0,0.0,0.0,0.0,0.0,0.0,0.0,0.0,0.0,0.0,0.0,0.0,0.0,0.0,0.0,0.0,0.0,0.0,0.0,0.0,0.0,0.0,0.0,0.0,0.0,0.0,0.0,0.0,0.0,0.0,0.0,0.0,0.0,0.0,0.0,0.0,0.0,0.0
0.501,0.501,0.501,0.501,0.501,0.501,0.501,0.5,0.5,0.501,0.501,0.501,0.502,0.502,0.502,0.5025,0.503,0.0,0.0,0.0,0.0,0.509,0.509,0.509,0.509,0.507,0.50675,0.505,0.502,0.497,0.50275,0.507,0.502,0.5,0.498,0.497,0.497,0.497,0.497,0.497,0.498,0.498,0.498,0.499,0.499,0.499,0.499,0.497,0.497,0.496,0.495,0.495,0.494,0.493,0.494,0.493,0.494,0.494,0.493,0.493,0.493,0.492,0.491,0.489,0.489,0.488,0.488,0.48524999999999996,0.483,0.48225,0.482,0.481,0.48,0.478,0.477,0.477,0.477,0.477,0.477,0.477,0.478,0.478,0.48,0.48,0.481,0.482,0.484,0.0,0.0,0.0,0.49,0.491,0.0,0.0,0.0,0.0,0.0,0.472,0.4725,0.473375,0.474,0.475,0.475,0.475,0.475,0.475,0.474,0.0,0.0,0.0,0.47,0.469,0.469,0.469,0.468,0.467,0.465,0.0,0.0,0.0,0.0,0.0,0.0,0.0,0.0,0.0,0.0,0.0,0.0,0.46175,0.459,0.459,0.459,0.459,0.459,0.46,0.46,0.46,0.4605,0.461,0.461,0.461,0.4605,0.0,0.0,0.459,0.459,0.459,0.458,0.457,0.457,0.457,0.456,0.455,0.453,0.452,0.452,0.453,0.453,0.452,0.452,0.452,0.453,0.454,0.4535,0.453,0.452,0.452,0.451,0.4485,0.4465,0.444875,0.441,0.441,0.441,0.441,0.441,0.443,0.443,0.443,0.444,0.443,0.443,0.442,0.442,0.442,0.442,0.442,0.442,0.441,0.441,0.442,0.442,0.443,0.443,0.444,0.444,0.445,0.446,0.446,0.446,0.447,0.446,0.0,0.0,0.441,0.0,0.0,0.0,0.0,0.0,0.435,0.436,0.0,0.4365,0.0,0.0,0.0,0.0,0.0,0.0,0.0,0.0,0.0,0.0,0.0,0.0,0.0,0.0,0.0,0.0,0.0,0.0,0.0,0.0,0.43,0.43,0.43,0.43,0.429,0.429,0.429,0.43,0.43,0.43,0.43,0.43,0.43,0.43,0.429,0.429,0.428,0.426,0.426,0.426,0.426,0.425,0.425,0.425,0.425,0.426,0.426,0.427,0.427,0.427,0.0,0.0,0.0,0.415,0.413,0.412,0.0,0.0,0.0,0.0,0.0,0.419,0.418,0.0,0.0,0.418,0.419,0.419,0.42,0.42,0.42,0.42,0.419,0.418,0.417,0.416,0.412,0.0,0.0,0.0,0.0,0.0,0.0,0.0,0.411,0.411,0.411,0.411,0.411,0.41,0.41,0.409,0.409,0.408,0.408,0.408,0.408,0.40800000000000003,0.0,0.0,0.406,0.406,0.404,0.403,0.402,0.401,0.399,0.0,0.0,0.396,0.396,0.395,0.394,0.394,0.394,0.394,0.394,0.393,0.393,0.393,0.393,0.392,0.391,0.391,0.391,0.39,0.39,0.389,0.389,0.389,0.376,0.375,0.37475,0.375,0.3755,0.372875,0.367,0.369,0.37,0.37,0.3705,0.371,0.37,0.37,0.37,0.37,0.37,0.37,0.37,0.37,0.37,0.37,0.37,0.369,0.369,0.369,0.369,0.369,0.37,0.37,0.37,0.371,0.371,0.372,0.373,0.373,0.373,0.373,0.373,0.373,0.373,0.373,0.373,0.373,0.373,0.373,0.373,0.373,0.373,0.373,0.373,0.373,0.373,0.374,0.374,0.374,0.374,0.374,0.374,0.374,0.374,0.374,0.374,0.373,0.373,0.373,0.373,0.374,0.374,0.375,0.376,0.376,0.376,0.377,0.377,0.377,0.377,0.378,0.378,0.378,0.378,0.379,0.3795,0.381,0.381,0.381,0.38,0.38,0.38,0.38025,0.38,0.38,0.379,0.379,0.378,0.378,0.378,0.377,0.377,0.377,0.377,0.377,0.376,0.374,0.0,0.372,0.3715,0.37112500000000004,0.37,0.37,0.37,0.37,0.37,0.37,0.37,0.37,0.37,0.37,0.369,0.369,0.0,0.0,0.369,0.369,0.37,0.37,0.37,0.37,0.369,0.37,0.37,0.369,0.366,0.366,0.365,0.364,0.364,0.363,0.362,0.362,0.3615,0.0,0.0,0.0,0.0,0.0,0.0,0.0,0.0,0.359,0.359,0.358,0.358,0.358,0.358,0.0,0.0,0.0,0.0,0.0,0.0,0.0,0.0,0.0,0.0,0.0,0.0,0.0,0.0,0.0,0.0,0.0,0.0,0.0,0.0,0.0,0.0,0.0,0.0,0.0,0.0,0.0,0.0,0.0,0.0,0.0,0.0,0.0,0.0,0.0,0.0,0.0,0.0,0.0,0.0,0.0,0.0,0.0,0.0
0.497,0.497,0.498,0.497,0.497,0.497,0.497,0.497,0.496,0.497,0.497,0.499,0.499,0.499,0.499,0.0,0.0,0.0,0.0,0.0,0.502,0.508,0.508,0.502,0.50175,0.502,0.501,0.501,0.496,0.491,0.496,0.489,0.495,0.4935,0.494,0.494,0.494,0.494,0.494,0.495,0.495,0.495,0.495,0.496,0.496,0.496,0.496,0.495,0.495,0.494,0.493,0.49,0.49,0.489,0.489,0.49,0.49,0.491,0.491,0.491,0.491,0.491,0.489,0.489,0.485,0.483,0.482,0.481,0.48,0.478,0.477,0.476,0.476,0.476,0.476,0.475,0.475,0.475,0.475,0.475,0.475,0.476,0.476,0.477,0.479,0.48,0.481,0.0,0.0,0.0,0.0,0.0,0.0,0.0,0.0,0.467,0.468,0.468,0.469,0.47,0.47,0.47,0.47,0.47150000000000003,0.471,0.0,0.4675,0.0,0.0,0.0,0.465,0.464,0.463,0.463,0.462,0.461,0.461,0.0,0.0,0.0,0.0,0.0,0.0,0.0,0.0,0.0,0.0,0.0,0.0,0.458,0.458,0.458,0.458,0.458,0.458,0.458,0.458,0.458,0.458,0.458,0.458,0.459,0.458,0.458,0.457,0.457,0.457,0.456,0.454,0.452,0.452,0.451,0.451,0.451,0.449,0.448,0.448,0.449,0.448,0.448,0.448,0.447,0.447,0.448,0.447,0.444,0.445,0.0,0.0,0.44,0.437,0.437,0.4375,0.438,0.438,0.438,0.438,0.438,0.438,0.441,0.439,0.441,0.441,0.44,0.44,0.439,0.439,0.439,0.438,0.438,0.438,0.439,0.43925,0.44,0.44,0.441,0.441,0.442,0.442,0.444,0.444,0.444,0.441,0.0,0.0,0.435,0.0,0.0,0.0,0.0,0.431,0.431,0.433,0.433,0.433,0.0,0.0,0.0,0.0,0.0,0.0,0.0,0.0,0.0,0.0,0.0,0.0,0.0,0.0,0.0,0.425,0.0,0.0,0.0,0.0,0.425,0.426,0.426,0.426,0.426,0.426,0.426,0.426,0.42625,0.427,0.427,0.427,0.428,0.427,0.426,0.426,0.425,0.425,0.425,0.424,0.424,0.423,0.423,0.423,0.423,0.424,0.425,0.425,0.424,0.424,0.0,0.0,0.0,0.413,0.412,0.0,0.0,0.0,0.0,0.0,0.0,0.0,0.0,0.0,0.0,0.0,0.416,0.417,0.418,0.418,0.419,0.419,0.418,0.412,0.412,0.411,0.411,0.0,0.0,0.0,0.0,0.0,0.0,0.0,0.411,0.411,0.41,0.41,0.409,0.408,0.408,0.408,0.407,0.407,0.407,0.406,0.406,0.406,0.405,0.404,0.404,0.403,0.402,0.402,0.399,0.398,0.397,0.3955,0.394,0.3945,0.39437500000000003,0.394,0.394,0.394,0.393,0.393,0.393,0.393,0.392,0.392,0.391,0.391,0.391,0.39,0.39,0.389,0.389,0.389,0.388,0.388,0.388,0.386,0.385,0.385,0.385,0.384,0.383,0.375,0.3755,0.3735,0.37324999999999997,0.373,0.372,0.3715,0.3715,0.3715,0.3715,0.3715,0.3715,0.3715,0.3715,0.371,0.371,0.371,0.37,0.37,0.37,0.371,0.371,0.371,0.372,0.373,0.373,0.373,0.373,0.37375,0.374,0.374,0.374,0.375,0.374,0.374,0.374,0.374,0.374,0.374,0.374,0.374,0.373,0.374,0.374,0.374,0.374,0.374,0.374,0.37424999999999997,0.375,0.375,0.375,0.374,0.374,0.374,0.373,0.373,0.373,0.373,0.373,0.373,0.374,0.374,0.374,0.375,0.376,0.376,0.376,0.376,0.376,0.376,0.376,0.376,0.376,0.376,0.376,0.375,0.376,0.377,0.377,0.377,0.378,0.378,0.378,0.378,0.378,0.378,0.378,0.377,0.377,0.376,0.375,0.374,0.373,0.373,0.37249999999999994,0.372,0.371,0.37,0.37,0.37,0.37,0.369,0.37,0.37,0.37,0.37,0.37,0.369,0.369,0.369,0.369,0.368,0.367,0.367,0.367,0.367,0.366,0.366,0.366,0.366,0.36624999999999996,0.368,0.366,0.364,0.362,0.362,0.362,0.0,0.0,0.359,0.359,0.35825,0.357,0.0,0.0,0.0,0.0,0.0,0.0,0.0,0.358,0.358,0.358,0.358,0.358,0.358,0.357,0.357,0.0,0.0,0.0,0.0,0.0,0.0,0.0,0.0,0.0,0.0,0.0,0.0,0.0,0.0,0.0,0.0,0.0,0.0,0.0,0.0,0.0,0.0,0.0,0.0,0.0,0.0,0.0,0.0,0.0,0.0,0.0,0.0,0.0,0.0,0.0,0.0,0.0,0.0,0.0,0.0,0.0,0.0,0.0
0.493,0.494,0.494,0.494,0.494,0.495,0.495,0.495,0.495,0.495,0.495,0.496,0.496,0.496,0.496,0.0,0.0,0.0,0.496,0.496,0.497,0.498,0.497,0.495,0.494,0.492,0.49,0.489,0.4875,0.484875,0.482,0.482,0.483,0.485,0.485,0.485,0.485,0.489,0.49,0.48950000000000005,0.491,0.491,0.4915,0.492,0.494,0.491,0.492,0.489,0.489,0.49,0.488,0.487,0.487,0.487,0.488,0.488,0.489,0.489,0.49,0.49,0.49,0.489,0.488,0.484,0.482,0.481,0.47824999999999995,0.476,0.476,0.475,0.475,0.475,0.474,0.474,0.474,0.473,0.472,0.472,0.472,0.471,0.472,0.472,0.473,0.475,0.476,0.0,0.0,0.0,0.0,0.0,0.0,0.0,0.0,0.0,0.0,0.464,0.465,0.465,0.467,0.467,0.467,0.468,0.468,0.468,0.467,0.464,0.461,0.462,0.461,0.463,0.462,0.462,0.461,0.46,0.459,0.458,0.459,0.458,0.457,0.457,0.456,0.0,0.0,0.0,0.0,0.0,0.0,0.0,0.0,0.4535,0.452625,0.452,0.454,0.456,0.455,0.0,0.0,0.0,0.455,0.456,0.457,0.456,0.456,0.456,0.452,0.452,0.451,0.448,0.448,0.447,0.446,0.446,0.446,0.446,0.446,0.446,0.446,0.445,0.443,0.443,0.442,0.441,0.441,0.441,0.44,0.0,0.439,0.0,0.0,0.0,0.434,0.434,0.43487499999999996,0.436,0.436,0.436,0.436,0.436,0.436,0.436,0.436,0.436,0.436,0.435,0.437,0.436,0.436,0.436,0.436,0.436,0.436,0.436,0.436,0.437,0.438,0.439,0.44,0.441,0.441,0.442,0.438,0.0,0.0,0.0,0.428,0.4275,0.427,0.4275,0.428,0.429,0.429,0.43,0.43,0.431,0.431,0.0,0.0,0.0,0.0,0.0,0.0,0.0,0.0,0.0,0.0,0.0,0.0,0.0,0.0,0.0,0.4205,0.0,0.0,0.0,0.421,0.421,0.422,0.422,0.424,0.424,0.423,0.422,0.422,0.422,0.423,0.424,0.0,0.0,0.424,0.423,0.422,0.421,0.421,0.421,0.421,0.42,0.42,0.42,0.419,0.41924999999999996,0.42,0.419,0.418,0.0,0.4175,0.41574999999999995,0.414,0.411,0.411,0.411,0.0,0.0,0.0,0.0,0.0,0.41,0.0,0.0,0.411,0.0,0.0,0.0,0.0,0.416,0.416,0.418,0.417,0.416,0.411,0.41,0.409,0.408,0.0,0.0,0.0,0.0,0.0,0.0,0.0,0.407,0.407,0.407,0.407,0.407,0.407,0.407,0.406,0.406,0.406,0.406,0.405,0.405,0.404,0.403,0.402,0.402,0.4,0.399,0.398,0.397,0.397,0.395,0.394,0.393,0.393,0.393,0.393,0.393,0.393,0.393,0.392,0.392,0.392,0.391,0.391,0.391,0.39,0.39,0.389,0.389,0.389,0.389,0.388,0.388,0.386,0.386,0.385,0.385,0.384,0.384,0.382,0.381,0.381,0.381,0.377,0.376,0.375,0.374,0.373,0.373,0.373,0.373,0.373,0.373,0.373,0.373,0.372,0.372,0.372,0.372,0.372,0.372,0.372,0.372,0.37225,0.373,0.373,0.37350000000000005,0.374,0.374,0.375,0.376,0.376,0.376,0.376,0.376,0.376,0.375,0.375,0.375,0.374,0.374,0.374,0.374,0.373,0.373,0.374,0.374,0.374,0.374,0.374,0.374,0.374,0.374,0.373,0.373,0.373,0.373,0.373,0.373,0.373,0.373,0.373,0.373,0.373,0.373,0.374,0.374,0.374,0.374,0.374,0.374,0.374,0.374,0.374,0.374,0.372,0.37,0.37,0.3725,0.0,0.374,0.375,0.376,0.376,0.376,0.376,0.377,0.377,0.377,0.377,0.374,0.3725,0.0,0.3705,0.369,0.369,0.369,0.369,0.369,0.368,0.367,0.368,0.368,0.368,0.368,0.368,0.368,0.368,0.368,0.368,0.367,0.366,0.366,0.365,0.365,0.365,0.365,0.365,0.364,0.3635,0.0,0.0,0.362,0.362,0.36,0.359,0.359,0.359,0.36,0.0,0.0,0.358,0.357,0.355,0.355,0.355,0.355,0.355,0.355,0.355,0.355,0.355,0.356,0.356,0.356,0.356,0.356,0.356,0.356,0.356,0.0,0.0,0.0,0.0,0.0,0.0,0.0,0.0,0.0,0.0,0.0,0.0,0.0,0.0,0.0,0.0,0.0,0.0,0.0,0.0,0.0,0.0,0.0,0.0,0.0,0.0,0.0,0.0,0.0,0.0,0.0,0.0,0.0,0.0,0.0,0.0,0.0,0.0,0.0,0.0,0.0,0.0,0.0
0.489,0.489,0.489,0.489,0.489,0.49,0.491,0.492,0.492,0.493,0.494,0.494,0.494,0.0,0.0,0.0,0.0,0.0,0.0,0.0,0.0,0.0,0.0,0.49,0.481,0.481,0.481,0.48,0.479,0.479,0.48,0.48,0.481,0.481,0.481,0.482,0.482,0.482,0.482,0.482,0.482,0.4845,0.488,0.488,0.487,0.487,0.486,0.482,0.482,0.482,0.483,0.483,0.483,0.483,0.48424999999999996,0.487,0.488,0.489,0.489,0.489,0.489,0.488,0.483,0.482,0.476,0.474,0.474,0.473,0.472,0.472,0.471,0.471,0.47,0.47,0.47,0.47,0.47,0.47,0.47,0.47,0.47,0.47,0.47,0.0,0.0,0.0,0.0,0.0,0.0,0.0,0.0,0.0,0.0,0.461,0.461,0.462,0.463,0.463,0.463,0.46325,0.464,0.464,0.464,0.463,0.46,0.457,0.458,0.458,0.458,0.458,0.458,0.458,0.458,0.458,0.458,0.458,0.457,0.457,0.455,0.453,0.452,0.0,0.0,0.0,0.0,0.0,0.0,0.0,0.0,0.449,0.447,0.448,0.448,0.45,0.4505,0.0,0.0,0.0,0.0,0.441,0.0,0.0,0.442,0.0,0.0,0.0,0.0,0.0,0.444,0.443,0.442,0.443,0.443,0.0,0.0,0.443,0.442,0.441,0.441,0.0,0.439,0.437,0.4365,0.435,0.0,0.0,0.433,0.0,0.0,0.0,0.431,0.431,0.432,0.433,0.433,0.433,0.433,0.434,0.434,0.434,0.433,0.433,0.432,0.432,0.431,0.435,0.431,0.434,0.433,0.433,0.434,0.434,0.435,0.435,0.436,0.437,0.0,0.0,0.0,0.0,0.0,0.0,0.0,0.0,0.423,0.424375,0.425,0.425,0.426,0.426,0.426,0.427,0.427,0.427,0.427,0.426,0.425,0.0,0.0,0.0,0.0,0.0,0.0,0.411,0.412,0.413,0.414,0.415,0.415,0.415,0.416,0.417,0.4175,0.418,0.419,0.419,0.42,0.42,0.421,0.0,0.0,0.0,0.0,0.0,0.0,0.0,0.0,0.0,0.0,0.0,0.0,0.0,0.0,0.416,0.416,0.416,0.415,0.415,0.415,0.415,0.415,0.4135,0.411,0.411,0.411,0.41,0.41,0.41,0.41,0.409,0.409,0.409,0.408,0.407,0.407,0.407,0.407,0.407,0.407,0.408,0.0,0.0,0.0,0.4065,0.414,0.0,0.0,0.4085,0.40712499999999996,0.407,0.406,0.406,0.0,0.0,0.0,0.0,0.0,0.0,0.0,0.402,0.403,0.403,0.404,0.404,0.405,0.405,0.405,0.405,0.404,0.404,0.404,0.403,0.402,0.402,0.4,0.399,0.398,0.398,0.397,0.395,0.394,0.393,0.393,0.392,0.392,0.392,0.39,0.391,0.391,0.391,0.391,0.391,0.39,0.39,0.39,0.39,0.389,0.389,0.389,0.389,0.389,0.388,0.387,0.386,0.385,0.385,0.385,0.384,0.382,0.382,0.381,0.381,0.381,0.378,0.377,0.377,0.376,0.375,0.375,0.375,0.374,0.374,0.374,0.374,0.373,0.373,0.373,0.373,0.373,0.372,0.372,0.372,0.3725,0.373,0.373,0.373,0.374,0.374,0.375,0.376,0.376,0.376,0.377,0.376,0.376,0.376,0.376,0.376,0.376,0.375,0.374,0.374,0.374,0.374,0.373,0.373,0.373,0.373,0.373,0.373,0.373,0.373,0.373,0.373,0.373,0.373,0.373,0.372,0.372,0.372,0.372,0.372,0.372,0.373,0.373,0.373,0.373,0.373,0.373,0.373,0.373,0.373,0.373,0.372,0.372,0.371,0.37,0.369,0.369,0.369,0.37,0.371,0.373,0.373,0.373,0.373,0.0,0.0,0.0,0.374,0.369,0.369,0.369,0.368,0.367,0.366,0.366,0.366,0.366,0.365,0.365,0.365,0.365,0.366,0.366,0.366,0.366,0.366,0.366,0.366,0.365,0.365,0.364,0.363,0.363,0.363,0.363,0.362,0.362,0.362,0.361,0.0,0.0,0.356,0.358,0.358,0.358,0.358,0.358,0.358,0.358,0.356,0.355,0.35475,0.355,0.354,0.353,0.352,0.352,0.353,0.353,0.354,0.354,0.354,0.3545,0.355,0.355,0.355,0.355,0.355,0.355,0.0,0.0,0.0,0.0,0.0,0.0,0.0,0.0,0.0,0.0,0.0,0.0,0.0,0.0,0.0,0.0,0.0,0.0,0.0,0.0,0.0,0.0,0.0,0.0,0.0,0.0,0.0,0.0,0.0,0.0,0.0,0.0,0.0,0.0,0.0,0.0,0.0,0.0,0.0,0.0,0.0,0.0,0.0
