0,0,0,0,5.679,5.651,5.624,5.597,5.57,5.517,5.44,5.244,5.151,5.04,4.975,4.912,4.891,4.871,4.851,4.851,4.83,4.81,4.791,4.791,4.791,4.791,4.771,4.771,4.771,4.791,4.791,4.81,4.81,4.81,4.81,4.81,4.81,4.81,4.81,4.81,4.81,4.81,4.81,4.81,4.81,4.81,4.81,4.81,4.81,4.81,4.81,4.83,4.83,4.83,4.83,4.83,4.851,4.851,4.851,4.851,4.851,4.851,4.851,4.851,4.851,4.851,4.851,4.851,4.851,4.851,4.851,4.851,4.851,4.851,4.851,4.851,4.871,4.891,4.912,4.954,4.996,5.106,5.22,5.268,0,5.415,5.491,5.543,5.597,5.651,5.735,5.939,6.225,6.54,6.729,7.098,7.322,7.415,7.511,7.559,7.559,7.559,7.415,7.368,7.322,7.322,7.322,7.322,7.368,7.415,7.511,7.559,7.659,7.709,7.813,7.813,7.866,7.866,7.866,7.866,7.813,7.761,7.761,7.761,7.709,7.709,7.709,7.761,7.813,7.866,7.866,7.973,7.973,8.028,8.084,8.084,8.084,8.141,8.198,8.141,8.198,8.198,8.198,8.198,8.198,8.198,8.256,8.256,8.256,8.256,8.256,8.315,8.315,8.375,0,8.497,8.56,8.753,8.819,9.166,9.313,9.542,9.783,9.865,10.036,0,0,9.95,0,0,6.54,6.396,6.327,6.327,6.259,6.225,6.159,6.127,6.095,6.001,5.939,5.85,5.821,5.792,5.735,5.735,5.679,5.679,5.679,5.679,5.707,5.735,5.763,5.792,5.821,0,5.909,5.939,0,6.001,6.095,6.127,6.259,6.259,6.327,6.259,6.159,6.127,6.032,6.001,5.909,5.85,5.763,5.735,5.679,5.651,5.651,5.597,5.57,5.543,5.465,5.44,5.34,5.268,5.174,5.151,5.084,5.04,5.018,4.996,4.975,4.975,4.954,4.933,4.933,4.933,4.933,4.933,4.912,4.912,4.912,4.912,4.912,4.933,4.933,4.933,4.954,4.954,4.954,4.954,4.975,4.975,4.975,4.975,4.975,4.975,4.975,4.975,4.975,4.975,4.954,4.954,4.933,4.912,4.912,4.912,4.912,4.912,4.891,4.891,4.871,4.851,4.83,4.83,4.83,4.81,4.81,4.81,4.81,4.83,4.81,4.81,4.81,4.81,4.81,4.81,4.81,4.81,4.81,4.791,4.791,4.81,4.81,4.81,4.81,4.81,4.83,4.83,4.83,4.851,4.851,4.851,4.851,4.851,4.851,4.851,4.83,4.83,4.83,4.83,4.83,4.83,4.83,4.851,4.851,4.851,4.851,4.851,4.851,4.851,4.851,4.851,4.851,4.851,4.83,4.83,4.83,4.83,4.83,4.81,4.81,4.81,4.81,4.81,4.81,4.83,4.83,4.83,4.851,4.851,4.871,4.891,4.891,4.891,4.912,4.912,4.912,4.933,4.933,4.954,4.954,4.975,4.975,4.996,4.996,4.996,5.018,5.018,5.018,5.018,5.018,5.018,5.018,5.018,4.996,4.975,4.954,4.933,4.912,4.891,4.891,4.851,4.83,4.81,4.81,4.791,4.771,4.752,4.732,4.732,4.732,0,0,0,2.152,2.16,2.16,2.16,2.16,2.16,2.16,2.164,2.164,2.164,2.164,2.172,2.172,2.176,2.184,2.192,2.196,2.201,2.205,2.213,2.213,2.217,2.222,2.222,2.217,2.217,2.213,2.209,2.205,2.201,2.196,2.188,2.18,2.172,2.16,2.144,2.132,2.132,2.132,2.124,2.124,2.132,2.132,2.136,2.136,2.152,2.16,2.176,2.184,2.192,2.201,2.209,2.213,2.217,2.222,2.226,2.234,2.239,2.234,2.23,2.226,2.222,2.217,2.213,2.205,2.201,2.201,2.192,2.184,2.176,2.16,2.098,2.071,0,0,1.735,0,1.714,1.709,1.707,1.702,1.699,1.699,1.697,1.697,1.695,1.692,1.69,1.682,1.677,1.668,1.658,1.644,1.635,1.624,1.619,1.615,1.61,1.593,1.58,1.571,1.563,1.556,1.552,1.548,1.544,1.536,1.526,1.506,1.496,1.491,1.487,1.485,1.481,1.481,1.477,1.474,1.472,1.466,1.461,1.459,1.457,1.452,1.446,1.443,1.441,1.441,1.439,1.439,1.435,1.434,1.432,1.432,1.432,1.432,1.43,1.43,1.428,1.427,1.427,1.425,1.423,1.418,1.414,1.408,1.396,1.392,1.376,1.362,0,1.261,1.219,1.206,1.204,1.2,1.198,1.196,1.194,1.193,1.193,1.193,1.192,1.192,1.192,1.19,1.19,1.19,1.19,1.19,1.19,1.19,1.19,1.192,1.192,1.192,1.193,1.193,1.193,1.193,1.193,1.192,1.192,1.192,1.19,1.19,1.19,1.189,1.188,1.187,1.184,1.184,1.181,1.179,1.176,1.172,1.171,1.168,1.164,1.163,1.163,1.163,1.163,1.163,1.163,1.163,1.163,1.163,1.163,1.163,1.163,1.162,1.162,1.161,1.161,1.161,1.161,1.159,1.159,0,0,0,0,0,0
0,0,0,0,0,5.624,5.597,5.57,5.543,5.491,5.389,5.151,5.018,4.954,4.912,4.891,4.851,4.851,4.83,4.83,4.81,4.81,4.771,4.771,4.771,4.791,4.771,4.771,4.771,4.771,4.771,4.791,4.791,4.791,4.81,4.81,4.81,4.81,4.81,4.83,4.81,4.83,4.81,4.81,4.81,4.81,4.81,4.81,4.83,4.83,4.83,4.83,4.83,4.83,4.851,4.851,4.851,4.851,4.871,4.871,4.871,4.871,4.871,4.851,4.851,4.851,4.851,4.851,4.851,4.851,4.851,4.851,4.851,4.851,4.851,4.851,4.871,4.891,4.912,4.933,4.996,5.084,5.151,5.22,5.34,0,5.415,5.491,5.57,5.624,5.679,5.821,6.032,6.432,6.614,6.768,6.929,7.055,7.186,7.186,7.231,7.231,7.231,7.098,7.055,6.971,6.971,6.971,7.055,7.098,7.231,7.322,7.415,7.559,7.709,7.761,7.813,7.866,7.813,7.813,7.761,7.761,7.761,7.709,7.761,7.709,7.761,7.761,7.813,7.813,7.919,7.919,7.973,8.028,8.084,8.141,8.198,8.198,8.256,8.256,8.256,8.256,8.256,8.256,8.256,8.256,8.256,8.315,8.315,8.315,8.315,8.315,8.315,8.375,8.436,8.56,8.623,8.753,8.819,9.024,9.239,9.464,9.542,9.783,9.783,9.865,9.865,8.955,0,0,0,6.467,6.361,6.361,6.327,6.259,6.225,6.159,6.127,6.095,6.032,6.001,5.939,5.909,5.821,5.792,5.763,5.763,5.763,5.735,5.763,5.763,0,5.821,5.85,0,5.909,5.939,6.001,6.032,6.127,6.159,6.259,6.259,6.259,6.159,6.095,6.032,5.939,5.909,5.792,5.763,5.679,5.679,5.651,5.624,5.597,5.57,5.517,5.465,5.389,5.34,5.268,5.174,5.151,5.106,5.04,5.04,5.018,4.996,4.975,4.975,4.954,4.933,4.933,4.933,4.912,4.912,4.912,4.912,4.912,4.912,4.912,4.912,4.912,4.912,4.912,4.933,4.933,4.933,4.954,4.954,4.954,4.954,4.954,4.954,4.954,4.954,4.954,4.954,4.933,4.912,4.912,4.912,4.912,4.912,4.891,4.891,4.891,4.871,4.851,4.83,4.83,4.81,4.81,4.81,4.81,4.81,4.81,4.81,4.81,4.81,4.81,4.81,4.791,4.791,4.791,4.771,4.771,4.771,4.771,4.752,4.771,4.771,4.771,4.791,4.81,4.81,4.81,4.81,4.81,4.81,4.81,4.81,4.81,4.81,4.81,4.81,4.81,4.81,4.81,4.81,4.81,4.81,4.83,4.83,4.83,4.83,4.851,4.851,4.851,4.851,4.851,4.83,4.83,4.83,4.83,4.81,4.81,4.81,4.81,4.81,4.81,4.81,4.81,4.83,4.83,4.83,4.851,4.851,4.871,4.891,4.891,4.891,4.912,4.912,4.933,4.933,4.954,4.975,4.975,4.996,4.996,4.996,5.018,5.018,5.04,5.04,5.04,5.084,5.084,5.04,5.04,5.04,5.018,4.996,4.975,4.954,4.912,4.891,4.891,4.851,4.83,4.81,4.81,4.791,4.752,4.752,4.713,0,0,0,0,2.16,2.16,2.16,2.164,2.164,2.164,2.164,2.172,2.172,2.172,2.176,2.176,2.18,2.184,2.188,2.196,2.201,2.201,2.209,2.213,2.217,2.222,2.226,2.23,2.23,2.226,2.222,2.217,2.213,2.205,2.196,2.192,2.184,2.172,2.16,2.148,2.132,2.124,2.113,2.113,2.12,2.113,2.113,2.12,2.12,2.124,2.136,2.148,2.16,2.172,2.18,2.196,2.201,2.205,2.213,2.213,2.217,2.217,2.217,2.217,2.217,2.222,2.217,2.213,2.209,2.205,2.196,2.184,2.16,2.144,2.12,2.071,2.05,1.983,1.884,1.775,1.738,1.73,1.714,1.714,1.709,1.704,1.702,1.699,1.699,1.697,1.695,1.692,1.69,1.687,1.68,1.673,1.658,1.649,1.635,1.626,1.619,1.615,1.606,1.586,1.573,1.563,1.556,1.552,1.548,1.546,1.54,1.534,1.522,1.502,1.496,1.491,1.489,1.485,1.481,1.481,1.477,1.474,1.472,1.466,1.464,1.459,1.453,1.453,1.446,1.443,1.443,1.441,1.439,1.437,1.435,1.434,1.434,1.434,1.432,1.432,1.432,1.432,1.43,1.43,1.428,1.427,1.425,1.423,1.42,1.414,1.409,1.391,1.373,0,0,1.232,1.216,1.208,1.204,1.201,1.198,1.196,1.195,1.194,1.193,1.193,1.193,1.193,1.192,1.192,1.192,1.192,1.192,1.192,1.192,1.193,1.193,1.193,1.194,1.195,1.195,1.195,1.195,1.195,1.195,1.194,1.194,1.193,1.192,1.192,1.192,1.19,1.189,1.188,1.185,1.184,1.181,1.179,1.176,1.172,1.171,1.169,1.165,1.164,1.164,1.164,1.164,1.164,1.164,1.164,1.164,1.164,1.164,1.164,1.164,1.163,1.163,1.162,1.162,1.162,1.162,1.161,1.161,0,0,0,0,0,0
0,0,0,0,0,0,0,5.543,5.491,5.415,5.151,5.018,4.954,4.912,4.891,4.851,4.83,4.83,4.81,4.81,4.81,4.81,4.771,4.771,4.771,4.771,4.771,4.752,4.752,4.752,4.752,4.771,4.771,4.791,4.791,4.81,4.81,4.81,4.81,4.83,4.83,4.83,4.83,4.83,4.83,4.83,4.83,4.83,4.83,4.83,4.83,4.83,4.83,4.851,4.851,4.851,4.871,4.871,4.871,4.871,4.871,4.871,4.871,4.871,4.871,4.871,4.871,4.871,4.851,4.851,4.851,4.851,4.851,4.851,4.851,4.871,4.871,4.891,4.912,4.933,4.975,5.018,5.106,5.174,5.316,5.389,0,5.465,5.543,5.597,5.651,5.707,5.909,6.225,6.467,6.614,6.69,6.768,6.808,6.848,6.929,6.929,6.929,6.888,6.848,6.808,6.808,6.808,6.808,6.848,6.929,6.971,7.186,7.368,7.415,7.659,7.761,7.813,7.813,7.813,7.813,7.761,7.761,7.709,7.761,7.709,7.761,7.709,7.709,7.709,7.709,7.761,7.866,7.866,7.919,7.973,7.973,8.028,8.084,8.198,8.198,8.198,8.256,8.315,8.315,8.315,8.315,8.315,8.315,8.315,8.375,8.315,8.315,8.315,8.375,8.436,8.497,8.623,8.753,0,8.955,9.024,9.166,9.239,9.313,9.313,9.239,8.623,8.084,0,0,6.467,6.361,6.361,6.327,6.327,6.259,6.159,6.127,6.095,6.032,5.939,5.909,5.85,5.821,5.792,5.792,5.763,5.763,5.763,5.763,5.763,5.792,5.821,5.821,5.85,5.909,5.909,5.939,6.001,6.032,0,6.127,6.127,6.095,6.032,6.001,5.909,5.821,5.792,5.707,5.679,5.651,5.624,5.597,5.57,5.543,5.491,5.44,5.389,5.316,5.244,5.174,5.106,5.106,5.084,5.04,5.018,4.996,4.975,4.975,4.954,4.933,4.912,4.912,4.912,4.912,4.912,4.912,4.912,4.912,4.912,4.912,4.912,4.912,4.912,4.912,4.912,4.933,4.933,4.933,4.933,4.933,4.933,4.933,4.933,4.933,4.933,4.933,4.912,4.912,4.912,4.912,4.891,4.891,4.891,4.891,4.871,4.851,4.851,4.83,4.83,4.81,4.81,4.81,4.791,4.791,4.791,4.81,4.791,4.791,4.791,4.791,4.771,4.771,4.771,4.752,4.752,4.752,4.752,4.732,4.732,4.732,4.732,4.752,4.752,4.771,4.771,4.791,4.791,4.771,4.791,4.771,4.771,4.771,4.752,4.752,4.752,4.752,4.752,4.752,4.752,4.771,4.791,4.81,4.81,4.83,4.83,4.83,4.83,4.851,4.851,4.851,4.83,4.83,4.83,4.83,4.81,4.81,4.81,4.81,4.81,4.81,4.81,4.81,4.81,4.83,4.83,4.851,4.851,4.871,4.891,4.891,4.891,4.912,4.933,4.933,4.954,4.975,4.975,4.996,4.996,4.996,5.018,5.018,5.04,5.04,5.04,5.084,5.084,5.084,5.084,5.084,5.084,5.084,5.018,4.996,4.954,4.933,4.912,4.891,4.871,4.83,4.81,4.81,4.791,4.771,4.752,4.732,4.732,4.713,0,0,0,2.164,2.164,2.164,2.164,2.164,2.164,2.172,2.176,2.176,2.18,2.18,2.184,2.192,2.196,2.201,2.205,2.209,2.213,2.217,2.222,2.23,2.234,2.234,2.234,2.226,2.217,2.213,2.209,2.201,2.196,2.188,2.176,2.164,2.148,2.132,2.124,2.113,2.109,2.109,2.109,2.109,2.109,2.109,2.113,2.113,2.12,2.132,2.136,2.144,2.152,2.172,2.18,2.184,2.192,2.196,2.196,2.196,2.196,2.201,2.196,2.196,2.184,2.164,2.144,2.172,2.152,2.124,2.09,2.075,2.05,1.997,1.973,1.881,1.857,1.772,1.74,1.73,1.72,1.714,1.712,1.707,1.702,1.699,1.699,1.697,1.697,1.692,1.692,1.69,1.68,1.673,1.661,1.651,1.635,1.626,1.619,1.612,1.603,1.58,1.567,1.558,1.554,1.548,1.546,1.542,1.536,1.526,1.508,1.498,1.492,1.489,1.487,1.485,1.481,1.481,1.477,1.474,1.472,1.466,1.461,1.459,1.453,1.452,1.446,1.443,1.441,1.439,1.437,1.437,1.435,1.435,1.434,1.434,1.432,1.432,1.432,1.432,1.43,1.43,1.43,1.427,1.425,1.423,1.42,1.416,1.413,1.391,1.37,0,1.238,1.227,1.214,1.206,1.204,1.201,1.199,1.196,1.195,1.194,1.193,1.193,1.193,1.193,1.192,1.192,1.192,1.192,1.192,1.193,1.193,1.194,1.195,1.195,1.196,1.196,1.198,1.198,1.198,1.196,1.196,1.195,1.195,1.194,1.193,1.193,1.192,1.19,1.19,1.189,1.187,1.185,1.183,1.179,1.177,1.175,1.171,1.169,1.169,1.165,1.165,1.164,1.165,1.165,1.165,1.165,1.165,1.165,1.165,1.164,1.164,1.164,1.164,1.163,1.162,1.163,1.163,1.161,1.162,0,0,0,0,0,0
0,0,0,0,0,0,0,5.491,5.415,5.174,5.084,4.975,4.912,4.891,4.851,4.83,4.81,4.81,4.81,4.81,4.81,4.791,4.771,4.771,4.771,4.771,4.752,4.752,4.752,4.752,4.752,4.752,4.752,4.752,4.771,4.791,4.81,4.81,4.81,4.81,4.83,4.83,4.83,4.83,4.83,4.83,4.83,4.851,4.851,4.851,4.851,4.851,4.851,4.851,4.851,4.851,4.871,4.871,4.871,4.871,4.891,4.891,4.891,4.891,4.891,4.891,4.871,4.871,4.871,4.871,4.871,4.871,4.871,4.871,4.871,4.871,4.891,4.891,4.912,4.912,4.954,4.996,5.084,5.151,5.244,5.34,0,5.44,5.517,5.57,5.624,5.679,5.792,6.032,6.259,6.467,6.577,6.614,6.69,6.69,6.729,6.729,6.729,6.729,6.69,6.69,6.652,6.69,6.69,6.69,6.69,6.729,6.768,6.888,7.055,7.231,7.368,7.511,7.659,7.659,7.709,7.415,7.231,7.186,7.368,7.659,7.415,7.231,6.929,0,7.098,7.098,0,7.559,7.659,7.659,7.973,8.028,8.084,8.198,8.198,8.256,8.375,8.315,8.315,8.375,8.375,8.375,8.375,8.375,8.375,8.315,8.315,8.315,8.315,8.315,8.375,8.436,8.497,8.56,8.497,8.56,8.753,8.819,8.819,8.819,8.753,8.436,8.028,0,6.614,6.467,6.361,6.361,6.327,6.259,6.225,6.127,6.095,6.095,6.001,5.939,5.909,5.85,5.821,5.821,5.792,5.763,5.735,5.735,5.735,5.735,5.763,5.763,5.792,5.763,5.792,5.763,5.792,5.821,5.821,5.85,5.909,5.909,5.909,5.85,5.821,5.792,5.735,5.679,5.651,5.624,5.597,5.57,5.543,5.517,5.465,5.415,5.34,5.268,5.244,5.151,5.106,5.084,5.04,5.04,5.018,4.996,4.975,4.975,4.954,4.933,4.933,4.912,4.912,4.912,4.912,4.912,4.891,4.891,4.891,4.891,4.891,4.891,4.891,4.891,4.912,4.912,4.912,4.912,4.912,4.912,4.933,4.933,4.933,4.933,4.912,4.912,4.912,4.912,4.912,4.912,4.891,4.891,4.891,4.891,4.871,4.851,4.851,4.83,4.81,4.81,4.81,4.791,4.791,4.791,4.771,4.771,4.771,4.771,4.771,4.771,4.771,4.752,4.752,4.732,4.732,4.713,4.713,4.713,4.713,4.713,4.713,4.713,4.713,4.732,4.752,4.752,4.732,4.752,4.732,4.732,4.713,4.713,4.694,4.694,4.694,4.694,4.694,4.694,4.713,4.713,4.732,4.752,4.771,4.81,4.81,4.83,4.83,4.83,4.851,4.851,4.851,4.83,4.83,4.83,4.81,4.81,4.81,4.81,4.791,4.791,4.81,4.81,4.81,4.81,4.83,4.83,4.83,4.851,4.871,4.891,4.891,4.891,4.912,4.912,4.933,4.954,4.975,4.975,4.996,4.996,5.018,5.018,5.04,5.04,5.04,5.084,5.084,5.106,5.106,5.084,5.084,5.084,5.084,5.018,4.996,4.975,4.933,4.912,4.891,4.871,4.851,4.83,4.81,4.791,4.791,4.771,4.752,4.732,4.732,0,0,0,2.164,2.164,2.164,2.164,2.172,2.172,2.172,2.176,2.18,2.184,2.184,2.192,2.196,2.201,2.205,2.209,2.213,2.217,2.217,2.226,2.234,2.234,2.234,2.234,2.226,2.217,2.213,2.205,2.201,2.192,2.18,2.164,2.152,2.132,2.12,2.109,2.105,2.101,2.098,2.098,2.094,2.09,2.09,2.086,2.086,2.083,2.079,2.079,2.079,2.079,2.083,2.09,2.094,2.101,2.109,2.109,2.113,2.109,2.113,2.124,2.136,2.113,2.101,2.09,2.028,1.997,1.976,1.97,2.004,1.976,1.96,1.931,0,0,1.767,1.745,1.735,1.722,1.72,1.712,1.707,1.704,1.699,1.699,1.697,1.695,1.692,1.692,1.69,1.68,1.673,1.661,1.651,1.637,1.626,1.617,1.612,1.588,1.573,1.565,1.554,1.552,1.546,1.544,1.538,1.532,1.522,1.502,1.496,1.492,1.489,1.487,1.485,1.483,1.481,1.477,1.474,1.472,1.466,1.464,1.459,1.453,1.452,1.443,1.441,1.439,1.437,1.437,1.435,1.435,1.434,1.434,1.434,1.434,1.432,1.432,1.432,1.432,1.43,1.43,1.428,1.427,1.423,1.421,1.42,1.416,1.383,0,0,1.232,1.22,1.21,1.208,1.206,1.2,1.199,1.196,1.196,1.194,1.193,1.193,1.193,1.193,1.192,1.192,1.193,1.192,1.193,1.193,1.194,1.195,1.196,1.196,1.198,1.2,1.2,1.2,1.2,1.199,1.199,1.196,1.196,1.195,1.193,1.193,1.192,1.19,1.19,1.188,1.187,1.184,1.183,1.179,1.176,1.175,1.172,1.169,1.165,1.165,1.165,1.165,1.165,1.165,1.168,1.168,1.168,1.165,1.168,1.168,1.165,1.165,1.164,1.164,1.163,1.163,1.163,1.162,1.163,0,0,0,0,0,0
0,0,0,0,0,0,0,5.389,5.174,5.084,4.996,4.912,4.891,4.851,4.83,4.81,4.81,4.81,4.81,4.791,4.791,4.771,4.771,4.752,4.752,4.752,4.732,4.732,4.732,4.732,4.732,4.752,4.752,4.752,4.771,4.791,4.81,4.81,4.81,4.81,4.83,4.83,4.83,4.851,4.851,4.851,4.851,4.851,4.851,4.851,4.851,4.851,4.851,4.851,4.851,4.871,4.871,4.871,4.891,4.891,4.891,4.891,4.891,4.891,4.891,4.891,4.891,4.891,4.891,4.891,4.891,4.871,4.871,4.871,4.871,4.871,4.891,4.891,4.891,4.912,4.933,4.996,5.04,5.106,5.174,5.268,5.389,0,5.465,5.543,5.597,5.651,5.707,5.85,6.032,6.225,6.361,6.467,6.54,6.577,6.577,6.577,6.614,6.577,6.54,6.54,6.54,6.504,6.467,6.467,6.504,6.504,6.54,6.577,6.69,6.768,6.888,6.971,7.186,7.186,7.415,7.322,7.055,7.055,6.808,7.055,7.322,6.929,6.848,6.768,6.971,6.929,0,7.231,7.511,7.559,7.973,8.028,8.198,8.256,8.256,8.315,8.436,8.375,8.375,8.375,0,0,0,8.375,8.375,8.315,8.256,8.256,8.256,8.256,8.256,8.256,8.256,8.256,8.256,8.256,8.256,0,0,0,0,0,0,0,6.577,6.396,6.259,6.259,6.225,6.159,6.127,0,0,5.939,5.909,5.85,5.821,5.821,5.792,5.763,0,5.707,5.707,5.707,5.679,5.679,5.679,5.679,5.679,5.651,5.651,5.651,5.651,5.651,5.679,5.679,5.679,5.707,5.707,5.707,5.679,5.679,5.651,5.624,5.597,5.57,5.543,5.517,5.465,5.44,5.389,5.316,5.244,5.22,5.106,5.106,5.04,5.018,5.018,4.996,4.996,4.975,4.975,4.975,4.954,4.933,4.912,4.912,4.912,4.891,4.891,4.891,4.891,4.891,4.891,4.891,4.891,4.891,4.891,4.891,4.912,4.912,4.912,4.912,4.912,4.912,4.912,4.912,4.912,4.912,4.912,4.912,4.912,4.912,4.891,4.891,4.891,4.871,4.871,4.871,4.851,4.851,4.83,4.81,4.81,4.81,4.791,4.771,4.771,4.752,4.752,4.752,4.752,4.752,4.752,4.752,4.732,4.732,4.732,4.713,4.713,4.694,4.694,4.694,4.694,4.694,4.657,4.694,4.694,4.694,4.713,4.713,4.694,4.694,4.657,4.657,4.638,4.638,4.638,4.601,4.601,4.601,4.601,4.638,4.638,4.657,4.694,4.732,4.771,4.791,4.81,4.83,4.83,4.851,4.851,4.851,4.851,4.851,4.83,4.83,4.83,4.81,4.81,4.81,4.81,4.791,4.791,4.81,4.81,4.81,4.83,4.83,4.83,4.851,4.851,4.871,4.891,4.891,4.912,4.912,4.933,4.954,4.975,4.975,4.996,4.996,5.018,5.018,5.018,5.018,5.04,5.04,5.084,5.084,5.106,5.106,5.084,5.084,5.084,5.018,4.996,4.975,4.933,4.912,4.891,4.871,4.851,4.83,4.81,4.81,4.771,4.771,4.771,4.732,4.732,0,0,0,2.164,2.164,2.164,2.164,2.164,2.164,2.164,2.172,2.176,2.18,2.184,2.188,2.196,2.201,2.205,2.209,2.213,2.217,2.222,2.23,2.23,2.234,2.234,2.23,2.222,2.217,2.213,2.205,2.196,2.188,2.172,2.148,2.12,2.109,2.098,2.09,2.09,2.086,2.079,2.079,2.071,2.068,2.06,2.053,2.039,2.018,2.014,2.004,2.004,2.004,2.018,2.028,2.039,2.05,2.053,2.06,2.06,2.06,2.06,2.032,2.025,2.004,0,0,0,1.96,1.94,1.899,1.875,1.863,1.848,0,1.822,1.791,1.761,1.745,1.735,1.722,1.72,1.714,1.709,1.704,1.699,1.699,1.697,1.695,1.692,1.69,1.69,1.68,1.675,1.661,1.651,1.637,1.626,1.619,1.612,1.588,1.573,1.563,1.554,1.548,1.544,1.54,1.534,1.526,1.518,1.5,1.496,1.491,1.489,1.487,1.485,1.483,1.481,1.479,1.475,1.474,1.47,1.464,1.459,1.453,1.452,1.441,1.439,1.437,1.435,1.435,1.435,1.434,1.432,1.434,1.432,1.432,1.432,1.432,1.432,1.43,1.43,1.43,1.427,1.425,1.423,1.421,1.42,1.418,1.376,0,0,1.227,1.215,1.21,1.206,1.204,1.2,1.199,1.196,1.195,1.194,1.193,1.193,1.193,1.192,1.192,1.192,1.192,1.193,1.193,1.193,1.194,1.195,1.196,1.198,1.199,1.2,1.201,1.201,1.2,1.2,1.198,1.196,1.196,1.195,1.193,1.192,1.192,1.19,1.189,1.188,1.185,1.184,1.181,1.179,1.176,1.172,1.171,1.169,1.168,1.165,1.165,1.165,1.165,1.165,1.168,1.168,1.169,1.168,1.169,1.168,1.168,1.168,1.165,1.164,1.164,1.164,1.164,1.162,1.163,0,0,0,0,0,0
0,0,0,0,0,0,0,5.268,5.084,4.996,4.954,4.891,4.851,4.83,4.83,4.81,4.791,4.791,4.791,4.791,4.771,4.771,4.752,4.732,4.732,4.713,4.713,4.694,4.694,4.694,4.694,4.694,4.713,4.732,4.732,4.771,4.791,4.81,4.81,4.81,4.83,4.83,4.83,4.851,4.851,4.851,4.851,4.851,4.851,4.851,4.851,4.851,4.851,4.851,4.871,4.871,4.891,4.891,4.891,4.912,4.912,4.912,4.912,4.912,4.912,4.912,4.891,4.891,4.891,4.891,4.891,4.891,4.891,4.891,4.891,4.891,4.891,4.891,4.912,4.912,4.933,4.975,5.018,5.084,5.151,5.244,5.34,5.44,0,5.517,5.57,5.597,5.651,5.735,5.821,5.939,6.095,6.159,6.327,6.361,6.432,6.467,6.467,6.432,6.361,6.327,6.259,6.159,6.127,6.095,5.939,0,0,0,0,0,0,0,0,0,0,0,0,0,0,0,0,0,0,0,0,0,0,0,0,0,0,0,0,0,0,0,0,0,0,0,0,0,0,0,0,0,0,7.559,7.813,7.919,8.028,8.028,8.084,8.084,8.084,8.028,0,0,7.973,7.919,7.761,7.511,0,6.69,0,0,0,0,0,0,0,0,0,0,0,0,5.651,5.651,0,5.651,0,5.597,5.597,5.597,5.597,5.57,5.57,5.57,5.543,5.543,5.543,5.543,5.543,5.57,5.597,5.597,5.624,5.624,5.624,5.651,5.624,5.597,5.597,5.57,5.543,5.517,5.465,5.44,5.389,5.34,5.268,5.244,5.106,5.084,5.084,5.04,5.018,5.018,4.996,4.996,4.996,4.975,4.975,4.954,4.954,4.933,4.912,4.912,4.912,4.891,4.891,4.891,4.891,4.891,4.891,4.891,4.891,4.891,4.891,4.891,4.891,4.891,4.912,4.912,4.912,4.912,4.912,4.912,4.912,4.912,4.912,4.891,4.891,4.891,4.891,4.871,4.871,4.851,4.851,4.851,4.83,4.83,4.83,4.81,4.81,4.791,4.771,4.752,4.752,4.732,4.732,4.732,4.732,4.732,4.732,4.713,4.713,4.694,4.694,4.694,4.657,4.657,4.638,4.638,4.638,4.638,4.638,4.638,4.638,4.657,4.657,4.657,4.638,4.638,4.601,4.601,4.583,4.565,4.565,4.53,4.53,4.53,4.53,4.565,4.583,4.601,4.657,4.713,4.752,4.791,4.81,4.83,4.851,4.871,4.871,4.871,4.871,4.851,4.851,4.83,4.83,4.83,4.81,4.81,4.81,4.81,4.81,4.81,4.81,4.81,4.83,4.83,4.83,4.851,4.851,4.871,4.891,4.891,4.912,4.912,4.933,4.933,4.954,4.954,4.975,4.996,4.996,5.018,5.018,5.04,5.04,5.084,5.084,5.084,5.084,5.084,5.106,5.084,5.084,5.018,4.996,4.975,4.933,4.912,4.891,4.891,4.851,4.83,4.81,4.81,4.791,4.791,4.791,4.771,4.771,4.771,0,0,0,2.164,2.16,2.164,2.16,2.16,2.164,2.164,2.172,2.172,2.18,2.184,2.192,2.196,2.201,2.205,2.209,2.217,2.217,2.222,2.226,2.226,2.226,2.226,2.217,2.213,2.205,2.196,2.188,2.172,2.12,2.098,2.086,2.079,2.071,2.064,2.057,2.042,2.028,2.018,2.007,1.993,1.976,1.97,1.963,1.96,1.953,1.95,1.953,1.953,1.96,1.963,1.966,1.973,1.973,1.976,1.976,1.98,0,1.97,1.963,1.842,0,1.934,1.918,1.875,1.872,1.857,1.842,1.825,1.799,1.783,1.775,1.761,1.748,1.745,1.738,1.727,1.722,1.714,1.709,1.704,1.699,1.699,1.697,1.692,1.692,1.69,1.687,1.68,1.673,1.661,1.651,1.637,1.628,1.619,1.612,1.586,1.571,1.56,1.552,1.546,1.542,1.536,1.528,1.522,1.514,1.5,1.494,1.491,1.489,1.489,1.485,1.483,1.483,1.481,1.479,1.475,1.472,1.464,1.459,1.457,1.452,1.441,1.437,1.435,1.435,1.434,1.432,1.432,1.432,1.432,1.432,1.432,1.432,1.432,1.432,1.43,1.43,1.428,1.427,1.425,1.423,1.421,1.42,1.388,0,0,1.229,1.216,1.21,1.208,1.206,1.203,1.2,1.198,1.196,1.195,1.193,1.193,1.192,1.192,1.192,1.192,1.192,1.192,1.192,1.193,1.193,1.195,1.195,1.196,1.198,1.199,1.201,1.203,1.203,1.201,1.2,1.199,1.198,1.196,1.195,1.193,1.192,1.192,1.19,1.189,1.187,1.185,1.183,1.181,1.177,1.176,1.175,1.171,1.169,1.169,1.168,1.168,1.165,0,1.168,0,1.168,1.169,1.168,1.169,1.169,1.168,1.168,1.165,1.165,1.164,1.164,1.164,1.162,1.163,0,0,0,0,0,0
0,0,0,0,0,5.316,5.244,5.106,5.018,4.954,4.912,4.871,4.83,4.81,4.81,4.771,4.752,4.752,4.752,4.752,4.752,4.732,4.713,4.713,4.694,4.694,4.694,4.657,4.657,4.657,4.657,4.694,4.694,4.713,4.732,4.752,4.791,4.791,4.81,4.81,4.83,4.83,4.851,4.851,4.851,4.851,4.851,4.871,4.871,4.871,4.871,4.871,4.871,4.871,4.891,4.891,4.912,4.912,4.912,4.912,4.912,4.933,4.933,4.933,4.912,4.912,4.912,4.912,4.912,4.891,4.891,4.891,4.891,4.891,4.891,4.891,4.891,4.891,4.912,4.912,4.933,4.954,4.996,5.018,5.106,5.22,5.268,5.389,5.465,5.517,5.543,0,5.597,5.651,5.679,5.735,5.792,5.85,6.001,6.032,6.127,6.159,6.225,6.159,6.001,5.939,5.909,5.85,5.821,5.679,5.624,5.517,5.34,0,0,0,0,0,0,0,0,0,0,0,0,0,0,0,0,4.851,4.891,4.891,4.912,0,0,3.933,3.933,3.946,0,0,0,0,0,0,0,0,0,0,0,0,0,0,0,0,6.54,6.768,7.231,7.368,7.659,7.813,7.866,7.709,7.559,7.415,7.322,0,0,0,0,0,0,0,0,0,0,0,0,0,0,0,0,5.57,5.543,5.543,5.543,5.543,5.543,5.465,5.465,5.44,5.44,5.44,5.415,5.389,5.389,5.34,5.389,5.389,5.415,5.465,5.491,5.517,5.543,5.543,5.543,5.543,5.543,5.543,5.543,5.491,5.465,5.44,5.415,5.34,5.268,5.244,5.22,5.106,5.084,5.04,5.018,5.018,4.996,4.996,4.975,4.996,4.975,4.975,4.975,4.954,4.954,4.933,4.933,4.912,4.912,4.891,4.891,4.891,4.891,4.891,4.891,4.891,4.891,4.891,4.891,4.891,4.891,4.891,4.891,4.912,4.912,4.912,4.912,4.912,4.912,4.912,4.891,4.891,4.891,4.891,4.891,4.871,4.851,4.851,4.851,4.83,4.83,4.83,4.81,4.791,4.791,4.771,4.752,4.732,4.732,4.713,4.713,4.713,4.713,4.713,4.694,4.657,4.657,4.657,4.657,4.638,4.601,4.601,4.601,4.601,4.583,4.601,4.601,4.601,4.601,4.601,4.601,4.601,4.583,4.583,4.565,4.53,4.53,4.512,4.477,4.477,4.46,4.477,4.477,4.512,4.53,4.565,4.638,4.694,4.752,4.791,4.83,4.851,4.871,4.891,4.891,4.891,4.891,4.871,4.851,4.851,4.83,4.83,4.83,4.81,4.81,4.81,4.81,4.81,4.81,4.83,4.83,4.83,4.851,4.851,4.851,4.871,4.891,4.891,4.891,4.912,4.912,4.933,4.933,4.954,4.975,4.975,4.996,4.996,5.018,5.018,5.04,5.04,5.084,5.084,5.084,5.084,5.084,5.084,5.084,5.084,4.996,4.975,4.954,4.912,4.912,4.891,4.851,4.851,4.83,4.81,4.81,4.81,4.81,4.791,4.791,0,0,0,0,2.152,2.152,2.152,2.148,2.148,2.148,2.148,2.152,2.16,2.172,2.18,2.184,2.196,2.196,2.201,2.205,2.213,2.213,2.213,2.217,2.217,2.217,2.213,2.205,2.201,2.192,2.172,2.144,2.09,2.079,2.068,2.05,2.028,2.004,1.99,1.983,1.976,1.973,1.963,1.957,1.947,1.931,1.924,1.908,1.89,1.887,1.881,1.881,0,1.89,1.899,1.902,1.918,1.921,1.924,1.931,1.931,1.921,1.912,1.899,1.828,1.828,1.866,1.86,1.845,1.813,1.813,1.794,1.785,1.78,1.772,1.761,1.756,1.745,1.74,1.73,1.727,1.72,1.714,1.709,1.704,1.699,1.697,1.695,1.692,1.69,1.687,1.682,1.677,1.668,1.661,1.651,1.637,1.628,1.621,1.612,1.586,1.571,1.558,1.552,1.546,1.54,1.534,1.526,1.518,1.512,1.498,1.494,1.492,1.491,1.489,1.487,1.485,1.483,1.483,1.481,1.477,1.474,1.47,1.464,1.457,1.452,1.441,1.437,1.435,1.434,1.434,1.432,1.432,1.432,1.432,1.432,1.432,1.432,1.43,1.43,1.43,1.43,1.427,1.427,1.425,1.423,1.421,1.418,1.378,0,0,1.223,1.214,1.208,1.206,1.204,1.201,1.198,1.196,1.195,1.193,1.193,1.192,1.192,1.19,1.19,1.19,1.19,1.19,1.192,1.192,1.193,1.193,1.195,1.196,1.198,1.199,1.201,1.203,1.203,1.203,1.2,1.2,1.198,1.196,1.195,1.193,1.192,1.19,1.19,1.188,1.185,1.184,1.181,1.179,1.177,1.175,1.172,1.171,1.169,1.168,1.168,1.165,1.165,0,1.168,0,1.169,1.169,1.169,1.169,1.168,1.168,1.168,1.165,1.165,1.164,1.164,1.163,1.163,1.163,0,0,0,0,0,0
0,0,0,0,5.316,5.244,5.174,5.106,4.975,4.912,4.891,4.851,4.81,4.771,4.771,4.713,4.713,4.694,4.713,4.713,4.694,4.694,4.657,4.638,4.601,4.601,4.601,4.583,4.583,4.601,4.601,4.638,4.657,4.694,4.713,4.752,4.771,4.791,4.81,4.81,4.83,4.83,4.851,4.851,4.871,4.871,4.871,4.871,4.891,4.891,4.891,4.891,4.891,4.891,4.891,4.912,4.912,4.933,4.954,4.954,4.954,4.954,4.975,4.954,4.954,4.933,4.912,4.912,4.912,4.912,4.912,4.912,4.891,4.891,4.891,4.891,4.891,4.912,4.912,4.912,4.933,4.954,4.975,5.018,5.084,5.151,5.22,5.316,5.415,5.465,5.517,5.543,5.57,5.597,5.597,5.651,5.651,5.707,5.735,5.792,5.821,5.909,5.909,5.821,5.792,5.735,5.679,5.679,5.651,5.517,5.316,4.871,4.771,4.565,4.36,0,0,3.817,3.817,3.829,0,0,4.056,3.92,3.842,3.88,3.893,4.249,4.188,4.085,4.264,3.906,3.92,3.92,3.92,3.92,3.92,3.933,3.946,3.946,3.973,3.987,4.014,4.028,4.056,4.07,4.07,0,0,0,0,0,0,0,0,0,6.54,6.729,6.929,7.231,7.322,7.186,6.929,6.768,6.69,0,0,0,0,0,0,0,0,0,0,0,0,5.465,5.465,5.415,5.415,5.415,5.389,5.389,5.389,5.389,5.389,5.316,5.316,5.268,5.244,5.244,5.22,5.22,5.22,5.174,5.174,5.22,5.244,5.268,5.316,5.389,5.389,5.415,5.44,5.44,5.44,5.415,5.415,5.389,5.34,5.316,5.268,5.244,5.22,5.174,5.084,5.04,5.018,5.018,5.018,4.996,4.996,4.975,4.975,4.975,4.975,4.975,4.975,4.954,4.954,4.933,4.933,4.912,4.912,4.891,4.891,4.891,4.891,4.871,4.871,4.891,4.891,4.891,4.891,4.891,4.891,4.891,4.891,4.891,4.912,4.891,4.891,4.891,4.891,4.891,4.891,4.891,4.891,4.891,4.871,4.871,4.851,4.851,4.851,4.83,4.83,4.81,4.81,4.791,4.771,4.752,4.752,4.732,4.713,4.694,4.694,4.657,4.657,4.657,4.638,4.638,4.601,4.601,4.583,4.583,4.583,4.565,4.565,4.565,4.565,4.565,4.565,4.565,4.565,4.565,4.565,4.565,4.565,4.53,4.512,4.477,4.46,4.426,4.41,4.41,4.41,4.41,4.426,4.46,4.512,4.565,4.601,4.694,4.771,4.81,4.83,4.871,4.891,4.912,4.912,4.912,4.891,4.891,4.871,4.851,4.851,4.83,4.83,4.83,4.81,4.81,4.81,4.81,4.81,4.83,4.83,4.83,4.83,4.851,4.851,4.851,4.871,4.891,4.891,4.891,4.912,4.912,4.912,4.933,4.933,4.954,4.975,4.975,4.996,5.018,5.018,5.04,5.084,5.084,5.084,5.084,5.084,5.084,5.084,5.018,4.996,4.975,4.954,4.933,4.912,4.891,4.871,4.851,4.851,4.83,4.83,4.83,4.81,4.83,4.81,0,0,0,0,2.136,2.136,2.136,2.132,2.136,2.132,2.136,2.136,2.148,2.16,2.172,2.176,2.184,2.188,2.196,2.196,2.201,2.201,2.201,2.201,2.201,2.196,2.184,2.164,2.136,2.09,2.079,2.064,2.039,2.007,1.987,1.976,1.966,1.963,1.947,1.94,1.924,1.912,1.899,1.887,1.881,1.875,1.869,1.863,1.86,1.857,1.857,1.857,1.86,1.86,1.863,1.863,1.863,1.866,1.866,1.872,1.866,1.863,1.86,1.851,1.816,1.813,1.796,1.788,1.785,1.783,1.783,1.78,1.775,1.772,1.761,1.759,1.753,1.748,1.74,1.735,1.727,1.72,1.712,1.707,1.702,1.699,1.697,1.692,1.69,1.69,1.687,1.677,1.673,1.665,1.658,1.649,1.637,1.628,1.621,1.612,1.586,1.567,1.556,1.55,1.544,1.536,1.532,1.522,1.514,1.508,1.498,1.494,1.492,1.491,1.489,1.489,1.487,1.485,1.485,1.483,1.481,1.477,1.474,1.466,1.461,1.457,1.443,1.439,1.437,1.434,1.434,1.432,1.432,1.432,1.432,1.432,1.432,1.432,1.43,1.43,1.43,1.428,1.427,1.425,1.423,1.421,1.42,1.416,1.396,0,1.231,1.215,1.21,1.206,1.204,1.201,1.199,1.196,1.196,1.195,1.193,1.192,1.19,1.19,1.189,1.189,1.189,1.189,1.19,1.19,1.19,1.192,1.193,1.194,1.195,1.198,1.199,1.201,1.204,1.204,1.203,1.201,1.199,1.196,1.196,1.194,1.193,1.192,1.19,1.189,1.187,1.184,1.184,1.179,1.177,1.177,1.175,1.172,1.171,1.171,1.169,1.169,1.168,1.168,1.168,1.168,1.168,1.169,1.169,1.169,1.169,1.168,1.168,1.165,1.165,1.165,1.164,1.164,1.164,1.163,1.163,0,0,0,0,0,0
0,0,0,0,5.316,5.244,5.174,5.084,4.996,4.912,4.891,4.851,4.81,4.771,4.752,4.694,4.657,4.638,4.638,4.638,4.638,4.601,4.583,4.565,4.53,4.53,4.53,4.53,4.53,4.565,4.583,4.601,4.638,4.657,4.713,4.732,4.771,4.791,4.791,4.81,4.83,4.83,4.851,4.871,4.871,4.871,4.891,4.891,4.891,4.891,4.891,4.891,4.912,4.912,4.912,4.933,4.954,4.975,4.975,4.996,4.996,4.996,4.996,4.996,4.975,4.954,4.933,4.933,4.912,4.912,4.912,4.912,4.891,4.891,4.891,4.891,4.912,4.912,4.912,4.912,4.912,4.933,4.954,4.996,5.04,5.106,5.174,5.244,5.316,5.389,5.44,5.491,5.517,5.543,5.543,5.57,5.597,5.624,5.651,5.679,5.679,5.707,5.707,5.679,5.679,5.651,5.624,5.57,5.465,5.174,4.752,4.477,0,3.987,3.842,0,3.817,3.817,3.804,3.817,3.817,3.817,3.817,3.817,3.829,3.842,3.842,3.855,3.855,3.868,3.868,3.893,3.893,3.893,3.906,3.906,3.906,3.92,3.933,3.933,3.946,3.973,3.987,4.014,4.028,4.056,4.056,4.085,4.173,4.249,0,0,0,0,0,0,0,0,6.396,6.54,6.614,6.54,6.396,6.225,6.032,5.85,5.735,5.707,5.651,5.597,5.57,5.57,5.543,5.491,5.389,5.268,5.268,5.244,5.268,5.22,5.22,5.22,5.22,5.22,5.22,5.22,5.22,5.151,5.106,5.106,5.084,5.084,5.084,5.04,5.018,5.018,5.018,5.04,5.084,5.106,5.151,5.174,5.174,5.22,5.244,5.244,5.244,5.244,5.244,5.22,5.174,5.174,5.151,5.151,5.106,5.04,5.018,5.018,4.996,4.996,4.996,4.996,4.975,4.975,4.975,4.975,4.975,4.975,4.975,4.954,4.954,4.954,4.933,4.912,4.912,4.912,4.891,4.891,4.891,4.891,4.891,4.891,4.891,4.891,4.891,4.891,4.891,4.891,4.891,4.891,4.912,4.912,4.912,4.912,4.912,4.912,4.912,4.891,4.891,4.891,4.891,4.871,4.851,4.851,4.851,4.83,4.83,4.81,4.791,4.771,4.771,4.752,4.732,4.713,4.694,4.657,4.657,4.638,4.638,4.601,4.583,4.583,4.583,4.565,4.53,4.53,4.53,4.53,4.53,4.512,4.512,4.512,4.53,4.53,4.53,4.53,4.53,4.512,4.477,4.477,4.46,4.426,4.41,4.41,4.393,4.376,4.393,4.393,4.41,4.46,4.512,4.565,4.638,4.732,4.791,4.83,4.851,4.891,4.912,4.933,4.933,4.912,4.912,4.891,4.891,4.871,4.851,4.851,4.83,4.83,4.83,4.83,4.83,4.83,4.83,4.83,4.83,4.83,4.83,4.851,4.851,4.851,4.871,4.871,4.891,4.891,4.891,4.891,4.912,4.912,4.912,4.933,4.954,4.954,4.975,4.996,5.018,5.04,5.04,5.04,5.084,5.084,5.084,5.084,5.084,5.018,4.996,4.975,4.954,4.912,4.912,4.891,4.871,4.851,4.851,4.851,4.851,4.851,4.851,4.851,4.851,4.851,0,0,0,0,0,2.12,2.12,2.113,2.113,2.12,2.12,2.124,2.132,2.136,2.136,2.144,2.148,2.148,2.144,2.144,2.136,2.124,2.113,2.109,2.086,2.079,2.068,2.05,2.025,1.997,1.98,1.97,1.96,1.934,1.918,1.902,1.89,1.884,1.878,1.872,1.869,1.866,1.86,1.854,1.848,1.842,1.833,1.822,1.816,1.813,1.813,1.813,1.816,1.816,1.822,1.816,1.822,1.822,1.816,1.813,1.805,1.796,1.794,1.791,1.785,1.783,1.78,1.775,1.775,1.775,1.775,1.772,1.769,1.767,1.759,1.756,1.748,1.74,1.735,1.727,1.72,1.712,1.707,1.702,1.697,1.695,1.692,1.69,1.685,1.685,1.675,1.668,1.661,1.656,1.649,1.637,1.628,1.621,1.612,1.586,1.567,1.556,1.548,1.544,1.536,1.528,1.52,1.514,1.502,1.498,1.496,1.492,1.492,1.491,1.491,1.489,1.489,1.485,1.485,1.483,1.481,1.477,1.472,1.466,1.459,1.453,1.441,1.437,1.435,1.434,1.432,1.432,1.432,1.432,1.432,1.432,1.432,1.43,1.43,1.428,1.427,1.427,1.423,1.421,1.418,1.416,1.383,0,0,1.225,1.211,1.208,1.206,1.203,1.201,1.198,1.196,1.195,1.194,1.192,1.19,1.19,1.189,1.189,1.188,1.188,1.187,1.188,1.189,1.19,1.192,1.193,1.194,1.195,1.196,1.199,1.201,1.204,1.204,1.204,1.201,1.199,1.198,1.196,1.194,1.193,1.192,1.19,1.189,1.187,1.184,1.183,1.181,1.179,0,0,0,0,0,0,0,0,0,0,0,0,1.169,1.169,1.169,1.169,1.168,1.168,1.165,1.165,1.164,1.164,1.163,1.163,1.163,0,0,0,0,0,0,0
0,0,0,5.316,5.316,5.268,5.22,5.106,4.996,4.933,4.891,4.851,4.83,4.771,4.752,4.694,4.657,4.601,4.601,4.583,4.583,4.565,4.512,4.477,4.477,4.477,4.477,4.477,4.477,4.512,4.53,4.583,4.601,4.657,4.694,4.732,4.752,4.771,4.791,4.81,4.83,4.83,4.851,4.871,4.891,4.891,4.891,4.891,4.912,4.912,4.912,4.933,4.933,4.933,4.954,4.975,4.996,5.018,5.018,5.018,5.04,5.04,5.018,5.018,5.018,4.975,4.954,4.933,4.933,4.912,4.912,4.912,4.912,4.912,4.912,4.912,4.912,4.912,4.912,4.912,4.933,4.933,4.954,4.975,5.018,5.084,5.151,5.22,5.268,5.34,5.389,5.415,5.465,5.491,5.491,5.517,5.543,5.57,5.57,5.597,5.597,5.624,5.624,5.597,5.597,5.57,5.543,5.415,5.151,4.891,0,0,3.906,3.855,3.829,3.817,3.817,3.804,3.804,3.804,3.804,3.804,3.804,3.804,3.817,3.817,3.829,3.842,3.855,3.855,3.868,3.868,3.88,3.88,3.893,3.893,3.893,3.906,3.92,3.933,3.946,3.946,3.987,3.987,4.028,4.056,4.056,4.07,4.128,4.173,4.264,4.393,4.694,0,0,0,0,0,5.821,6.001,6.032,6.001,5.909,5.821,5.735,5.679,5.624,5.624,0,5.543,5.491,5.44,5.34,5.244,5.244,5.174,5.151,5.106,5.151,5.106,5.106,5.106,5.106,5.106,5.106,5.084,5.04,5.018,5.018,4.996,4.996,4.975,4.975,4.954,4.954,4.933,4.954,4.954,4.975,4.975,4.996,5.04,5.04,5.084,5.106,5.106,5.106,5.151,5.106,5.106,5.106,5.084,5.084,5.04,5.04,5.018,5.018,4.996,4.996,4.996,4.996,4.975,4.975,4.975,4.975,4.975,4.975,4.975,4.975,4.975,4.975,4.954,4.954,4.933,4.912,4.912,4.912,4.891,4.891,4.891,4.891,4.891,4.891,4.891,4.891,4.891,4.891,4.891,4.912,4.912,4.912,4.912,4.912,4.912,4.912,4.912,4.912,4.912,4.912,4.912,4.891,4.891,4.891,4.871,4.851,4.851,4.83,4.81,4.791,4.771,4.752,4.732,4.713,4.694,4.694,4.638,4.601,4.601,4.583,4.565,4.565,4.53,4.512,4.512,4.512,4.477,4.477,4.46,4.46,4.46,4.46,4.46,4.46,4.477,4.477,4.477,4.477,4.46,4.46,4.426,4.41,4.41,4.393,4.376,4.376,4.376,4.376,4.393,4.426,4.477,4.53,4.601,4.694,4.771,4.83,4.851,4.891,4.912,4.933,4.975,4.975,4.954,4.933,4.912,4.891,4.891,4.851,4.851,4.83,4.83,4.83,4.83,4.83,4.83,4.83,4.83,4.83,4.83,4.83,4.83,4.851,4.851,4.851,4.851,4.871,4.871,4.891,4.891,4.891,4.891,4.912,4.912,4.933,4.954,4.975,4.996,4.996,5.018,5.04,5.04,5.04,5.084,5.084,5.084,5.04,5.018,4.996,4.954,4.933,4.912,4.912,4.891,4.891,4.871,4.871,4.851,4.851,4.851,4.851,4.851,4.851,4.851,0,0,0,0,0,0,2.101,2.101,2.098,2.09,2.09,2.09,2.086,2.086,2.079,2.079,2.079,2.075,2.075,2.068,2.06,2.05,2.039,2.025,2.004,1.987,1.976,1.966,1.96,1.924,1.908,1.89,1.878,1.875,1.866,1.863,1.86,1.857,1.851,1.842,1.833,1.825,1.822,1.805,1.799,1.794,1.791,1.785,1.785,1.783,1.785,1.785,1.788,1.788,1.791,1.791,1.791,1.788,1.788,1.785,1.783,1.783,1.783,1.78,1.78,1.775,1.775,1.775,1.775,1.772,1.772,1.769,1.769,1.767,1.761,1.756,1.748,1.74,1.738,1.73,1.72,1.712,1.707,1.702,1.697,1.695,1.69,1.687,1.682,1.673,1.665,1.658,1.658,1.651,1.644,1.637,1.628,1.621,1.615,1.586,1.571,1.556,1.55,1.544,1.536,1.528,1.52,1.514,1.512,1.5,1.498,1.496,1.494,1.492,1.491,1.491,1.489,1.489,1.487,1.485,1.483,1.481,1.475,1.47,1.461,1.457,1.443,1.439,1.437,1.435,1.434,1.432,1.432,1.432,1.432,1.432,1.43,1.43,1.428,1.427,1.427,1.425,1.421,1.416,1.413,1.408,1.403,0,1.236,1.223,1.21,1.208,1.206,1.203,1.2,1.198,1.196,1.195,1.194,1.192,1.19,1.189,1.188,1.187,1.187,1.185,1.187,1.187,1.188,1.189,1.19,1.192,1.193,1.195,1.196,1.198,1.201,1.203,0,0,0,0,0,0,0,0,0,0.801,0.803,0.806,0.81,0.812,0.814,0.816,0.816,0.816,0.816,0.816,0,0,0,0,0,0,0,0,0,0,0,1.168,1.168,1.168,1.165,1.165,1.164,1.164,1.163,1.163,0,0,0,0,0,0,0,0
0,0,0,5.316,5.316,5.268,5.244,5.106,5.018,4.954,4.891,4.871,4.83,4.81,4.752,4.713,4.657,4.601,4.583,4.565,4.53,4.477,4.426,4.41,4.393,4.393,4.393,4.426,4.426,4.46,4.477,4.53,4.583,4.638,4.713,4.732,4.752,4.771,4.791,4.81,4.83,4.83,4.851,4.871,4.871,4.891,4.891,4.912,4.912,4.933,4.954,4.954,4.975,4.996,5.018,5.04,5.04,5.084,5.084,5.084,5.084,5.084,5.084,5.04,5.018,4.996,4.975,4.954,4.933,4.933,4.912,4.912,4.912,4.912,4.912,4.912,4.912,4.912,4.912,4.912,4.933,4.933,4.954,4.975,5.018,5.04,5.106,5.174,5.244,5.268,5.34,5.389,5.415,5.44,5.465,5.465,5.491,5.517,5.543,5.543,5.543,5.57,5.57,5.543,5.543,5.491,5.389,5.151,4.912,0,0,3.933,3.868,3.842,3.829,3.817,3.817,3.804,3.804,3.804,3.804,3.804,3.792,3.804,3.804,3.804,3.817,3.817,3.829,3.829,3.855,3.855,3.868,3.868,3.868,3.88,3.893,3.893,3.906,3.906,3.92,3.946,3.973,3.987,4.014,4.028,4.07,4.085,4.158,4.188,4.249,4.296,4.426,4.694,0,0,0,0,5.57,5.651,5.679,5.707,5.679,5.651,5.624,5.597,5.57,5.543,5.465,5.44,5.415,5.316,5.268,5.244,5.174,5.151,5.084,5.084,5.04,5.018,5.018,5.018,5.018,4.996,5.018,4.996,4.996,4.975,4.954,4.954,4.933,4.912,4.912,4.912,4.912,4.912,4.912,4.912,4.912,4.933,4.954,4.975,4.996,4.996,5.018,5.018,5.018,5.018,5.018,5.04,5.018,5.018,5.018,5.018,4.996,4.996,4.996,4.996,4.975,4.975,4.975,4.975,4.975,4.975,4.975,4.975,4.975,4.975,4.975,4.975,4.975,4.975,4.954,4.933,4.912,4.912,4.912,4.912,4.891,4.891,4.891,4.891,4.912,4.912,4.912,4.912,4.912,4.912,4.912,4.912,4.912,4.912,4.912,4.912,4.912,4.912,4.912,4.912,4.912,4.912,4.912,4.912,4.912,4.891,4.871,4.851,4.851,4.81,4.791,4.771,4.752,4.732,4.713,4.657,4.638,4.601,4.583,4.565,4.53,4.512,4.512,4.477,4.46,4.46,4.46,4.426,4.426,4.426,4.41,4.41,4.41,4.41,4.41,4.41,4.426,4.426,4.426,4.426,4.41,4.393,4.393,4.393,4.393,4.376,4.376,4.393,4.41,4.426,4.46,4.53,4.601,4.694,4.752,4.81,4.851,4.891,4.912,4.954,4.975,4.996,4.975,4.975,4.933,4.912,4.891,4.891,4.851,4.851,4.83,4.83,4.83,4.83,4.83,4.83,4.83,4.83,4.83,4.83,4.83,4.83,4.83,4.851,4.851,4.851,4.851,4.851,4.871,4.871,4.891,4.891,4.891,4.912,4.933,4.933,4.954,4.975,4.996,5.018,5.04,5.04,5.04,5.04,5.04,5.04,5.018,4.996,4.975,4.954,4.933,4.912,4.912,4.891,4.891,4.891,4.871,4.871,4.871,4.871,4.871,4.871,4.871,4.871,0,0,0,0,0,2.068,2.064,2.06,2.057,2.053,2.05,2.039,2.025,2.014,2.007,2.007,1.997,1.99,1.987,1.976,1.973,1.966,1.963,1.957,1.943,1.908,1.89,1.881,1.875,1.866,1.863,1.86,1.851,1.845,1.833,1.828,1.825,1.816,1.813,1.794,1.788,1.785,1.783,1.783,1.78,1.777,1.775,1.775,1.775,1.775,1.775,1.775,1.775,1.777,1.78,1.78,1.78,1.78,1.78,1.78,1.78,1.78,1.78,1.78,1.777,1.777,1.775,1.775,1.775,1.772,1.772,1.769,1.769,1.767,1.761,1.759,1.753,1.745,1.738,1.73,1.722,1.712,1.707,1.699,1.697,1.692,1.69,1.687,1.68,1.665,1.658,1.656,1.649,1.644,1.637,1.633,1.626,1.621,1.615,1.606,1.571,1.556,1.55,1.544,1.536,1.532,1.522,1.518,1.512,1.508,1.5,1.498,1.496,1.496,1.494,1.492,1.491,1.489,1.489,1.485,1.483,1.481,1.477,1.472,1.466,1.459,1.453,1.441,1.439,1.437,1.435,1.434,1.432,1.432,1.432,1.432,1.43,1.43,1.428,1.427,1.425,1.423,1.418,1.409,1.403,1.392,0,0,1.232,1.215,1.21,1.208,1.206,1.203,1.2,1.198,1.196,1.195,1.194,1.19,1.19,1.188,1.188,1.185,1.185,1.184,1.184,1.185,1.185,1.188,1.19,1.192,1.193,1.193,1.195,1.196,0,0,0,0,0,0,0,0,0,0.8,0.801,0.801,0.804,0.807,0.81,0.812,0.815,0.816,0.817,0.817,0.817,0.817,0.817,0.818,0.818,0,0,0,0,0,0,0,0,0,0,1.165,1.165,1.164,1.164,1.163,1.163,0,0,0,0,0,0,0,0,0
0,0,5.244,5.22,5.22,5.151,5.22,5.106,5.018,4.954,4.912,4.891,4.851,4.81,4.771,4.713,4.657,4.601,4.565,4.53,4.512,4.426,4.393,4.376,4.36,4.36,4.376,4.376,4.41,4.426,4.46,4.53,4.565,4.638,4.694,4.713,4.732,4.771,4.791,4.81,4.83,4.83,4.851,4.871,4.891,4.891,4.891,4.912,4.933,4.954,4.975,4.996,5.018,5.04,5.084,5.084,5.106,5.151,5.151,5.151,5.151,5.106,5.106,5.084,5.04,5.018,4.996,4.954,4.933,4.933,4.912,4.912,4.912,4.912,4.912,4.912,4.912,4.912,4.912,4.912,4.933,4.933,4.954,4.975,5.018,5.04,5.106,5.151,5.22,5.244,5.316,5.34,5.389,5.415,5.44,5.44,5.44,5.465,5.491,5.517,5.517,5.517,5.517,5.465,5.465,5.34,5.151,4.912,0,0,3.973,3.88,3.829,3.817,3.804,3.804,3.804,3.792,3.792,3.792,3.792,3.78,3.78,3.78,3.792,3.792,3.792,3.804,3.804,3.817,3.817,3.829,3.842,3.842,3.855,3.855,3.868,3.88,3.893,3.906,3.92,3.933,3.973,4.014,4.028,4.07,4.114,4.128,4.188,4.203,4.264,4.296,4.36,4.565,0,0,0,0,5.316,5.491,5.543,5.57,5.597,5.57,5.57,5.543,5.491,5.465,5.44,5.389,5.268,5.268,5.244,5.174,5.151,5.106,5.084,5.04,5.018,4.996,4.996,4.996,4.975,4.954,4.954,4.954,4.933,4.933,4.912,4.912,4.891,4.891,4.891,4.891,4.891,4.871,4.871,4.891,4.891,4.891,4.912,4.912,4.912,4.933,4.933,4.954,4.954,4.975,4.975,4.996,4.996,4.975,4.975,4.975,4.975,4.975,4.975,4.975,4.975,4.954,4.954,4.954,4.954,4.975,4.975,4.975,4.975,4.975,4.975,4.975,4.975,4.975,4.954,4.954,4.933,4.912,4.912,4.912,4.912,4.912,4.912,4.912,4.912,4.912,4.912,4.912,4.912,4.912,4.912,4.912,4.912,4.912,4.912,4.933,4.933,4.933,4.933,4.954,4.954,4.954,4.954,4.933,4.912,4.912,4.891,4.891,4.851,4.81,4.791,4.752,4.732,4.713,4.657,4.638,4.601,4.583,4.565,4.53,4.512,4.477,4.46,4.426,4.426,4.41,4.41,4.393,4.393,4.393,4.393,4.393,4.393,4.393,4.393,4.393,4.393,4.393,4.393,4.393,4.393,4.393,4.376,4.393,4.393,4.393,4.41,4.41,4.46,4.477,4.53,4.601,4.694,4.752,4.81,4.851,4.891,4.912,4.954,4.996,4.996,5.018,5.018,4.975,4.954,4.912,4.891,4.891,4.851,4.851,4.83,4.83,4.83,4.83,4.83,4.83,4.83,4.83,4.83,4.83,4.83,4.83,4.83,4.851,4.851,4.851,4.851,4.851,4.851,4.871,4.871,4.871,4.891,4.912,4.912,4.912,4.933,4.954,4.975,4.996,5.018,5.018,5.018,5.018,5.018,5.018,5.018,4.975,4.975,4.954,4.933,4.912,4.912,4.891,4.891,4.891,4.871,4.871,4.871,4.871,4.891,4.871,4.891,4.871,0,0,0,0,1.976,1.976,1.976,1.976,1.976,1.973,1.973,1.973,1.966,1.963,1.96,1.96,1.95,1.943,1.934,0,1.893,1.881,1.875,1.869,1.863,1.86,1.851,1.842,1.833,1.828,1.822,1.813,1.808,1.805,1.796,1.794,1.788,1.783,1.78,1.78,1.777,1.775,1.772,1.772,1.769,1.769,1.769,1.769,1.769,1.769,1.769,1.772,1.772,1.775,1.775,1.777,1.777,1.78,1.78,1.78,1.78,1.78,1.78,1.777,1.777,1.777,1.777,1.775,1.775,1.772,1.772,1.769,1.769,1.769,1.767,1.759,1.756,1.748,1.74,1.735,1.722,1.714,1.707,1.699,1.697,1.692,1.687,1.685,1.668,1.658,1.651,1.649,1.642,1.637,1.635,1.63,1.624,1.619,1.612,1.606,1.588,1.558,1.55,1.544,1.538,1.532,1.526,1.52,1.518,1.512,1.506,1.502,1.5,1.498,1.496,1.494,1.492,1.491,1.489,1.487,1.485,1.483,1.479,1.474,1.47,1.461,1.457,1.446,1.441,1.439,1.437,1.434,1.434,1.432,1.432,1.432,1.43,1.428,1.428,1.427,1.423,1.42,1.413,1.403,1.388,1.381,1.346,0,1.228,1.214,1.214,1.211,1.208,1.204,1.201,1.199,1.196,1.196,1.194,1.19,1.19,1.189,1.187,1.185,1.184,1.184,1.183,1.184,1.185,1.187,1.189,1.19,1.192,1.193,0,0,0,0,0,0,0,0,0,0.798,0.798,0.8,0.801,0.802,0.805,0.808,0.811,0.814,0.815,0.816,0.817,0.818,0.818,0.818,0.818,0.819,0.819,0.824,0,0,0,0,0,0,0,0,0,0,0,0,0,0,0,0,0,0,0,0,0,0,0,0
0,0,5.151,5.151,5.151,5.106,5.084,5.04,4.996,4.933,4.912,4.871,4.83,4.81,4.771,4.713,4.657,4.601,4.565,4.512,4.477,4.41,4.376,4.344,4.344,4.344,0,4.36,4.376,4.393,4.426,4.512,4.565,4.601,4.657,4.713,4.732,4.752,4.791,4.81,4.81,4.83,4.851,4.871,4.871,4.891,4.912,4.933,4.954,4.975,5.018,5.04,5.084,5.106,5.151,5.151,5.174,5.174,5.174,5.174,5.174,5.151,5.106,5.084,5.084,5.018,4.996,4.954,4.954,4.933,4.933,4.912,4.912,4.912,4.912,4.912,4.912,4.912,4.912,4.933,4.933,4.954,4.954,4.975,4.996,5.018,5.04,5.106,5.151,5.174,5.22,5.268,5.268,5.316,5.34,5.389,5.389,5.415,5.415,5.44,5.44,5.44,5.44,5.415,5.34,5.106,4.933,0,3.987,3.868,3.842,3.817,3.804,3.804,3.804,3.792,3.792,3.78,3.78,3.78,3.78,3.767,3.767,3.755,3.767,3.767,3.767,3.78,3.792,3.804,3.804,3.817,3.817,3.829,3.829,3.855,3.855,3.868,3.868,3.893,3.92,3.946,3.987,4.014,4.056,4.114,4.158,4.188,4.233,4.264,4.28,4.312,4.36,4.477,4.694,4.81,4.912,0,5.04,5.244,5.34,5.44,5.491,5.491,5.465,5.465,5.44,5.415,5.389,5.268,5.268,5.244,5.22,5.151,5.151,5.084,5.04,5.018,4.996,4.975,4.954,4.933,4.933,4.912,4.912,4.912,4.912,4.891,4.891,4.891,4.871,4.871,4.851,4.851,4.851,4.851,4.851,4.851,4.851,4.871,4.891,4.891,4.891,4.912,4.912,4.912,4.933,4.933,4.933,4.954,4.954,4.954,4.954,4.954,4.975,4.954,4.954,4.954,4.954,4.954,4.954,4.954,4.954,4.954,4.975,4.975,4.975,4.975,4.975,4.975,4.975,4.975,4.954,4.954,4.933,4.933,4.933,4.933,4.933,4.933,4.933,4.933,4.933,4.933,4.933,4.933,4.933,4.933,4.933,4.933,4.933,4.933,4.954,4.954,4.954,4.954,4.975,4.975,4.975,4.975,4.996,4.975,4.954,4.933,4.912,4.891,4.871,4.81,4.791,4.752,4.713,4.694,4.657,4.601,4.583,4.53,4.512,4.477,4.46,4.426,4.426,4.41,4.393,4.393,4.376,4.376,4.36,4.36,4.36,4.36,4.36,4.36,4.36,4.36,4.36,4.36,4.36,4.36,4.36,4.376,4.376,4.393,4.393,4.41,4.426,4.46,4.512,4.565,4.601,4.657,4.732,4.81,4.83,4.871,4.912,4.954,4.975,5.018,5.04,5.018,5.018,4.975,4.933,4.912,4.891,4.871,4.851,4.851,4.83,4.83,4.83,4.83,4.83,4.83,4.83,4.83,4.83,4.83,4.83,4.83,4.83,4.851,4.851,4.851,4.851,4.851,4.851,4.851,4.851,4.871,4.891,4.891,4.912,4.912,4.912,4.954,4.975,4.975,4.996,4.996,4.996,4.996,4.996,4.996,4.975,4.975,4.954,4.933,4.933,4.912,4.912,4.891,4.891,4.891,4.891,4.871,4.891,4.891,4.891,4.891,4.871,0,0,0,0,0,0,0,0,0,1.934,1.934,1.921,1.921,1.912,1.902,1.893,1.878,1.875,1.872,1.866,1.863,1.854,1.851,1.842,1.833,1.825,1.813,1.808,1.805,1.796,1.791,1.788,1.785,1.783,1.78,1.78,1.78,1.775,1.775,1.772,1.772,1.769,1.769,1.767,1.767,1.764,1.764,1.761,1.764,1.767,1.767,1.769,1.769,1.772,1.772,1.775,1.775,1.775,1.777,1.78,1.78,1.78,1.78,1.78,1.78,1.78,1.78,1.777,1.775,1.775,1.775,1.772,1.772,1.769,1.769,1.767,1.761,1.756,1.748,1.74,1.735,1.722,1.714,1.707,1.699,1.697,1.69,1.687,1.68,1.661,1.656,1.649,1.642,1.637,1.633,1.63,1.628,1.624,1.617,1.612,1.603,1.573,1.56,1.552,1.546,1.542,1.534,1.528,1.522,1.518,1.514,1.512,1.502,1.5,1.498,1.496,1.496,1.492,1.491,1.489,1.489,1.485,1.483,1.481,1.475,1.474,1.466,1.461,1.457,1.446,1.441,1.439,1.435,1.434,1.434,1.432,1.432,1.43,1.428,1.427,1.425,1.421,1.413,1.401,1.381,1.376,1.37,0,0,1.229,1.219,1.216,1.214,1.211,1.208,1.204,1.201,1.199,1.196,1.195,1.192,1.19,1.188,1.187,1.184,1.183,1.183,1.181,1.183,1.183,1.185,1.187,1.189,1.19,0,0,0,0,0,0,0,0,0,0,0.799,0.799,0.8,0.801,0.802,0.806,0.809,0.811,0.814,0.816,0.817,0.818,0.818,0.818,0.818,0.819,0.82,0.824,0,0.83,0.835,0,0,0.852,0.855,0.857,0,0,0,0,0,0,0,0,0,0,0,0,0,0,0,0,0
5.084,5.084,5.084,5.106,5.084,5.084,5.04,5.018,4.975,4.933,4.912,4.871,4.851,4.83,4.791,4.713,4.657,4.583,4.512,4.477,4.46,4.393,4.36,4.344,4.328,4.328,4.344,4.36,0,4.376,4.41,4.477,4.53,4.583,4.657,4.694,4.732,4.752,4.791,4.81,4.81,4.83,4.851,4.871,4.891,4.891,4.912,4.954,4.975,5.018,5.04,5.106,5.106,5.151,5.174,5.22,5.22,5.22,5.22,5.174,5.174,5.151,5.106,5.106,5.04,5.04,4.975,4.975,4.954,4.933,4.933,4.912,4.912,4.912,4.912,4.912,4.912,4.912,4.933,4.933,4.933,4.954,4.954,4.975,4.975,4.996,5.018,5.04,5.106,5.151,5.174,5.22,5.22,5.244,5.268,5.268,5.316,5.316,5.34,5.34,5.389,5.174,5.106,5.04,4.912,4.81,0,0,3.906,3.855,3.829,3.817,3.804,3.804,3.804,3.804,3.792,3.792,3.78,3.78,3.767,3.755,3.755,3.755,3.755,3.755,3.755,3.767,3.767,3.78,3.804,3.804,3.817,3.817,3.829,3.829,3.855,3.855,3.868,3.893,3.933,3.973,4.014,4.07,4.114,4.158,4.203,4.233,4.264,4.28,4.312,4.344,4.393,4.53,4.657,4.791,4.851,4.933,5.04,0,5.151,5.22,5.268,5.316,5.268,5.268,5.268,5.244,5.22,5.22,5.174,5.151,5.106,5.084,5.04,5.018,4.996,4.975,4.954,4.933,4.933,4.912,4.912,4.912,4.891,4.891,4.891,4.891,4.871,4.851,4.851,4.851,4.851,4.851,4.851,4.851,4.851,4.851,4.851,4.851,4.871,4.871,4.891,4.912,4.912,4.912,4.912,4.912,4.933,4.933,4.933,4.954,4.954,4.954,4.954,4.954,4.954,4.954,4.954,4.954,4.954,4.954,4.954,4.954,4.954,4.975,4.975,4.975,4.975,4.975,4.975,4.975,4.975,4.975,4.975,4.975,4.954,4.954,4.954,4.954,4.975,4.975,4.975,4.975,4.975,4.975,4.954,4.954,4.954,4.954,4.954,4.975,4.975,4.975,4.975,4.996,4.996,4.996,5.018,5.018,5.018,5.018,4.996,4.954,4.912,4.891,4.871,4.81,4.791,4.732,4.694,4.657,4.601,4.583,4.53,4.512,4.477,4.46,4.426,4.41,4.393,4.376,4.376,4.36,4.344,4.344,4.344,4.328,4.328,4.328,4.328,4.328,4.328,4.328,4.328,4.328,4.328,4.328,4.344,4.36,4.376,4.376,4.41,4.41,4.46,4.512,4.565,4.601,4.694,4.732,4.791,4.83,4.851,4.891,4.933,4.975,4.996,5.018,5.04,5.018,4.996,4.975,4.933,4.912,4.891,4.871,4.851,4.851,4.83,4.83,4.83,4.81,4.81,4.81,4.81,4.81,4.81,4.83,4.83,4.83,4.83,4.83,4.83,4.83,4.83,4.851,4.851,4.851,4.851,4.871,4.871,4.891,4.891,4.912,4.912,4.933,4.954,4.954,4.975,4.996,4.996,4.996,4.996,4.996,4.996,4.954,4.954,4.933,4.933,4.912,4.912,4.891,4.891,4.891,4.891,4.891,4.891,4.891,4.891,4.891,0,0,0,0,0,0,0,0,0,0,0,1.875,1.872,1.866,1.863,1.86,1.854,1.848,1.842,1.833,1.825,1.822,1.813,1.805,1.796,1.794,1.788,1.783,1.783,1.78,1.78,1.777,1.775,1.772,1.775,1.772,1.772,1.772,1.772,1.769,1.769,1.769,1.767,1.764,1.764,1.764,1.761,1.761,1.761,1.764,1.767,1.769,1.769,1.769,1.772,1.772,1.775,1.775,1.777,1.78,1.78,1.78,1.78,1.783,1.783,1.78,1.78,1.78,1.78,1.777,1.775,1.775,1.772,1.772,1.769,1.769,1.769,1.761,1.756,1.748,1.74,1.735,1.727,1.714,1.707,1.699,1.695,1.69,1.687,1.677,1.658,1.651,1.642,1.635,1.633,1.63,1.626,1.624,1.621,1.617,1.612,1.601,1.573,1.56,1.552,1.546,1.542,1.536,1.532,1.526,1.52,1.514,1.512,1.506,1.502,1.5,1.498,1.496,1.494,1.491,1.491,1.489,1.485,1.483,1.481,1.477,1.475,1.47,1.464,1.459,1.453,1.443,1.441,1.437,1.435,1.434,1.432,1.43,1.43,1.428,1.427,1.425,1.416,1.404,1.379,1.374,1.366,1.355,0,0,1.229,1.223,1.219,1.215,1.214,1.208,1.206,1.203,1.199,1.198,1.195,1.192,1.19,1.188,1.185,1.184,1.181,1.181,1.179,1.179,0,0,0,1.187,0,0,0,0,0,0,0,0,0,0,0,0.799,0.799,0.8,0.801,0.802,0.806,0.809,0.811,0.814,0.816,0.817,0.818,0.819,0.819,0.82,0.822,0.826,0,0.83,0.835,0.838,0.842,0.849,0.855,0.857,0.858,0.859,0.86,0,0,0,0,0,0,0,0,0,0,0,0,0,0,0
0,4.975,4.996,4.996,4.996,4.996,4.975,4.975,4.954,4.933,4.891,4.871,4.83,4.83,4.791,4.732,4.657,4.583,4.53,4.477,4.46,4.393,4.344,4.328,4.328,4.328,0,4.36,4.376,4.393,4.426,4.477,4.565,4.601,4.657,4.713,4.732,4.771,4.791,4.81,4.83,4.83,4.851,4.871,4.871,4.891,4.912,4.954,4.975,5.018,5.084,5.106,5.151,5.174,5.22,5.22,5.22,5.22,5.22,5.174,5.174,5.151,5.106,5.084,5.04,5.018,4.975,4.954,4.933,4.933,4.933,4.912,4.912,4.912,4.912,4.912,4.912,4.933,4.933,4.933,4.933,4.954,4.954,4.975,4.975,4.996,4.996,5.018,5.04,5.084,5.106,5.106,5.151,5.151,5.174,5.084,5.106,5.084,5.084,5.018,5.018,5.018,4.954,4.891,4.638,0,0,3.933,3.868,3.829,3.829,3.817,3.817,3.817,3.804,3.804,3.804,3.792,3.78,3.78,3.767,3.767,3.755,3.743,3.743,3.743,3.755,3.755,3.767,3.767,3.78,3.804,3.804,3.817,3.817,3.829,3.855,3.868,3.88,3.906,3.946,4.014,4.07,4.114,4.173,4.218,4.249,4.264,4.296,4.312,4.344,4.393,4.477,4.601,4.713,4.791,4.851,4.891,4.954,4.996,5.04,5.106,5.151,5.151,5.151,5.151,5.151,5.151,5.151,5.151,5.106,5.084,5.084,5.04,5.018,4.996,4.996,4.975,4.954,4.933,4.912,4.912,4.912,4.891,4.891,4.891,4.891,4.891,4.871,4.871,4.851,4.851,4.851,4.851,4.851,4.851,4.851,4.851,4.851,4.851,0,4.871,4.871,4.891,4.891,4.891,4.912,4.912,4.912,4.912,4.933,4.954,4.954,4.954,4.954,4.954,4.954,4.954,4.954,4.954,4.954,4.954,4.954,4.954,4.954,4.954,4.975,4.975,4.975,4.975,4.996,4.996,4.996,4.996,4.996,4.996,4.996,4.996,4.996,4.996,5.018,5.018,5.018,5.018,5.018,5.018,4.996,4.996,4.996,4.996,4.996,4.996,4.996,4.996,5.018,5.018,5.018,5.04,5.04,5.04,5.04,5.018,4.996,4.975,4.933,4.891,4.871,4.81,4.752,4.713,4.657,4.601,4.583,4.565,4.512,4.477,4.46,4.426,4.393,4.376,4.376,4.36,4.328,4.312,4.312,4.296,4.296,4.28,4.28,4.28,4.28,4.28,4.264,4.28,4.28,4.28,4.28,4.28,4.312,4.312,4.328,4.376,4.41,4.46,4.53,4.601,4.694,4.732,4.791,4.81,4.851,4.871,4.891,4.912,4.954,4.975,4.996,5.018,4.996,4.975,4.954,4.933,4.912,4.891,4.871,4.851,4.851,4.83,4.83,4.83,4.81,4.81,4.81,4.81,4.81,4.81,4.81,4.81,4.81,4.83,4.83,4.83,4.83,4.83,4.83,4.83,4.83,4.851,4.851,4.851,4.871,4.871,4.891,4.912,4.912,4.912,4.933,4.954,4.975,4.975,4.975,4.996,4.996,4.996,4.975,4.975,4.954,4.933,4.933,4.912,4.912,4.891,4.891,4.891,4.891,4.891,4.891,4.891,0,0,0,0,0,0,1.816,1.828,1.833,1.842,0,1.851,1.845,1.836,1.833,1.825,1.816,1.808,1.805,1.794,1.791,1.788,1.785,1.783,1.783,1.783,1.777,1.777,1.775,1.775,1.775,1.772,1.772,1.769,1.769,1.769,1.769,1.769,1.769,1.769,1.769,1.769,1.769,1.767,1.767,1.764,1.764,1.764,1.764,1.764,1.764,1.767,1.767,1.769,1.769,1.772,1.772,1.775,1.775,1.777,1.78,1.78,1.78,1.783,1.783,1.783,1.783,1.783,1.783,1.78,1.78,1.777,1.775,1.775,1.775,1.772,1.772,1.769,1.769,1.767,1.756,1.748,1.74,1.735,1.722,1.714,1.704,1.699,1.695,1.69,1.685,1.665,1.656,1.644,1.637,1.633,1.628,1.626,1.624,1.624,1.621,1.617,1.612,1.603,1.577,1.563,1.554,1.548,1.544,1.538,1.534,1.526,1.52,1.514,1.512,1.508,1.502,1.5,1.498,1.496,1.492,1.491,1.489,1.487,1.485,1.483,1.481,1.479,1.475,1.472,1.466,1.461,1.457,1.448,1.443,1.439,1.435,1.434,1.432,1.43,1.428,1.427,1.425,1.423,1.414,1.401,1.378,0,1.362,0,1.317,0,1.231,1.223,1.22,1.216,1.214,1.21,1.206,1.203,1.2,1.198,1.196,1.194,1.19,1.188,1.187,1.183,0,0,0,0,0,0,0,0,0,0,0,0,0,0,0,0,0,0,0,0.799,0.799,0.8,0.801,0.802,0.805,0.808,0.812,0.815,0.817,0.819,0.82,0.822,0.824,0,0.828,0.832,0.835,0.836,0.838,0.843,0.848,0.853,0.856,0.858,0.86,0.861,0,0.863,0.864,0,0,0,0,0,0,0,0,0,0,0,0,0
0,4.891,4.891,4.891,4.912,4.912,4.891,4.891,4.912,4.891,4.891,4.871,4.851,4.83,4.81,4.752,4.694,4.601,4.53,4.477,4.426,4.393,4.344,4.328,4.328,0,4.344,4.36,4.376,4.41,4.46,4.512,4.583,4.638,4.694,4.732,4.732,4.771,4.791,4.81,4.83,4.83,4.851,4.871,4.871,4.891,4.912,4.933,4.996,5.018,5.084,5.106,5.151,5.174,5.22,5.22,5.22,5.174,5.174,5.151,5.151,5.106,5.084,5.04,5.04,5.018,4.975,4.954,4.954,4.933,4.933,4.933,4.912,4.912,4.912,4.912,4.933,4.933,4.933,4.933,4.954,4.954,4.954,4.975,4.975,4.996,4.996,4.996,5.018,4.996,5.018,5.018,5.018,4.996,4.996,4.996,4.975,4.975,4.954,4.912,4.912,4.891,4.83,0,0,0,3.973,3.88,3.855,3.829,3.829,3.829,3.829,3.817,3.817,3.804,3.804,3.804,3.792,3.792,3.78,3.767,3.755,3.755,3.743,3.743,3.743,3.743,3.755,3.767,3.78,3.792,3.804,3.804,3.817,3.829,3.855,3.868,3.906,3.946,4.014,4.07,4.158,4.188,4.233,4.264,4.28,4.312,4.328,4.376,4.426,4.477,4.583,4.694,4.752,4.81,4.851,4.891,4.912,4.954,4.996,5.018,5.04,5.04,5.084,5.084,5.084,5.084,5.084,5.084,5.084,5.04,5.04,5.04,5.018,4.996,4.975,4.975,4.954,4.954,4.933,4.912,4.912,4.912,4.912,4.891,4.891,4.891,4.891,4.891,4.891,4.871,4.871,4.851,4.851,4.851,4.851,4.851,4.851,4.851,4.871,4.871,4.871,4.891,4.891,4.891,4.912,4.912,4.912,4.912,4.933,4.954,4.954,4.954,4.954,4.954,4.954,4.954,4.954,4.975,4.975,4.954,4.975,4.975,4.975,4.975,4.975,4.975,4.975,4.996,4.996,4.996,5.018,5.018,5.018,5.018,5.04,5.04,5.084,5.084,5.084,5.106,5.084,5.084,5.084,5.084,5.04,5.04,5.04,5.04,5.04,5.04,5.018,5.04,5.04,5.04,5.04,5.04,5.084,5.04,5.04,5.04,4.996,4.954,4.912,4.891,4.851,4.791,4.657,4.583,4.565,4.512,4.477,4.46,4.426,4.393,4.376,4.36,4.344,4.328,4.312,4.312,4.296,4.28,4.28,4.264,4.264,4.264,4.249,4.249,4.249,4.249,4.249,4.249,4.249,4.249,4.249,4.264,4.28,4.312,4.328,4.36,4.41,4.477,4.565,4.638,4.732,4.771,4.81,4.83,4.851,4.891,4.912,4.933,4.954,4.975,4.996,4.996,4.975,4.954,4.933,4.912,4.891,4.871,4.851,4.83,4.83,4.83,4.81,4.81,4.81,4.81,4.81,4.791,4.81,4.81,4.81,4.81,4.81,4.81,4.83,4.83,4.83,4.83,4.83,4.83,4.83,4.83,4.851,4.851,4.851,4.871,4.891,4.891,4.912,4.912,4.933,4.954,4.954,4.975,4.975,4.975,4.975,4.975,4.975,4.954,4.954,4.933,4.933,4.912,4.912,4.891,4.891,4.891,4.891,4.891,0,0,0,0,0,0,1.78,1.783,1.785,1.788,1.794,1.796,1.799,1.805,1.799,1.796,1.796,1.794,1.788,1.785,1.783,1.78,1.777,1.775,1.775,1.775,1.772,1.772,1.769,1.769,1.769,1.769,1.769,1.767,1.767,1.769,1.767,1.769,1.769,1.769,1.769,1.769,1.769,1.769,1.769,1.769,1.767,1.767,1.767,1.767,1.767,1.767,1.767,1.769,1.769,1.769,1.772,1.772,1.775,1.775,1.777,1.78,1.78,1.78,1.783,1.783,1.783,1.783,1.783,1.783,1.783,1.78,1.78,1.78,1.777,1.775,1.775,1.772,1.772,1.769,1.769,1.767,1.756,1.748,1.74,1.73,1.722,1.712,1.704,1.697,1.692,1.69,1.682,1.661,1.651,1.642,1.635,1.63,1.626,1.624,1.624,1.621,1.619,1.617,1.612,1.603,1.58,1.565,1.554,1.548,1.546,1.54,1.536,1.528,1.52,1.518,1.514,1.512,1.502,1.5,1.498,1.494,1.491,1.491,1.489,1.485,1.483,1.483,1.481,1.479,1.477,1.474,1.47,1.461,1.459,1.448,1.443,1.439,1.435,1.434,1.432,1.43,1.428,1.427,1.425,1.423,1.413,1.383,0,1.366,0,1.308,0,1.24,1.232,1.225,1.223,1.219,1.215,1.211,1.208,1.204,1.201,1.199,1.196,1.195,1.19,1.189,0,0,0,0,0,0,0,0,0.834,0.833,0.83,0,0,0,0,0,0,0,0,0,0,0,0,0.799,0.801,0.801,0.804,0.808,0.813,0.816,0.819,0.821,0,0.826,0.83,0.832,0.835,0.836,0.839,0.841,0,0,0.855,0.856,0.858,0.86,0,0.864,0.865,0.866,0.867,0.868,0,0,0,0,0,0,0,0,0,0,0,0
0,4.791,4.791,4.791,4.81,4.81,4.771,4.81,4.81,4.81,4.83,4.83,4.81,4.81,4.771,4.732,4.694,4.638,4.565,4.512,4.46,4.41,4.393,4.376,4.376,4.376,4.393,4.393,4.41,4.46,4.512,4.53,4.601,4.657,4.694,4.732,4.752,4.791,4.81,4.81,4.81,4.83,4.83,4.851,4.851,4.871,4.891,4.912,4.954,4.996,5.04,5.106,5.151,5.174,5.174,5.174,5.174,5.174,5.174,5.151,5.106,5.084,5.084,5.04,5.018,5.018,4.975,4.954,4.954,4.954,4.933,4.933,4.933,4.933,4.933,4.933,4.933,4.933,4.954,4.954,4.954,4.954,4.954,4.975,4.975,4.975,4.975,4.975,4.975,4.975,4.975,4.975,4.975,4.954,4.933,4.912,4.912,4.891,4.871,4.851,4.83,4.713,0,0,0,4.203,3.92,3.868,3.855,3.842,3.829,3.829,3.829,3.829,3.817,3.817,3.817,3.804,3.804,3.792,3.78,3.78,3.767,3.755,3.755,3.743,3.743,3.743,3.743,3.755,3.767,3.78,3.792,3.804,3.817,3.829,3.855,3.88,3.933,3.987,4.07,4.158,4.218,4.249,4.28,4.312,4.328,4.36,4.393,4.46,4.53,4.601,4.657,4.732,4.791,4.83,4.851,4.891,4.912,4.912,4.954,4.975,4.996,4.996,5.018,5.018,5.018,5.018,5.018,5.018,5.018,5.018,5.018,5.018,4.996,4.996,4.996,4.975,4.975,4.954,4.933,4.933,4.912,4.912,4.912,4.912,4.891,4.891,4.891,4.891,4.891,4.871,4.871,4.851,4.851,4.851,4.851,4.851,4.851,4.851,4.851,4.851,4.851,4.871,4.891,4.891,4.891,4.912,4.912,4.912,4.933,4.933,4.954,4.954,4.954,4.954,4.975,4.975,4.975,4.975,4.975,4.954,4.975,4.975,4.975,4.975,4.975,4.975,4.975,4.975,4.996,4.996,5.018,5.04,5.04,5.084,5.106,5.106,5.151,5.151,5.151,5.151,5.151,5.151,5.151,5.106,5.106,5.106,5.084,5.084,5.084,5.084,5.084,5.04,5.04,5.04,5.04,5.04,5.04,5.04,4.975,4.954,4.933,4.891,4.871,4.81,4.752,4.694,4.601,4.53,4.477,4.46,4.426,4.41,4.376,4.36,4.344,4.328,4.312,4.312,4.296,4.28,4.28,4.264,4.249,4.249,4.233,4.233,4.218,4.218,4.203,4.203,4.203,4.203,4.218,4.218,4.233,4.233,4.264,4.28,4.312,4.344,4.393,4.426,4.565,4.657,4.732,4.771,4.81,4.851,4.851,4.891,4.912,4.933,4.954,4.975,4.975,4.975,4.954,4.933,4.912,4.912,4.891,4.851,4.851,4.83,4.83,4.81,4.81,4.81,4.81,4.81,4.791,4.791,4.791,4.791,4.791,4.81,4.81,4.81,4.81,4.81,4.83,4.83,4.83,4.83,4.83,4.83,4.83,4.851,4.851,4.871,4.871,4.891,4.891,4.912,4.912,4.933,4.954,4.954,4.954,4.954,4.954,4.954,4.954,4.954,4.933,4.933,4.912,4.912,4.912,4.891,4.891,4.891,0,0,0,0,0,0,1.772,1.775,1.775,1.775,1.775,1.777,1.78,1.78,1.78,1.78,1.78,1.78,1.78,1.78,1.777,1.775,1.775,1.772,1.772,1.772,1.769,1.772,1.769,1.769,1.769,1.769,1.767,1.767,1.767,1.767,1.767,1.767,1.767,1.767,1.769,1.769,1.769,1.769,1.769,1.769,1.769,1.769,1.769,1.769,1.769,1.769,1.769,1.769,1.769,1.769,1.772,1.772,1.772,1.775,1.775,1.777,1.78,1.78,1.783,1.783,1.783,1.783,1.783,1.783,1.783,1.783,1.783,1.783,1.78,1.78,1.777,1.775,1.775,1.772,1.772,1.769,1.767,1.764,1.756,1.748,1.738,1.73,1.72,1.712,1.704,1.697,1.692,1.69,1.682,1.661,1.651,1.642,1.635,1.63,1.626,1.624,1.624,1.621,1.619,1.617,1.612,1.606,1.595,1.565,1.556,1.55,1.546,1.542,1.536,1.532,1.522,1.518,1.514,1.512,1.506,1.5,1.498,1.494,1.492,1.489,1.489,1.485,1.483,1.481,1.481,1.479,1.477,1.474,1.472,1.466,1.461,1.457,1.443,1.439,1.435,1.434,1.432,1.43,1.428,1.427,1.425,1.423,1.409,1.378,1.371,1.357,1.335,1.298,1.276,1.241,1.232,0,0,1.22,1.216,1.214,1.21,1.206,1.203,1.2,1.198,1.195,0,0,0,0,0,0,0,0.837,0.838,0.836,0.836,0.835,0.835,0.833,0.83,0.827,0.822,0,0,0,0,0,0,0,0.799,0.8,0.801,0.802,0.805,0.809,0.815,0.818,0.821,0,0.826,0.832,0.835,0.836,0.839,0,0,0,0.853,0.855,0.857,0.859,0,0.861,0.864,0.867,0.867,0.868,0.87,0.871,0,0,0,0,0,0,0,0,0,0,0,0
0,0,0,4.583,4.601,4.583,4.565,4.583,4.601,4.657,4.713,4.732,4.732,4.752,4.752,4.713,4.694,4.601,4.565,4.512,4.477,4.426,4.41,4.41,4.41,4.426,4.46,4.512,4.565,4.583,4.601,4.638,4.657,4.694,4.732,4.732,4.752,4.791,4.791,4.81,4.81,4.81,4.81,4.83,4.851,4.851,4.891,4.912,4.954,4.975,5.04,5.084,5.106,5.151,5.151,5.151,5.151,5.151,5.106,5.106,5.084,5.084,5.04,5.04,5.018,4.996,4.975,4.975,4.954,4.954,4.954,4.933,4.954,4.954,4.954,4.954,4.954,4.954,4.954,4.975,4.975,4.975,4.975,4.975,4.975,4.975,4.975,4.975,4.975,4.954,4.954,4.954,4.933,4.912,4.912,4.891,4.871,4.83,4.81,4.791,4.694,4.53,4.41,4.328,0,4.158,3.933,3.88,3.868,3.855,3.855,3.842,3.829,3.829,3.829,3.829,3.817,3.817,3.804,3.804,3.792,3.78,3.767,3.755,3.755,3.743,3.743,3.743,3.743,3.743,3.767,3.767,3.792,3.804,3.817,3.829,3.868,3.906,3.973,4.056,4.128,4.218,4.249,4.28,4.328,4.36,4.393,4.426,4.512,4.565,4.638,4.694,4.752,4.791,4.81,4.83,4.851,4.891,4.891,4.912,4.912,4.933,4.954,4.954,4.975,4.975,4.975,4.996,4.996,4.996,4.996,4.996,4.996,4.996,4.996,4.975,4.975,4.975,4.954,4.954,4.933,4.933,4.912,4.912,4.912,4.891,4.891,4.891,4.891,4.891,4.871,4.851,4.851,4.851,4.851,4.83,4.83,4.83,4.83,4.83,4.83,4.83,4.851,4.851,4.871,4.891,4.891,4.891,4.912,4.912,4.912,4.933,4.933,4.954,4.954,4.954,4.975,4.975,4.975,4.975,4.975,4.954,4.954,4.975,4.954,4.954,4.975,4.975,4.975,4.975,4.996,5.018,5.018,5.04,5.084,5.106,5.151,5.151,5.174,5.174,5.22,5.174,5.22,5.22,5.22,5.174,5.151,5.151,5.151,5.106,5.106,5.084,5.084,5.04,5.04,5.018,5.018,4.996,4.975,4.954,4.933,4.912,4.891,4.851,4.83,4.732,4.694,4.583,4.53,4.46,4.426,4.393,4.376,4.36,4.328,4.328,4.312,4.312,4.296,4.28,4.264,4.264,4.249,4.249,4.218,4.203,4.188,4.188,4.158,4.158,4.158,4.128,4.158,4.173,4.173,4.173,4.203,4.233,0,4.249,4.28,4.312,4.36,4.41,4.512,4.638,4.713,4.752,4.81,4.83,4.851,4.891,4.912,4.933,4.954,4.954,4.975,4.954,4.954,4.912,4.912,4.891,4.871,4.851,4.83,4.83,4.83,4.81,4.81,4.81,4.81,4.791,4.791,4.791,4.791,4.791,4.791,4.791,4.791,4.81,4.81,4.81,4.81,4.81,4.83,4.83,4.83,4.83,4.83,4.83,4.851,4.851,4.851,4.871,4.891,4.891,4.912,4.912,4.933,4.933,4.933,4.954,4.954,4.933,4.933,4.933,4.933,4.912,4.912,4.912,4.912,0,0,0,0,0,0,1.772,1.772,1.772,1.772,1.775,1.775,1.775,1.775,1.777,1.775,1.777,1.777,1.777,1.775,1.775,1.775,1.775,1.772,1.772,1.772,1.769,1.769,1.769,1.769,1.769,1.769,1.769,1.769,1.769,1.769,1.769,1.767,1.767,1.767,1.769,1.769,1.769,1.769,1.769,1.769,1.769,1.769,1.769,1.769,1.769,1.769,1.772,1.772,1.772,1.772,1.772,1.772,1.772,1.775,1.775,1.775,1.777,1.777,1.78,1.78,1.78,1.783,1.783,1.783,1.783,1.783,1.783,1.783,1.783,1.78,1.78,1.78,1.777,1.777,1.775,1.772,1.772,1.769,1.769,1.767,1.764,1.753,1.745,1.738,1.727,1.72,1.709,1.702,1.697,1.692,1.687,1.682,1.661,1.649,1.637,1.633,1.628,1.626,1.624,1.624,1.621,1.619,1.615,1.612,1.606,1.595,1.567,1.556,1.55,1.546,1.542,1.536,1.528,1.522,1.518,1.512,1.508,1.502,1.498,1.496,1.492,1.491,1.489,1.489,1.485,1.483,1.481,1.481,1.479,1.477,1.474,1.472,1.466,1.461,1.457,1.446,1.441,1.437,1.434,1.432,1.43,1.427,1.427,1.425,1.421,1.404,0,1.366,1.344,1.326,0,0,0,0,0,0,0,0,0.855,0.852,0.85,0,0,0,0.838,0.836,0.836,0,0,0,0.838,0.838,0.838,0.838,0.838,0,0.836,0.836,0.835,0,0,0,0,0.815,0,0,0,0,0,0,0,0,0,0,0,0,0,0,0,0,0,0,0,0,0.85,0.853,0.855,0.857,0.859,0.86,0,0.864,0.866,0.867,0.87,0.87,0.872,0.872,0.873,0,0,0,0,0,0,0,0,0,0,0,0
0,0,0,4.376,4.376,4.393,4.376,4.36,4.393,4.46,4.512,4.565,4.601,4.657,4.694,4.694,4.694,4.638,4.601,4.583,4.565,4.512,4.512,4.512,4.53,4.53,4.583,4.601,4.657,4.657,4.694,4.694,4.694,4.713,4.732,4.752,4.771,4.791,4.791,4.81,4.791,4.81,4.81,4.83,4.83,4.851,4.851,4.891,4.912,4.954,4.975,4.996,5.018,5.04,5.084,5.084,5.084,5.084,5.084,5.04,5.04,5.04,5.04,5.04,5.018,5.018,4.996,4.996,4.996,4.975,4.975,4.975,4.975,4.975,4.975,4.975,4.975,4.975,4.975,4.975,4.975,4.975,4.996,4.996,4.996,4.975,4.975,4.975,4.954,4.954,4.933,4.912,4.912,4.891,4.871,4.851,4.83,4.81,4.771,4.657,4.565,4.426,4.36,0,0,4.158,3.973,3.92,3.893,3.88,3.868,3.868,3.855,3.855,3.842,3.829,3.829,3.817,3.817,3.804,3.804,3.792,3.78,3.767,3.755,3.743,3.743,3.743,3.743,3.743,3.755,3.767,3.792,3.804,3.817,3.842,3.868,3.933,4.014,4.114,4.203,4.249,4.296,4.328,4.376,4.426,4.512,4.565,4.601,4.657,4.732,4.752,4.81,4.81,4.83,4.851,4.871,4.891,4.891,4.891,4.912,4.912,4.912,4.933,4.933,4.954,4.954,4.954,4.975,4.975,4.975,4.975,4.975,4.975,4.975,4.954,4.954,4.954,4.954,4.933,4.933,4.912,4.912,4.912,4.891,4.891,4.891,4.891,4.871,4.851,4.851,4.851,4.851,4.83,4.83,4.83,4.81,4.81,4.81,4.81,4.83,4.83,4.83,4.851,4.851,4.871,4.891,4.891,4.891,4.912,4.912,4.933,4.933,4.954,4.954,4.975,4.975,4.975,4.975,4.975,4.975,4.975,4.975,4.975,4.975,4.975,4.975,4.975,4.975,4.996,5.018,5.04,5.04,5.084,5.106,5.151,5.174,5.22,5.22,5.22,5.22,5.244,5.244,5.244,5.22,5.244,5.22,5.174,5.174,5.151,5.151,5.106,5.084,5.04,5.018,4.996,4.975,4.954,4.933,4.912,4.891,4.871,4.851,4.791,4.732,4.657,4.583,4.53,4.46,4.41,4.376,4.36,4.328,4.328,4.312,4.312,4.296,4.28,4.264,4.264,4.249,4.233,4.218,4.203,4.173,4.128,4.128,4.085,4.085,4.085,4.085,4.07,4.07,4.085,4.085,4.114,4.128,4.173,4.218,0,4.264,4.28,4.328,4.376,4.46,4.583,4.694,4.752,4.81,4.83,4.851,4.871,4.912,4.912,4.933,4.933,4.933,4.933,4.933,4.912,4.891,4.891,4.871,4.851,4.83,4.83,4.83,4.81,4.81,4.81,4.81,4.791,4.791,4.791,4.791,4.791,4.791,4.791,4.791,4.791,4.81,4.81,0,0,0,0,0,0,0,0,0,0,0,0,0,0,4.891,4.912,4.912,4.912,4.912,0,0,0,0,0,0,0,1.772,1.775,1.775,1.775,1.775,1.775,1.775,1.775,1.772,1.775,1.772,1.775,1.775,1.775,1.775,1.775,1.775,1.777,1.777,1.775,1.775,1.775,1.775,1.775,1.772,1.772,1.772,1.772,1.772,1.772,1.772,1.772,1.772,1.772,1.772,1.772,1.772,1.772,1.769,1.769,1.769,1.769,1.769,1.769,1.769,1.769,1.769,1.769,1.769,1.772,1.772,1.772,1.772,1.772,1.772,1.772,1.772,1.772,1.772,1.775,1.775,1.775,1.775,1.777,1.777,1.78,1.78,1.78,1.78,1.783,1.783,1.783,1.783,1.783,1.783,1.783,1.783,1.783,1.783,1.78,1.78,1.78,1.777,1.775,1.772,1.772,1.769,1.769,1.767,1.761,1.753,1.745,1.735,1.727,1.714,1.709,1.702,1.697,1.692,1.687,1.68,1.658,1.649,1.637,1.633,1.628,1.624,1.624,1.621,1.621,1.617,1.615,1.612,1.606,1.599,1.571,1.556,1.552,1.546,1.542,1.536,1.528,1.52,1.512,1.508,1.502,1.5,1.498,1.494,1.491,1.491,1.489,1.487,1.485,1.483,1.481,1.481,1.479,1.477,1.475,1.472,1.466,1.464,1.459,1.446,1.441,1.437,1.434,1.432,1.43,1.427,1.427,1.425,1.421,1.403,0,0,0,0,0,0,0,0.855,0.855,0,0.854,0.853,0.851,0.848,0.847,0.844,0,0.838,0.838,0.836,0.836,0.836,0.836,0.836,0.837,0.838,0.838,0.838,0.838,0.838,0.837,0.836,0.836,0,0,0,0,0,0,0,0,0,0,0,0,0,0,0,0,0,0,0,0,0,0.838,0.841,0.845,0.852,0.855,0.857,0.859,0,0.861,0.865,0.867,0.869,0.871,0.873,0.873,0.874,0.876,0.876,0.876,0,0,0,0,0,0,0,0,0,0,0,0
0,0,4.296,4.296,4.296,4.312,4.296,4.296,4.312,4.328,4.344,4.41,4.46,4.512,4.565,4.601,4.638,4.638,4.638,4.638,4.601,4.583,4.583,4.583,4.601,4.638,4.657,4.694,4.694,4.713,4.713,4.713,4.713,4.713,4.752,4.752,4.752,4.771,4.791,4.791,4.791,4.81,4.81,4.81,4.83,4.851,4.851,4.891,4.912,4.933,4.954,4.975,4.996,5.018,5.04,5.04,5.04,5.04,5.04,5.04,5.04,5.04,5.04,5.04,5.04,5.04,5.018,5.018,5.018,4.996,4.996,4.996,4.996,4.996,4.996,4.996,4.996,4.996,4.996,4.996,4.996,4.996,4.996,4.996,4.996,4.996,4.975,4.975,4.954,4.933,4.933,4.912,4.912,4.891,4.851,4.83,4.81,4.771,4.657,4.583,4.512,4.393,4.328,4.28,4.249,4.188,4.085,3.973,3.946,3.92,3.906,3.893,3.88,3.868,3.868,3.855,3.855,3.829,3.829,3.817,3.804,3.792,3.78,3.767,3.755,3.755,3.743,3.743,3.743,3.743,3.755,3.767,3.792,3.804,3.829,3.855,3.88,3.946,4.056,4.173,4.249,4.28,4.328,4.393,4.477,4.565,4.601,4.657,4.713,4.732,4.771,4.791,4.81,4.83,4.851,4.851,4.851,4.871,4.891,4.891,4.891,4.912,4.912,4.912,4.912,4.912,4.912,4.933,4.933,4.933,4.954,4.954,4.954,4.954,4.954,4.954,4.954,4.933,4.933,4.912,4.912,4.912,4.912,4.891,4.891,4.891,4.891,4.871,4.871,4.851,4.851,4.851,4.83,4.83,4.81,4.81,4.81,4.81,4.81,4.81,4.81,4.83,4.83,4.851,4.851,4.871,4.871,4.891,4.912,4.912,4.912,4.933,4.933,4.954,4.975,4.975,4.975,4.975,4.996,4.996,4.996,4.975,4.975,4.975,4.975,4.975,4.975,4.996,4.996,5.018,5.04,5.084,5.106,5.151,5.151,5.174,5.244,5.244,5.268,5.316,5.316,5.316,5.268,5.268,5.244,5.244,5.244,5.22,5.174,5.151,5.106,5.084,5.084,5.018,4.996,4.975,4.933,4.912,4.891,4.871,4.851,4.83,4.771,4.713,4.638,4.565,4.512,4.46,4.393,4.36,4.344,4.328,4.328,4.312,4.296,4.28,4.28,4.264,4.249,4.233,4.218,4.188,4.173,4.114,4.085,4.07,4.056,4.028,4.014,4.014,4.014,3.987,4.014,4.014,4.014,4.028,4.056,4.114,4.173,4.218,0,4.264,4.296,4.328,4.41,4.53,4.601,4.713,4.771,4.81,4.83,4.851,4.891,4.891,4.912,4.912,4.912,4.912,4.912,4.912,4.891,4.891,4.871,4.851,4.83,4.83,4.81,4.81,4.81,4.81,0,0,0,0,0,0,0,1.699,1.699,1.699,1.699,1.699,1.699,1.699,0,0,0,0,0,0,0,0,0,0,0,0,0,0,0,0,0,0,0,0,0,0,1.775,1.775,1.775,1.775,1.775,1.775,1.775,1.775,1.775,1.775,1.775,1.775,1.775,1.775,1.775,1.775,1.775,1.775,1.775,1.775,1.775,1.775,1.775,1.775,1.775,1.775,1.772,1.775,1.775,1.775,1.775,1.775,1.775,1.775,1.775,1.775,1.775,1.772,1.772,1.772,1.772,1.772,1.772,1.769,1.769,1.769,1.769,1.769,1.769,1.769,1.772,1.772,1.772,1.772,1.772,1.772,1.775,1.775,1.775,1.775,1.775,1.775,1.777,1.777,1.78,1.78,1.78,1.78,1.78,1.78,1.783,1.783,1.783,1.783,1.783,1.783,1.783,1.783,1.783,1.783,1.78,1.78,1.78,1.777,1.775,1.775,1.772,1.769,1.769,1.769,1.764,1.761,1.748,1.74,1.735,1.722,1.714,1.707,1.702,1.697,1.692,1.687,1.682,1.661,1.649,1.637,1.633,1.628,1.624,1.624,1.621,1.621,1.617,1.615,1.612,1.606,1.599,1.571,1.558,1.552,1.546,1.544,0,0,0,0,0,0,0,0,0,0,0,0,0,1.483,1.481,0,0,0,0,0,0,0,0,0,0,0,0,0,0,0,0,0,0,0,0.858,0.856,0.855,0.855,0.855,0.854,0.853,0.852,0.851,0.849,0.849,0.848,0.847,0.845,0.843,0.843,0.84,0.838,0.838,0.836,0.836,0.836,0.836,0.837,0.837,0.838,0.838,0.838,0.839,0.839,0.839,0.838,0.838,0,0,0,0,0,0,0,0,0,0,0,0,0,0,0,0,0,0,0,0,0,0,0.838,0.841,0.845,0.851,0.855,0.857,0,0.86,0.865,0.869,0.871,0.874,0.875,0.875,0.876,0.876,0.877,0.877,0.877,0,0,0,0,0,0,0,0,0,0,0,0
0,0,4.249,4.249,4.249,4.249,4.249,4.249,4.249,4.264,4.296,4.312,4.328,4.376,4.426,4.53,4.583,4.601,4.638,4.657,4.657,4.694,4.694,4.713,4.713,4.713,4.713,4.732,4.713,4.713,4.713,4.694,4.694,4.657,4.657,4.657,4.694,4.713,4.732,4.732,4.771,4.791,4.81,4.81,4.83,4.851,4.851,4.891,4.891,4.912,4.933,4.954,4.975,4.996,4.996,5.018,5.018,5.04,5.04,5.04,5.04,5.04,5.04,5.04,5.04,5.04,5.04,5.04,5.04,5.04,5.018,5.018,5.018,5.018,5.018,5.018,5.018,5.018,5.018,5.018,5.018,5.018,5.018,5.018,5.018,4.996,4.996,4.975,4.954,4.933,4.912,4.912,4.891,4.891,4.851,4.83,4.81,4.771,4.638,4.583,4.477,4.393,4.344,4.312,4.264,4.233,4.173,4.114,4.028,3.987,3.973,3.946,3.933,3.906,3.893,3.868,3.855,3.855,3.829,3.817,3.804,3.804,3.792,3.78,3.767,3.755,3.755,3.743,3.755,3.755,3.755,3.767,3.792,3.804,3.829,3.855,3.906,3.987,4.085,4.203,4.264,4.312,4.36,4.426,4.53,4.583,4.657,4.694,4.732,4.752,4.771,4.81,4.81,4.83,4.83,4.851,4.851,4.851,4.871,4.871,4.891,4.891,4.891,4.891,4.891,4.912,4.912,4.912,4.912,4.912,4.912,4.912,4.912,4.933,4.933,4.933,4.933,4.912,4.912,4.912,4.912,4.912,4.912,4.891,4.891,4.891,4.871,4.871,4.851,4.851,4.83,4.83,4.83,4.81,4.81,4.791,4.791,4.791,4.791,4.791,4.81,4.81,4.83,4.83,4.851,4.871,4.891,4.891,4.912,4.912,4.933,4.954,4.975,4.996,4.996,4.996,4.996,4.996,4.996,5.018,5.018,4.996,4.996,4.996,4.996,4.996,4.996,4.996,5.018,5.04,5.084,5.106,5.151,5.174,5.22,5.268,5.268,5.316,5.34,5.316,5.316,5.316,5.268,5.268,5.244,5.244,5.22,5.22,5.174,5.151,5.106,5.084,5.04,4.996,4.975,4.933,4.912,4.891,4.871,4.851,4.83,4.752,4.713,4.638,4.565,4.477,4.426,4.393,4.36,4.328,4.312,4.312,4.296,4.28,4.28,4.264,4.264,4.249,4.218,4.203,4.173,4.128,4.07,4.056,4.028,4.014,3.987,3.946,3.946,3.933,3.933,3.933,3.933,3.933,3.933,3.946,3.973,4.028,4.085,4.173,4.218,4.264,0,4.312,4.36,4.46,4.565,4.638,4.713,4.771,4.81,4.83,4.851,4.891,4.891,4.912,4.912,4.912,4.912,4.891,4.891,4.871,4.851,4.851,4.83,4.83,4.81,0,0,0,0,0,0,1.699,1.699,1.699,1.699,1.699,1.699,1.699,1.699,1.699,1.699,1.699,1.699,1.697,1.697,0,0,0,0,0,0,0,0,0,0,0,0,0,0,0,1.772,0,1.772,1.775,1.775,1.775,1.775,1.775,1.775,1.775,1.775,1.775,1.775,1.775,1.775,1.775,1.775,1.775,1.775,1.775,1.775,1.775,1.775,1.775,1.775,1.775,1.775,1.775,1.775,1.775,1.775,1.775,1.775,1.775,1.775,1.775,1.775,1.775,1.777,1.777,1.775,1.775,1.775,1.775,1.775,1.775,1.772,1.772,1.772,1.772,1.772,1.772,1.772,1.772,1.772,1.772,1.772,1.772,1.775,1.775,1.775,1.775,1.777,1.777,1.777,1.78,1.78,1.78,1.78,1.78,1.78,1.78,1.78,1.78,1.78,1.78,1.78,1.78,1.78,1.78,1.78,1.78,1.78,1.78,1.78,1.777,1.777,1.775,1.775,1.772,1.772,1.769,1.769,1.767,1.764,1.761,1.748,1.74,1.73,1.722,1.714,1.707,1.702,1.697,1.692,1.687,1.68,1.658,1.649,1.642,1.633,1.628,1.626,1.624,1.621,1.621,1.619,1.617,1.612,1.608,1.601,1.573,1.56,1.554,0,0,0,0,0,0,0,0,0,0,0,0,0,0,0,0,0,0,0,0,0,0,0,0,0,0,0,0,0.845,0.847,0.844,0,0,0,0,0,0.848,0.847,0.847,0.845,0.847,0.845,0.844,0.843,0.843,0.843,0.843,0.844,0.842,0.841,0.84,0.84,0.839,0.838,0.836,0.836,0.836,0.836,0.836,0.836,0.837,0.838,0.838,0.839,0.839,0.84,0.84,0.839,0.839,0,0,0,0.835,0,0,0,0,0,0,0,0,0,0,0,0,0,0,0,0,0,0,0.837,0.838,0.841,0.847,0.852,0.855,0.858,0.856,0.859,0.867,0.864,0.868,0.871,0.872,0.875,0.875,0.876,0.876,0.875,0,0,0,0,0,0,0,0,0,0,0,0
0,0,4.173,4.173,4.173,4.188,4.188,4.203,4.203,4.218,4.249,4.264,4.28,4.312,4.344,4.426,4.512,4.583,4.638,4.657,4.713,4.732,4.752,4.752,4.771,4.771,4.752,4.752,4.732,4.732,4.713,4.694,4.657,4.638,4.638,4.601,4.638,4.694,4.694,4.713,4.732,4.752,4.791,4.81,4.83,4.83,4.851,4.871,4.891,4.912,4.912,4.933,4.954,4.975,4.996,4.996,5.018,5.04,5.04,5.04,5.04,5.084,5.084,5.084,5.084,5.084,5.084,5.084,5.084,5.04,5.04,5.04,5.04,5.04,5.04,5.04,5.04,5.04,5.04,5.04,5.04,5.04,5.04,5.018,5.018,5.018,4.996,4.996,4.975,4.954,4.933,4.912,4.891,4.871,4.851,4.83,4.81,4.771,4.657,4.565,4.512,4.41,4.36,4.328,4.28,4.264,4.233,4.188,4.158,4.07,4.056,4.028,3.987,3.973,3.933,3.906,3.88,3.868,3.855,3.829,3.817,3.804,3.804,3.792,3.78,3.78,3.767,3.767,3.755,3.767,3.767,3.78,3.792,3.817,3.829,3.868,3.933,4.028,4.128,4.233,4.28,4.328,4.393,4.477,4.565,4.601,4.694,4.713,4.732,4.752,4.791,4.791,4.81,4.83,4.83,4.83,4.851,4.851,4.851,4.871,4.871,4.871,4.871,4.891,4.891,4.891,4.891,4.891,4.891,4.891,4.891,4.912,4.912,4.912,4.912,4.912,4.912,4.912,4.912,4.912,4.912,4.891,4.891,4.891,4.891,4.871,4.851,4.851,4.851,4.83,4.83,4.83,4.81,4.791,4.771,4.771,4.771,4.771,4.791,4.791,4.791,4.81,4.83,4.83,4.851,4.871,4.891,4.912,4.912,4.912,4.933,4.954,4.975,4.996,4.996,5.018,5.018,5.018,5.018,5.018,5.018,5.018,4.996,4.996,4.996,5.018,5.018,5.018,5.04,5.084,5.106,5.151,5.174,5.174,5.22,5.244,5.268,5.268,5.316,5.268,5.268,5.268,5.244,5.244,5.22,5.22,5.174,5.174,5.151,5.106,5.084,5.04,5.018,4.975,4.933,4.912,4.891,4.871,4.851,4.83,4.752,4.694,4.638,4.565,4.477,4.426,4.376,4.344,4.328,4.312,4.312,4.28,4.28,4.264,4.264,4.249,4.233,4.218,4.188,4.158,4.07,4.028,4.014,3.973,3.946,3.933,3.92,3.906,3.893,3.893,3.88,3.88,3.893,3.893,3.906,3.92,3.933,3.987,4.056,4.128,4.203,4.249,0,4.28,4.328,4.393,4.512,4.601,4.694,4.732,4.81,4.83,4.851,4.871,4.891,4.891,4.912,4.912,4.912,4.891,4.891,4.871,4.851,4.851,4.83,0,0,0,0,0,0,1.697,1.697,1.697,1.697,1.697,1.699,1.699,1.699,1.699,1.699,1.699,1.699,1.697,1.697,1.695,1.697,1.695,1.695,1.695,1.697,1.699,1.702,1.709,1.72,1.73,1.738,1.748,1.759,1.764,1.769,1.769,1.772,1.772,1.775,1.775,1.775,1.775,1.775,1.775,1.775,1.775,1.775,1.775,1.775,1.775,1.777,1.777,1.777,1.775,1.775,1.775,1.775,1.775,1.775,1.775,1.775,1.775,1.775,1.775,1.775,1.775,1.775,1.775,1.775,1.775,1.775,1.775,1.777,1.777,1.777,1.777,1.777,1.777,1.777,1.777,1.777,1.775,1.775,1.775,1.772,1.772,1.772,1.772,1.772,1.772,1.772,1.772,1.775,1.775,1.775,1.775,1.775,1.777,1.777,1.777,1.78,1.78,1.78,1.78,1.78,1.78,1.78,1.78,1.78,1.78,1.78,1.78,1.78,1.78,1.78,1.78,1.78,1.78,1.78,1.777,1.777,1.775,1.775,1.775,1.772,1.772,1.769,1.769,1.767,1.764,1.761,1.759,1.745,1.738,1.727,1.72,1.712,1.707,1.699,1.697,1.692,1.69,1.682,1.675,1.651,0,0,0,0,0,0,0,0,0.924,0.925,0.925,0,0,0,0.923,0,0,0,0,0,0,0,0,0,0,0,0,0,0,0,0,0,0,0,0,0,0,0,0,0,0.841,0,0.838,0.839,0.84,0,0,0,0,0.838,0,0.84,0.839,0.836,0.839,0.838,0.837,0.839,0.838,0.838,0.838,0.838,0.839,0.838,0.838,0.838,0.838,0.836,0.836,0.836,0.835,0.835,0.836,0.836,0.836,0.837,0.838,0.838,0.839,0.841,0.841,0.843,0,0,0,0,0,0.835,0,0,0,0,0,0,0,0,0,0,0.834,0.834,0,0.833,0.833,0.833,0.833,0.835,0.836,0.837,0.838,0.837,0.838,0.841,0.854,0.851,0.854,0.856,0.858,0.859,0.86,0,0.864,0.865,0.867,0.867,0.867,0,0,0,0,0,0,0,0,0,0,0,0
0,0,4.114,4.128,4.128,4.128,4.128,4.158,4.173,0,4.203,4.218,4.249,4.264,4.312,4.344,4.46,4.565,4.638,4.694,4.732,4.771,4.81,4.81,4.81,4.81,4.791,4.771,4.752,4.732,4.713,4.657,4.638,4.601,4.601,4.583,4.601,4.638,4.657,4.694,4.713,4.752,4.771,4.81,4.81,4.83,4.851,4.891,4.891,4.912,4.912,4.933,4.954,4.954,4.975,4.996,5.018,5.018,5.04,5.04,5.084,5.084,5.084,5.084,5.084,5.084,5.084,5.084,5.084,5.084,5.084,5.04,5.04,5.084,5.084,5.084,5.084,5.084,5.084,5.084,5.084,5.084,5.04,5.04,5.04,5.018,4.996,4.996,4.975,4.954,4.933,4.912,4.891,4.891,4.851,4.83,4.81,4.771,4.657,4.583,4.53,4.46,4.393,4.344,4.328,4.296,4.264,4.249,4.233,4.203,4.173,4.158,4.085,4.056,4.014,3.973,3.933,3.893,3.868,3.855,3.842,3.817,3.817,3.804,3.804,3.792,3.792,3.78,3.78,3.78,3.78,3.78,3.804,3.817,3.855,3.88,3.946,4.07,4.173,4.249,4.28,4.328,4.393,4.477,4.565,4.601,4.657,4.713,4.732,4.752,4.771,4.791,4.81,4.81,4.83,4.83,4.851,4.851,4.851,4.851,4.851,4.851,4.851,4.851,4.871,4.851,4.871,4.871,4.891,4.891,4.891,4.891,4.891,4.891,4.891,4.891,4.891,4.891,4.891,4.891,4.891,4.891,4.891,4.871,4.871,4.871,4.851,4.851,4.83,4.83,4.81,4.81,4.771,4.752,4.732,4.732,4.732,4.732,4.752,4.771,4.791,4.81,4.83,4.83,4.851,4.871,4.891,4.912,4.912,4.933,4.954,4.954,4.975,4.996,4.996,5.018,5.018,5.018,5.018,5.018,5.018,5.018,4.996,4.996,5.018,5.018,5.018,5.018,5.018,5.084,5.084,5.151,5.151,5.174,5.22,5.244,5.244,5.268,5.268,5.244,5.244,5.244,5.22,5.22,5.174,5.174,5.151,5.106,5.106,5.084,5.04,5.018,4.975,4.954,4.912,4.891,4.871,4.851,4.83,4.752,4.713,4.638,4.565,4.512,4.426,4.393,4.344,4.328,4.312,4.296,4.28,4.28,4.264,4.249,4.249,4.218,4.188,4.173,4.07,4.028,3.987,3.973,3.933,3.92,3.893,3.88,3.868,3.868,3.868,3.868,3.868,3.868,3.868,3.88,3.88,3.893,3.92,3.973,4.028,4.085,4.173,4.218,4.264,0,4.312,4.36,4.46,4.53,4.638,4.694,4.771,4.81,4.83,4.851,4.891,4.891,4.912,4.891,4.891,4.891,4.891,4.871,4.851,0,0,0,0,0,0,1.69,1.69,1.692,1.692,1.695,1.697,1.697,1.697,1.697,1.697,1.697,1.697,1.697,1.697,1.697,1.695,1.695,1.692,1.692,1.69,1.692,1.692,1.695,1.699,1.704,1.712,1.727,1.738,1.748,1.756,1.764,1.769,1.769,1.772,1.772,1.775,1.775,1.775,1.775,1.775,1.777,1.777,1.777,1.777,1.777,1.777,1.777,1.777,1.777,1.777,1.777,1.777,1.775,1.775,1.775,1.775,1.775,1.775,1.775,1.775,1.775,1.775,1.775,1.775,1.775,1.775,1.775,1.777,1.777,1.78,1.78,1.78,1.78,1.78,1.78,1.78,1.78,1.78,1.777,1.777,1.775,1.775,1.775,1.775,1.775,1.772,1.772,1.775,1.775,1.775,1.775,1.775,1.775,1.775,1.775,1.775,1.777,1.777,1.78,1.78,1.78,1.78,1.78,1.78,1.78,1.78,1.78,1.777,1.777,1.777,1.777,1.777,1.777,1.777,1.777,1.78,1.777,1.775,1.775,1.775,1.772,1.772,1.772,1.769,1.767,1.767,1.764,1.759,1.748,1.74,1.735,1.727,1.72,1.709,1.704,1.699,1.697,0,0,0,0,0,0,0,0.917,0.917,0.919,0,0,0,0.922,0.922,0.922,0.922,0.922,0.921,0.92,0.92,0.918,0.915,0,0,0,0,0,0,0,0,0,0,0,0,0,0,0,0,0,0,0.838,0.838,0,0,0,0,0.837,0.837,0,0,0,0,0,0.835,0.835,0.835,0.835,0.835,0.835,0.835,0.835,0.834,0.833,0.832,0.832,0.83,0.83,0.83,0.83,0.83,0.835,0.835,0.834,0.835,0.835,0.835,0.835,0.835,0.836,0.836,0.837,0.838,0.839,0.84,0.842,0.841,0.841,0.84,0.838,0.837,0.835,0.833,0.828,0.824,0.822,0.819,0.819,0,0.821,0,0.822,0.826,0.832,0.832,0.83,0.83,0.826,0.826,0.826,0.827,0.828,0.829,0.83,0.832,0.834,0.836,0,0,0,0,0,0.853,0.854,0.855,0.856,0.857,0.857,0.857,0,0,0,0,0,0,0,0,0,0,0,0,0
0,0,4.085,4.085,4.085,4.085,4.085,4.114,4.128,4.173,4.188,0,4.218,4.249,4.28,4.344,4.426,4.53,4.638,4.713,4.771,4.81,4.83,4.83,4.83,4.81,4.81,4.791,4.771,4.752,4.732,4.694,4.601,4.583,4.583,4.583,4.583,4.638,4.657,4.694,4.713,4.752,4.771,4.791,4.83,4.83,4.851,4.891,4.912,4.912,4.912,4.933,4.954,4.954,4.975,4.996,5.018,5.04,5.04,5.04,5.084,5.084,5.084,5.084,5.106,5.106,5.106,5.106,5.106,5.106,5.106,5.106,5.106,5.084,5.084,5.084,5.084,5.084,5.084,5.084,5.084,5.084,5.084,5.04,5.04,5.018,5.018,4.996,4.975,4.954,4.933,4.912,4.912,4.891,4.871,4.851,4.81,4.791,4.694,4.638,4.565,4.512,4.46,4.41,4.36,4.344,4.328,4.296,4.28,4.264,4.249,4.233,4.218,4.188,4.114,4.07,4.028,3.973,3.933,3.893,3.868,3.855,3.829,3.829,3.817,3.817,3.804,3.804,3.804,3.792,3.792,3.792,3.804,3.829,3.855,3.893,3.973,4.07,4.173,4.249,4.28,4.328,4.376,4.46,4.53,4.583,4.638,4.694,4.732,4.752,4.771,4.791,4.81,4.81,4.81,4.83,4.83,4.851,4.851,4.851,4.851,4.851,4.851,4.851,4.851,4.851,4.851,4.851,4.851,4.851,4.851,4.871,4.871,4.871,4.871,4.891,4.891,4.891,4.891,4.891,4.891,4.891,4.871,4.871,4.851,4.851,4.83,4.83,4.83,4.81,4.81,4.752,4.732,4.713,4.694,4.694,4.713,4.713,4.732,4.752,4.771,4.81,4.83,4.83,4.851,4.871,4.891,4.912,4.912,4.933,4.954,4.975,4.975,4.996,4.996,5.018,5.018,5.018,5.018,5.018,5.018,5.018,4.996,5.018,4.996,4.996,5.018,5.018,5.018,5.084,5.084,5.106,5.151,5.174,5.22,5.22,5.22,5.22,5.244,5.244,5.22,5.174,5.174,5.174,5.151,5.151,5.106,5.106,5.084,5.04,5.018,4.996,4.954,4.933,4.912,4.891,4.851,4.83,4.81,4.732,4.657,4.583,4.53,4.46,4.41,4.36,4.344,4.328,4.312,4.296,4.28,4.264,4.249,4.233,4.203,4.188,4.128,4.07,4.028,3.987,3.946,3.92,3.906,3.893,3.88,3.868,3.868,3.855,3.855,3.855,3.855,3.855,3.855,3.868,3.868,3.88,3.906,3.933,3.987,4.07,4.128,4.203,4.249,4.28,0,4.328,4.393,4.46,4.53,4.638,4.713,4.791,4.83,4.851,4.871,4.891,4.912,4.891,4.891,0,0,0,0,0,0,0,1.682,1.682,1.685,1.685,1.687,1.69,1.69,1.692,1.692,1.692,1.695,1.697,1.697,1.695,1.695,1.695,1.695,1.695,1.692,1.692,1.69,1.687,1.69,1.69,1.69,1.692,1.697,1.699,1.709,1.722,1.738,1.748,1.759,1.764,1.769,1.769,1.772,1.772,1.775,1.775,1.775,1.775,1.777,1.777,1.777,1.78,1.78,1.78,1.78,1.78,1.78,1.78,1.78,1.777,1.777,1.777,1.777,1.777,1.775,1.775,1.775,1.775,1.775,1.775,1.775,1.775,1.775,1.775,1.775,1.777,1.777,1.777,1.78,1.78,1.78,1.78,1.78,1.783,1.783,1.78,1.78,1.78,1.78,1.777,1.777,1.775,1.775,1.775,1.775,1.775,1.772,1.772,1.772,1.772,1.772,1.772,1.772,1.772,1.772,1.772,1.772,1.775,1.772,1.775,1.775,1.775,1.775,1.775,1.775,1.775,1.775,1.775,1.775,1.775,1.775,1.775,1.775,1.777,1.775,1.775,1.775,1.772,1.772,1.772,1.769,1.769,1.767,1.764,1.764,1.761,0,0,0,0,0,0,0,0,0,0,0,0,0,0,0,0,0.914,0.914,0.915,0.917,0.918,0.919,0.92,0.92,0.92,0.92,0.92,0.92,0.919,0,0,0,0.91,0.907,0.904,0.901,0.9,0,0,0,0,0,0,0,0,0,0,0,0,0.836,0.836,0.836,0.836,0.837,0.838,0.838,0.836,0.835,0.835,0.835,0.83,0.83,0.829,0.826,0.826,0.826,0.828,0.829,0.829,0.829,0.827,0.826,0.824,0.824,0.823,0.822,0.822,0.821,0.821,0.821,0.821,0.821,0.821,0.821,0.822,0.822,0.823,0.824,0.826,0.829,0.832,0.833,0.835,0.836,0.837,0.838,0.838,0.837,0.836,0.835,0.834,0.83,0.826,0.822,0.818,0.816,0.814,0.811,0.809,0.811,0.814,0,0,0.82,0.822,0.822,0.823,0.824,0.822,0.823,0.822,0.822,0.822,0.824,0.824,0.826,0,0.829,0,0.835,0,0,0,0,0,0.845,0.847,0.847,0.847,0,0,0,0,0,0,0,0,0,0,0,0,0
0,0,4.07,4.07,4.085,4.07,4.085,4.085,4.114,4.158,4.188,4.203,0,4.249,4.28,4.328,4.393,4.512,4.638,4.732,4.791,4.83,4.83,4.851,4.851,4.83,4.83,4.81,4.791,4.752,4.713,4.657,4.601,4.565,4.565,4.53,4.53,4.583,4.583,4.638,4.657,4.713,4.752,4.791,4.81,4.83,4.851,4.891,4.912,4.912,4.933,4.933,4.933,4.954,4.975,4.996,4.996,5.018,5.018,5.04,5.04,5.084,5.106,5.106,5.106,5.106,5.106,5.106,5.106,5.084,5.084,5.106,5.106,5.106,5.084,5.084,5.084,5.106,5.106,5.106,5.084,5.084,5.084,5.084,5.04,5.04,5.018,4.996,4.996,4.975,4.954,4.933,4.912,4.891,4.871,4.851,4.83,4.81,4.732,4.694,4.638,4.583,4.565,4.512,4.46,4.41,4.393,4.36,4.328,4.312,4.312,4.28,4.264,4.264,4.249,4.173,4.128,4.07,4.028,3.973,3.92,3.88,3.868,3.855,3.842,3.829,3.829,3.817,3.817,3.804,3.804,3.804,3.817,3.842,3.868,3.893,3.973,4.07,4.158,4.233,4.28,4.312,4.36,4.41,4.477,4.565,4.601,4.657,4.713,4.732,4.771,4.791,4.791,4.81,4.81,4.83,4.83,4.83,4.83,4.83,4.851,4.851,4.83,4.83,4.83,4.83,4.83,4.83,4.83,4.83,4.851,4.851,4.851,4.851,4.851,4.871,4.871,4.871,4.871,4.871,4.871,4.851,4.851,4.851,4.851,4.851,4.83,4.83,4.81,4.81,4.752,4.732,4.713,4.694,4.657,4.657,4.657,4.694,4.713,4.732,4.771,4.81,4.83,4.851,4.851,4.871,4.891,4.912,4.912,4.933,4.954,4.975,4.996,4.996,5.018,5.018,5.04,5.04,5.04,5.04,5.04,5.018,5.018,4.996,4.996,4.996,4.996,5.018,5.018,5.04,5.084,5.106,5.151,5.174,5.22,5.174,5.22,5.22,5.22,5.22,5.174,5.174,5.151,5.106,5.106,5.106,5.084,5.04,5.018,5.018,4.996,4.975,4.954,4.912,4.891,4.871,4.851,4.83,4.752,4.713,4.638,4.565,4.512,4.46,4.393,4.36,4.328,4.312,4.312,4.28,4.264,4.249,4.233,4.203,4.188,4.158,4.07,4.028,3.987,3.946,3.92,3.906,3.88,3.868,3.868,3.855,3.855,3.842,3.842,3.842,3.842,3.842,3.842,3.855,3.855,3.868,3.893,3.92,3.946,4.028,4.085,4.158,4.203,4.249,4.28,0,4.328,4.376,4.426,4.53,4.657,4.752,4.791,4.83,4.851,0,0,0,0,0,0,0,0,1.673,1.673,1.673,1.673,1.675,1.677,1.68,1.685,1.685,1.687,1.687,1.69,1.69,1.692,1.692,1.692,1.692,1.692,1.692,1.692,1.69,1.687,1.687,1.687,1.687,1.687,1.687,1.687,1.692,1.692,1.699,1.707,1.72,1.735,1.745,1.756,1.761,1.767,1.769,1.772,1.772,1.772,1.775,1.775,1.777,1.777,1.777,1.78,1.78,1.78,1.78,1.78,1.78,1.78,1.78,1.78,1.78,1.78,1.78,1.777,1.777,1.775,1.775,1.775,1.775,1.775,1.775,1.775,1.775,1.775,1.775,1.775,1.777,1.777,1.78,1.78,1.78,1.783,1.783,1.783,1.783,1.783,1.783,1.783,1.78,1.78,1.78,1.777,1.775,1.775,1.772,1.772,1.769,1.769,1.769,1.769,1.769,1.767,1.769,1.769,1.769,1.767,1.767,1.767,1.767,1.769,1.769,1.769,1.769,1.769,1.769,1.769,1.769,1.769,1.772,1.772,1.772,1.772,1.772,1.775,1.775,1.775,1.772,1.772,1.772,1.769,1.769,1.769,1.767,1.764,0,0,0,0,0,0,0,0,0,0,0,0,0,0,0,0,0,0.912,0.911,0.91,0.911,0.912,0.914,0.916,0.917,0.917,0.919,0.92,0.92,0.919,0.917,0.916,0.914,0.911,0.909,0.905,0.902,0.9,0.898,0.898,0,0,0,0,0,0,0,0,0,0,0,0.833,0,0,0.832,0.834,0.835,0.836,0.836,0.834,0.833,0.833,0.83,0.828,0.827,0.826,0.822,0.822,0.822,0.822,0.822,0.821,0.821,0.82,0.819,0.819,0.819,0.818,0.818,0.818,0.817,0.817,0.817,0.817,0.817,0.817,0.817,0.818,0.818,0.818,0.819,0.819,0.821,0.823,0.826,0.828,0.832,0.834,0.836,0.835,0.835,0.833,0.832,0.83,0.826,0.822,0.817,0.815,0.811,0.806,0.801,0.801,0.801,0.802,0,0.813,0.816,0.818,0.819,0.82,0.82,0.82,0.819,0.819,0.819,0.818,0.818,0.818,0.818,0.819,0.82,0.822,0.826,0.829,0,0,0,0,0,0.836,0.836,0.836,0,0,0,0,0,0,0,0,0,0,0,0,0
0,0,4.085,4.085,4.085,4.085,4.085,4.114,4.128,4.158,4.173,0,4.218,4.249,4.28,4.328,4.393,4.477,4.638,4.713,4.791,4.83,4.851,4.851,4.851,4.851,4.83,4.81,4.791,4.752,4.713,4.657,4.601,4.565,4.53,4.477,4.512,4.53,4.565,4.583,4.638,4.657,4.713,4.752,4.81,4.83,4.851,4.891,4.891,4.912,4.912,4.912,4.912,4.933,4.954,4.954,4.954,4.954,4.975,4.996,4.996,5.04,5.04,5.084,5.084,5.084,5.084,5.084,5.084,5.084,5.084,5.084,5.084,5.106,5.084,5.084,5.084,5.084,5.106,5.106,5.106,5.084,5.084,5.084,5.084,5.04,5.018,5.018,4.996,4.975,4.954,4.933,4.912,4.912,4.891,4.871,4.851,4.83,4.81,4.752,4.732,4.694,4.638,4.601,4.583,4.53,4.512,4.46,4.426,4.393,4.376,4.344,4.328,4.312,4.296,4.28,4.233,4.188,4.128,4.07,4.028,3.973,3.92,3.893,3.88,3.868,3.868,3.855,3.842,3.829,3.829,3.817,3.829,3.842,3.868,3.893,3.946,4.056,4.158,4.218,4.264,4.312,4.328,4.376,4.426,4.512,4.565,4.601,4.657,4.713,4.752,4.771,4.791,4.81,4.81,4.81,4.83,4.83,4.83,4.83,4.83,4.83,4.83,4.83,4.81,4.81,4.81,4.83,4.83,4.83,4.83,4.83,4.851,4.851,4.851,4.851,4.851,4.851,4.851,4.851,4.851,4.851,4.851,4.851,4.851,4.83,4.83,4.81,4.81,4.81,4.771,4.752,4.732,4.713,4.694,4.713,4.713,4.732,4.752,4.771,4.81,4.83,4.83,4.851,4.871,4.891,4.912,4.912,4.933,4.954,4.975,4.996,5.018,5.018,5.04,5.04,5.04,5.084,5.084,5.04,5.04,5.04,5.018,5.018,4.996,4.996,4.996,4.996,5.018,5.04,5.084,5.106,5.151,5.151,5.174,5.174,5.174,5.174,5.22,5.174,5.151,5.151,5.106,5.106,5.084,5.084,5.04,5.04,5.018,4.996,4.975,4.954,4.933,4.912,4.891,4.871,4.851,4.83,4.752,4.694,4.638,4.565,4.512,4.46,4.41,4.36,4.328,4.328,4.312,4.28,4.264,4.249,4.233,4.203,4.173,4.128,4.056,4.014,3.973,3.933,3.906,3.88,3.868,3.868,3.855,3.855,3.842,3.829,3.829,3.829,3.829,3.829,3.829,3.829,3.842,3.855,3.868,3.893,3.92,3.987,4.028,4.085,0,0,0,0,0,0,0,0,1.69,0,0,0,0,0,0,0,0,0,0,1.661,1.665,1.665,1.665,1.665,1.668,1.668,1.673,1.675,1.675,1.677,1.68,1.682,1.685,1.687,1.687,1.687,1.687,1.69,1.69,1.687,1.687,1.687,1.685,1.682,1.68,1.68,1.68,1.68,1.685,1.687,1.69,1.697,1.702,1.714,1.735,1.745,1.753,1.761,1.764,1.769,1.772,1.772,1.772,1.775,1.775,1.775,1.777,1.777,1.78,1.78,1.78,1.78,1.78,1.783,1.783,1.78,1.78,1.78,1.78,1.777,1.777,1.777,1.775,1.775,1.775,1.775,1.775,1.775,1.775,1.775,1.775,1.775,1.775,1.777,1.777,1.777,1.78,1.78,1.78,1.78,1.78,1.78,1.78,1.78,1.78,1.777,1.777,1.775,1.775,1.772,1.772,1.769,1.769,1.767,1.764,1.764,1.761,1.761,1.759,1.761,1.759,1.759,1.759,1.759,1.756,1.756,1.756,1.756,1.759,1.759,1.761,1.761,1.761,1.764,1.767,1.769,1.769,1.769,1.769,1.772,0,0,0,0,0,0,0.96,0.959,0.959,0.957,0.956,0.954,0,0,0,0,0,0,0,0,0,0,0,0,0,0.917,0.914,0.912,0.909,0.909,0.909,0.908,0.91,0.912,0.913,0.915,0.916,0.917,0.917,0.917,0.917,0.916,0.914,0.911,0.908,0.905,0.902,0.898,0.897,0.895,0.891,0,0,0,0,0,0,0,0,0,0,0,0,0,0,0,0.826,0.829,0.832,0.833,0.83,0.827,0.826,0.826,0.826,0.822,0.819,0.819,0.819,0.819,0.819,0.819,0.818,0.817,0.817,0.817,0.816,0.816,0.816,0.815,0.815,0.815,0.814,0.814,0.813,0.812,0.812,0.811,0.811,0.811,0.812,0.814,0.815,0.816,0.818,0.819,0.82,0.823,0.828,0.832,0.832,0.832,0.83,0.828,0.826,0.823,0.817,0.814,0.809,0.804,0.801,0.798,0.797,0.797,0,0,0.802,0,0.811,0.815,0.817,0.818,0.818,0.818,0.817,0.816,0.816,0.815,0.815,0.814,0.815,0.816,0.816,0.817,0.818,0.819,0.82,0.823,0.824,0.826,0.826,0.826,0,0,0,0,0,0,0,0,0,0,0,0,0,0
0,0,4.114,4.114,4.114,4.128,4.128,4.128,4.158,4.173,4.203,0,4.218,4.249,4.28,4.312,4.376,4.46,4.601,4.694,4.771,4.81,4.83,4.851,4.851,4.851,4.83,4.81,4.791,4.752,4.713,4.657,4.601,4.565,4.512,4.477,4.477,4.512,4.512,4.53,4.601,4.638,4.694,4.752,4.81,4.83,4.851,4.871,4.891,4.912,4.912,4.912,4.912,4.912,4.912,4.912,4.912,4.933,4.933,4.954,4.975,4.975,5.018,5.018,5.04,5.084,5.04,5.04,5.04,5.04,5.04,5.04,5.084,5.084,5.084,5.084,5.084,5.084,5.084,5.084,5.106,5.084,5.084,5.084,5.084,5.04,5.018,5.018,4.996,4.975,4.954,4.933,4.933,4.912,4.891,4.891,4.871,4.851,4.83,4.81,4.771,4.752,4.732,4.694,4.694,4.638,4.601,4.583,4.565,4.53,4.512,4.46,4.426,4.393,4.36,4.328,4.312,4.28,4.249,4.203,4.158,4.085,4.056,4.014,3.987,3.973,3.933,3.906,3.868,3.855,3.855,3.842,3.842,3.855,3.868,3.893,3.946,4.056,4.128,4.203,4.264,4.296,4.328,4.36,4.41,4.46,4.53,4.583,4.638,4.694,4.732,4.752,4.791,4.81,4.81,4.81,4.83,4.83,4.83,4.83,4.83,4.83,4.83,4.83,4.81,4.81,4.81,4.81,4.81,4.83,4.83,4.83,4.83,4.83,4.851,4.851,4.851,4.851,4.851,4.851,4.851,4.851,4.851,4.851,4.851,4.83,4.83,4.83,4.81,4.81,4.81,4.771,4.752,4.752,4.732,4.732,4.752,4.771,4.791,4.81,4.81,4.83,4.851,4.871,4.891,4.912,4.912,4.954,4.975,4.975,4.996,5.018,5.018,5.04,5.04,5.04,5.084,5.084,5.084,5.04,5.04,5.018,5.018,4.996,4.975,4.975,4.975,4.996,4.996,5.018,5.04,5.084,5.106,5.151,5.151,5.174,5.174,5.174,5.174,5.151,5.151,5.106,5.106,5.084,5.084,5.04,5.018,5.018,4.996,4.975,4.954,4.933,4.912,4.891,4.891,4.871,4.851,4.83,4.752,4.713,4.638,4.583,4.565,4.477,4.426,4.393,4.344,4.328,4.312,4.296,4.28,4.249,4.233,4.203,4.173,4.07,4.028,3.987,3.933,3.906,3.893,3.868,3.868,3.855,3.842,3.829,3.829,3.829,3.817,3.817,3.817,3.817,3.817,3.829,3.829,3.855,3.868,3.88,0,3.946,0,0,0,0,0,0,1.687,1.69,1.69,1.692,1.69,1.69,1.687,1.687,1.682,1.68,1.675,1.668,1.665,1.661,1.658,1.656,1.658,1.658,1.658,1.661,1.658,1.665,1.661,1.668,1.668,1.665,1.673,1.673,1.675,1.677,1.68,1.68,1.68,1.68,1.68,1.68,1.68,1.675,1.673,1.668,1.665,1.665,1.668,1.673,1.675,1.68,1.685,1.69,1.697,1.707,1.722,1.735,1.748,1.759,1.761,1.767,1.769,1.772,1.772,1.775,1.775,1.775,1.777,1.777,1.78,1.78,1.78,1.78,1.78,1.78,1.78,1.78,1.78,1.78,1.78,1.777,1.775,1.775,1.775,1.775,1.772,1.772,1.772,1.769,1.772,1.772,1.775,1.775,1.775,1.775,1.775,1.775,1.775,1.775,1.777,1.777,1.777,1.775,1.775,1.775,1.775,1.772,1.772,1.769,1.769,1.767,1.764,1.759,1.759,1.756,1.756,1.756,1.753,1.753,1.745,1.745,1.745,1.745,1.74,1.74,1.738,1.738,1.738,1.738,1.74,1.74,1.745,1.748,1.753,1.756,1.759,1.761,1.767,1.769,0,0,0,0,0,0,0.962,0.96,0.959,0.958,0.958,0.957,0.954,0.953,0.952,0.951,0.95,0.948,0.947,0.946,0.944,0.943,0.94,0.935,0,0.925,0.922,0.917,0.913,0.911,0.91,0.908,0.906,0.906,0.907,0.908,0.91,0.911,0.913,0.914,0.915,0.915,0.914,0.912,0.909,0.906,0.902,0.9,0.897,0.895,0.893,0.888,0.883,0.879,0.878,0,0,0,0,0,0,0,0,0,0,0,0,0.817,0.819,0.82,0.822,0.823,0.822,0.82,0.82,0.82,0.82,0.819,0.819,0.819,0.819,0.818,0.818,0.818,0.817,0.817,0.816,0.816,0.815,0.814,0.814,0.813,0.812,0.811,0.81,0.809,0.807,0.805,0.804,0.804,0.804,0.804,0.806,0.808,0,0.811,0.814,0.816,0.818,0.819,0,0.826,0.828,0.826,0.824,0.822,0.82,0.816,0.81,0.803,0.8,0.798,0.788,0.784,0.783,0.783,0,0.79,0,0.797,0.8,0.802,0.81,0.812,0.814,0.815,0.815,0.814,0.813,0.812,0.81,0.809,0.808,0.81,0.81,0.811,0.811,0.813,0.814,0.816,0.816,0.817,0.818,0.818,0,0,0,0,0,0,0,0,0,0,0,0,0,0
0,0,0,4.158,4.158,0,4.158,4.173,4.188,0,4.203,4.233,4.249,4.264,4.28,4.312,4.376,4.46,4.565,4.657,4.732,4.81,4.83,4.83,4.851,4.83,4.83,4.81,4.771,4.732,4.694,4.657,4.601,4.565,4.512,4.512,4.477,4.512,4.53,4.565,4.583,4.601,4.713,4.752,4.81,4.81,4.83,4.851,4.871,4.891,4.891,4.891,4.891,4.891,4.891,4.891,4.891,4.891,4.891,4.912,4.912,4.933,4.954,4.975,4.996,5.018,5.018,5.018,5.04,5.018,5.018,5.04,5.04,5.04,5.084,5.084,5.084,5.084,5.084,5.084,5.084,5.084,5.084,5.084,5.084,5.04,5.04,5.018,4.996,4.975,4.975,4.954,4.933,4.912,4.912,4.891,4.891,4.851,4.851,4.83,4.83,4.81,4.771,4.752,4.752,4.713,4.713,4.694,4.657,4.601,4.583,4.565,4.53,4.512,4.46,4.41,4.36,4.328,4.28,4.264,4.249,4.218,4.188,4.158,4.128,4.085,4.056,3.987,3.933,3.893,3.868,3.855,3.855,3.855,3.868,3.893,3.946,4.028,4.128,4.203,4.249,4.28,4.312,4.328,4.376,4.426,4.477,4.565,4.601,4.657,4.713,4.752,4.771,4.791,4.81,4.81,4.83,4.83,4.83,4.83,4.83,4.83,4.81,4.81,4.81,4.81,4.81,4.81,4.81,4.83,4.83,4.83,4.83,4.83,4.83,4.851,4.851,4.851,4.851,4.851,4.851,4.851,4.851,4.851,4.851,4.851,4.83,4.83,4.83,4.83,4.81,4.81,4.81,4.791,4.791,4.791,4.791,4.81,4.81,4.83,4.83,4.851,4.871,4.912,4.912,4.933,4.954,4.975,4.975,4.996,5.018,5.04,5.04,5.04,5.084,5.084,5.084,5.084,5.084,5.084,5.04,5.018,4.996,4.996,4.975,4.975,4.975,4.975,4.975,4.996,5.018,5.04,5.084,5.106,5.106,5.106,5.151,5.106,5.151,5.106,5.106,5.084,5.084,5.04,5.04,5.018,5.018,4.996,4.975,4.954,4.954,4.933,4.912,4.891,4.891,4.871,4.851,4.83,4.771,4.732,4.657,4.638,4.583,4.53,4.477,4.41,4.376,4.344,4.328,4.312,4.28,4.249,4.233,4.203,4.158,4.07,4.014,3.973,3.933,3.906,3.88,3.868,3.855,3.855,3.842,3.829,3.829,3.817,3.817,3.817,3.817,3.817,0,0,0,0,0,0,0,1.637,1.644,1.651,1.661,1.668,1.675,1.682,1.685,1.69,1.69,1.692,1.69,1.69,1.687,1.687,1.682,1.68,1.673,1.668,1.665,1.658,1.656,1.651,1.656,1.651,1.651,1.651,1.658,1.656,1.656,1.656,1.656,1.656,1.656,1.658,1.661,1.661,1.661,1.665,1.665,1.665,1.665,1.665,1.661,1.658,1.656,1.651,1.651,1.651,1.656,1.656,1.661,1.668,1.675,1.685,1.692,1.699,1.712,1.727,1.738,1.753,1.759,1.764,1.769,1.769,1.772,1.772,1.775,1.775,1.775,1.775,1.777,1.78,1.78,1.78,1.78,1.78,1.78,1.78,1.78,1.777,1.777,1.775,1.775,1.772,1.772,1.769,1.769,1.769,1.767,1.767,1.764,1.764,1.764,1.764,1.769,1.769,1.769,1.769,1.769,1.769,1.772,1.772,1.769,1.769,1.769,1.769,1.769,1.767,1.761,1.759,1.753,1.753,1.748,1.745,1.74,1.738,1.738,1.738,1.738,1.73,1.73,1.73,1.727,1.722,1.722,1.72,1.714,1.714,1.72,1.72,1.722,1.722,1.73,1.738,1.738,1.74,1.748,1.756,0,0,0,0,0,0,0,0.965,0.962,0.959,0.958,0.957,0.957,0.956,0.954,0.952,0.951,0.95,0.95,0.948,0.946,0.945,0.944,0.942,0.94,0.935,0.929,0.925,0.922,0.92,0.913,0.911,0.909,0.906,0.905,0.904,0.904,0.906,0.907,0.908,0.908,0.908,0.908,0.906,0.904,0.901,0.9,0.898,0.895,0.893,0.889,0.887,0.884,0.881,0.879,0,0.875,0.873,0,0,0,0,0,0,0.8,0,0,0,0.815,0,0.818,0.819,0.82,0.821,0.82,0.82,0.819,0.819,0.819,0.819,0.819,0.818,0.818,0.818,0.817,0.817,0.816,0.816,0.815,0.815,0.814,0.814,0.812,0.81,0.809,0.807,0.804,0.802,0.801,0.801,0.8,0.8,0.8,0.8,0.8,0.801,0.803,0.805,0.807,0.811,0,0.815,0.818,0,0.82,0.819,0.815,0.813,0.806,0.801,0,0.785,0.783,0.781,0.777,0.775,0.773,0.773,0.777,0.781,0.785,0.79,0,0,0.801,0.804,0.808,0.81,0.81,0.81,0.81,0.809,0.807,0.806,0.807,0.807,0.806,0.806,0.805,0.805,0.806,0.806,0.806,0.807,0.809,0.81,0,0,0,0,0,0,0,0,0,0,0,0,0,0
